# This PCD file was generated using the MATLAB® pcwrite function
# from Computer Vision Toolbox®.
# .PCD v.7 - Point Cloud Data file format
VERSION .7
FIELDS x y z intensity
SIZE 8 8 8 8
TYPE F F F F
COUNT 1 1 1 1
WIDTH 638
HEIGHT 1
VIEWPOINT 0 0 0 1 0 0 0
POINTS 638
DATA ascii
5.866712342055658 -6.826227892093126 -2.209100056761044 8.000000000000000
5.673054335138153 -6.538676563564469 -2.280453311879668 19.000000000000000
5.718883407755176 -6.527751875176641 -2.443580165378330 4.000000000000000
5.498760178388478 -6.215728484874996 -2.488624500177296 53.000000000000000
5.373446544440908 -5.897752164752785 -2.837184455968607 22.000000000000000
5.374622362826476 -5.840869301370852 -2.973256844154088 75.000000000000000
7.296948180941535 -9.036139052126565 -1.627489562266755 41.000000000000000
7.361391653943621 -9.032188367816948 -1.837145123696374 36.000000000000000
7.478520879751020 -9.092273101275806 -2.062183140010706 32.000000000000000
6.994938698435272 -8.424816462889119 -2.111966896465268 0.000000000000000
6.109200162331564 -7.289894165153673 -2.003376259574436 5.000000000000000
6.125379814359704 -7.240371693409998 -2.165807902631696 27.000000000000000
5.761220828357264 -6.745504965683742 -2.184718133956512 14.000000000000000
5.833323284064521 -6.765768128065863 -2.361000021355122 10.000000000000000
5.704714781350554 -6.552828005077839 -2.453866010871029 10.000000000000000
5.465172417036886 -6.217103613744976 -2.489628307201373 25.000000000000000
6.369692429403647 -7.175880021808580 -3.062506859977029 9.000000000000000
5.352895562849283 -5.913222056867416 -2.843824537380095 42.000000000000000
5.379302996767756 -5.884003086290028 -2.993971100310567 40.000000000000000
7.296617667792347 -9.090745069208436 -1.642470303148007 39.000000000000000
7.370801978070753 -9.099079522995076 -1.855469222132226 36.000000000000000
7.502500539601685 -9.177531894614244 -2.085830764135640 30.000000000000000
7.550716505664833 -9.150427547606530 -2.297697096460756 21.000000000000000
7.002594160247265 -8.407875222392725 -2.313690833180908 17.000000000000000
6.114577086920028 -7.272745406157279 -2.177756943584559 15.000000000000000
5.852306097723821 -6.895170517967574 -2.234948068008607 40.000000000000000
5.818571005808570 -6.791247488252878 -2.371221837716333 8.000000000000000
5.697986140583591 -6.586619598695615 -2.467407587691202 12.000000000000000
5.449263171019955 -6.238538256568646 -2.498654700893059 31.000000000000000
6.252005952272646 -7.088454013834400 -3.025230117941834 10.000000000000000
5.440600235514186 -6.049056623473540 -2.908329940590282 83.000000000000000
5.484413779323239 -6.038067211563438 -3.071091963099100 11.000000000000000
7.305888903364471 -9.157813374922002 -1.659718506794336 38.000000000000000
7.379857005497388 -9.166105433174286 -1.873840379099555 35.000000000000000
7.516072855519996 -9.250781459651645 -2.106776498891336 30.000000000000000
7.554205006279339 -9.211345559150713 -2.316807223965459 21.000000000000000
7.098019661115659 -8.575496303925402 -2.362917694668476 17.000000000000000
6.983419704782619 -8.358117793277913 -2.505332748467758 32.000000000000000
6.115183780055201 -7.250195427123343 -2.351845574154388 23.000000000000000
5.710985067713548 -6.707806311436713 -2.343382180653144 8.000000000000000
5.698610185051577 -6.629191127565261 -2.484232467591640 14.000000000000000
5.448319344450872 -6.277292909676152 -2.514610515967018 37.000000000000000
6.255468201648786 -7.137913405761402 -3.046364027822764 7.000000000000000
7.312345767322940 -9.221912058930801 -1.676449031870924 39.000000000000000
7.388555935441164 -9.233264722874978 -1.892257843468901 34.000000000000000
7.529248290011323 -9.324191972980520 -2.127780119835516 27.000000000000000
7.554891179901337 -9.269325153530406 -2.335184459090430 21.000000000000000
7.097993774784647 -8.628928863033092 -2.380724059993676 15.000000000000000
7.078459819799754 -8.524950593174060 -2.557930406289759 17.000000000000000
5.954402225713494 -7.104031699873707 -2.306194211597909 4.000000000000000
5.633956946933764 -6.659222286360088 -2.327675162247064 16.000000000000000
5.669022166589014 -6.636732197521377 -2.487920700726910 24.000000000000000
5.439667004584578 -6.307409162300152 -2.527098838305684 23.000000000000000
5.334417976328686 -5.949869309163109 -3.023735447703765 47.000000000000000
7.316015924396585 -9.283018877072676 -1.692652215278713 38.000000000000000
7.394439715561107 -9.297465100620041 -1.910085860814893 32.000000000000000
7.549420048942294 -9.406975381612430 -2.150947487589089 25.000000000000000
7.557744515441165 -9.330444274675322 -2.354358400179870 21.000000000000000
7.092735840644818 -8.676385137980530 -2.396881146878794 11.000000000000000
7.031117953788242 -8.521081584802554 -2.559325877072989 19.000000000000000
7.076252301504518 -8.495735203474615 -2.760063897429586 12.000000000000000
5.679139257517066 -6.755186561373280 -2.362483399893072 12.000000000000000
5.631971051834609 -6.635373384568584 -2.488257647161121 33.000000000000000
5.445804395390651 -6.354973849091065 -2.546571393955515 1.000000000000000
5.962176717768273 -6.824785244847516 -3.094273929020118 33.000000000000000
3.950758732373611 -4.478785750651985 -2.151531463476744 0.000000000000000
3.935340144690604 -4.418091583611939 -2.244359308222257 0.000000000000000
7.319368604552078 -9.344228558729808 -1.708888490486036 36.000000000000000
7.402433626918698 -9.364880045658904 -1.928590710721948 33.000000000000000
7.561770133653125 -9.480724131988580 -2.172073290411946 25.000000000000000
7.552891436367704 -9.382494094875852 -2.371246826052313 19.000000000000000
7.097099233745301 -8.736034497090115 -2.416408022669879 8.000000000000000
6.988803547700717 -8.523049473650065 -2.562441929363322 19.000000000000000
7.018856125499007 -8.480070486951886 -2.757021440952665 19.000000000000000
5.656868400270385 -6.771427049192289 -2.369411661043594 13.000000000000000
5.592503123962477 -6.630929101280289 -2.487421167045119 35.000000000000000
6.143673781125480 -7.215347012291350 -2.891799433454817 31.000000000000000
6.214581120245582 -7.229123872519463 -3.085311902491602 15.000000000000000
5.881611275103756 -6.776206959635235 -3.071794922966601 41.000000000000000
3.932677561251314 -4.487340957363614 -2.155030007122273 22.000000000000000
3.927209024137967 -4.437848683848013 -2.253470288243840 19.000000000000000
7.319971284634172 -9.402416156462783 -1.724584243468201 35.000000000000000
7.412508227524405 -9.435529063474249 -1.947780549552693 33.000000000000000
7.578611480087645 -9.560799352828123 -2.194670765478291 26.000000000000000
7.371273580660741 -9.213982161718839 -2.332304123089436 9.000000000000000
7.108511003288756 -8.804917792816241 -2.438497483671172 4.000000000000000
6.936694960863247 -8.512778243053274 -2.561844180377340 19.000000000000000
6.973946791097021 -8.479140982164802 -2.758737820004092 24.000000000000000
5.637009358833041 -6.790578223720969 -2.377345762810965 28.000000000000000
5.558055876750578 -6.632217395655461 -2.488719206275276 31.000000000000000
6.121830435773664 -7.235893093537705 -2.900480521315147 28.000000000000000
6.155357875464570 -7.206478562019473 -3.075635244971362 28.000000000000000
3.950810595118397 -4.581281941480329 -2.076479572296933 9.000000000000000
3.909637911954556 -4.490166071590596 -2.155774581663001 25.000000000000000
3.904172930740657 -4.440763642906250 -2.254026618013620 26.000000000000000
3.919821507267487 -4.415153947890545 -2.364532716540370 0.000000000000000
7.329963639073902 -9.473212836637300 -1.742609423142426 37.000000000000000
7.419774886447379 -9.503208048833383 -1.966375705462511 30.000000000000000
7.595013602013163 -9.641057000870662 -2.217334501422334 23.000000000000000
7.351934754421882 -9.247220454977779 -2.344334708134538 14.000000000000000
7.119543330553478 -8.873948330120296 -2.460638900514809 0.000000000000000
5.904334332011787 -7.291569764172698 -2.196438587811968 1.000000000000000
6.931560759113112 -8.481040223784330 -2.761347164931548 29.000000000000000
5.867706471449614 -7.113526321640988 -2.491679761973665 20.000000000000000
5.523652452462772 -6.633374285106063 -2.489952846560677 28.000000000000000
6.122053263187730 -7.282730901246099 -2.919691501293866 12.000000000000000
6.130806537381974 -7.224168319144438 -3.083163845445823 30.000000000000000
3.922725089118893 -4.578292542657257 -2.074811140573071 12.000000000000000
3.884159173914988 -4.490061956054443 -2.155111863102373 26.000000000000000
3.878699689716715 -4.440778763004541 -2.253112668074837 26.000000000000000
3.913915661242428 -4.437624101826376 -2.375317353022729 13.000000000000000
7.334753665109715 -9.537874936084572 -1.759525611001248 35.000000000000000
7.433941247405329 -9.580369315188859 -1.986953777699282 26.000000000000000
7.610975449840166 -9.721495356479808 -2.240063556212585 23.000000000000000
7.327583209665102 -9.274278207334632 -2.354780677343859 14.000000000000000
5.856388871492956 -7.278071380657897 -2.194448077285478 8.000000000000000
6.901448298081605 -8.497830463448322 -2.768781826615492 33.000000000000000
5.839354566926659 -7.124342309701297 -2.496722030165303 20.000000000000000
5.494192397731320 -6.640320944684315 -2.493345473114018 21.000000000000000
6.118451672182393 -7.256326590834396 -3.096858011326669 21.000000000000000
3.904504073218277 -4.586706130522786 -2.078306718087243 16.000000000000000
3.863621375703020 -4.495559576747068 -2.157136517962742 30.000000000000000
3.853267480430215 -4.440694162836221 -2.252150322782942 34.000000000000000
3.888328104542478 -4.437779443207847 -2.374156305904677 13.000000000000000
7.336801294275412 -9.599504313283616 -1.775896311040679 33.000000000000000
7.442868444343824 -9.651445851633170 -2.006291676996094 26.000000000000000
7.628912488910068 -9.805218561510781 -2.263573987647956 21.000000000000000
7.288588260077761 -9.282773391344689 -2.360486250754205 17.000000000000000
5.825601831191203 -7.285654417011432 -2.198785805917326 33.000000000000000
5.894893321900729 -7.304634655840694 -2.381680345491658 5.000000000000000
5.801235109754057 -7.123094296394078 -2.497518537675942 19.000000000000000
5.457419001654288 -6.638262323021462 -2.493342168884254 19.000000000000000
3.876500087939793 -4.583516924771011 -2.076541275424225 17.000000000000000
3.838205178060546 -4.495270465323244 -2.156383188281192 28.000000000000000
3.835191160824173 -4.448995109174363 -2.255441260259007 27.000000000000000
3.870088303864590 -4.446229188940196 -2.377435281917619 13.000000000000000
7.343315275296265 -9.667532514019754 -1.793465878674988 33.000000000000000
7.451414705086596 -9.722659629679054 -2.025676335999509 26.000000000000000
7.646387754713608 -9.889132743382669 -2.287153665218533 20.000000000000000
7.182050273789899 -9.204560044240948 -2.344075992095282 14.000000000000000
5.802081728133958 -7.302274406753182 -2.205831387148962 73.000000000000000
5.856508621179950 -7.303334136992252 -2.382901016301048 21.000000000000000
5.760749790913099 -7.118698184738290 -2.497190821923399 13.000000000000000
5.445008123329308 -6.665803776322149 -2.504444559667318 30.000000000000000
3.853419734817940 -4.586000788762051 -2.077342800981459 17.000000000000000
3.810400692006042 -4.492017253970103 -2.154207872141118 30.000000000000000
3.807384288497231 -4.445897453636089 -2.252954662539079 28.000000000000000
3.846979100486790 -4.449011090672172 -2.377685453438672 13.000000000000000
7.344701624276560 -9.729367506492553 -1.809901095075679 32.000000000000000
7.461970101414624 -9.797148272891434 -2.045762431118188 27.000000000000000
7.672988390973121 -9.985714332845548 -2.313692809081337 18.000000000000000
7.143344184212959 -9.212592063356357 -2.349562797640089 12.000000000000000
5.780916986965626 -7.321884407806651 -2.213764104083831 21.000000000000000
5.825430772791919 -7.310978252638736 -2.387018496126998 51.000000000000000
5.727599867189695 -7.123160738575084 -2.499951370285245 11.000000000000000
5.442144081806212 -6.705265956755119 -2.520018301926097 38.000000000000000
3.930124932527087 -4.752537306123171 -2.028194065822220 0.000000000000000
3.827940093398205 -4.585498902564335 -2.076788495715396 21.000000000000000
3.794759047157839 -4.503010034735894 -2.158862756425608 28.000000000000000
3.784476061498445 -4.448371435088719 -2.253293703766097 25.000000000000000
3.823891844819010 -4.451707396450984 -2.377893272523026 12.000000000000000
7.352888617601725 -9.800790447772464 -1.828135546395558 32.000000000000000
7.472123496515435 -9.871784747814104 -2.065899403564158 26.000000000000000
7.128576632487153 -9.251545366536837 -2.362913355514521 13.000000000000000
5.771685717162931 -7.356750848476416 -2.226298483074304 9.000000000000000
5.796760818167632 -7.321553478430933 -2.392074137528444 57.000000000000000
5.687249938767714 -7.118462200131578 -2.499477553266785 11.000000000000000
5.441477934528147 -6.747766502009161 -2.536728034773605 20.000000000000000
3.899465347547815 -4.746231055031203 -2.025459151780450 1.000000000000000
3.802502725876047 -4.584897830463428 -2.076186143850541 20.000000000000000
3.767029488981768 -4.499565850033385 -2.156594535455168 29.000000000000000
3.766406949797706 -4.456459287854834 -2.256476302602781 26.000000000000000
3.798421321065511 -4.451499054316514 -2.376553731160754 12.000000000000000
7.360694893922665 -9.872346599753575 -1.846414713144047 33.000000000000000
7.481874016126220 -9.946567485468815 -2.086086398936978 26.000000000000000
7.120771730761285 -9.299837543724067 -2.378641549021463 13.000000000000000
5.767063841550690 -7.397771292463919 -2.240689749134254 8.000000000000000
5.780050976072655 -7.347259984539409 -2.402058582463698 23.000000000000000
5.649381470390701 -7.116623235696423 -2.499987744600356 12.000000000000000
5.442979446404331 -6.793325337453238 -2.554582080406860 0.000000000000000
3.878493604472137 -4.751565656655775 -2.027686161751395 2.000000000000000
3.774706859264963 -4.581283490130516 -2.074216408592797 23.000000000000000
3.741763144879844 -4.498894794833538 -2.155655397469312 33.000000000000000
3.743524505795003 -4.458777479431928 -2.256737393544702 37.000000000000000
3.777784659219953 -4.456843768612717 -2.378182224040110 12.000000000000000
7.368119654711996 -9.944034479539631 -1.864737789495809 32.000000000000000
7.110347645521246 -9.345052232246813 -2.393577058799086 10.000000000000000
5.762227576065793 -7.438835718982883 -2.255090354644658 15.000000000000000
5.770381660730775 -7.382097078018897 -2.415018472021861 15.000000000000000
5.609189480778888 -7.111609848738246 -2.499362864421387 13.000000000000000
6.020198051924206 -7.562484791062543 -2.844611608032941 1.000000000000000
3.850349365125065 -4.747981026013504 -2.026101168031045 4.000000000000000
3.758930102155765 -4.592162679898213 -2.078805043398086 18.000000000000000
3.750001139041372 -4.538622865262965 -2.174067603387852 12.000000000000000
3.730217902693791 -4.472464143122721 -2.262751176533620 14.000000000000000
3.752379975881986 -4.456451022082820 -2.376752575338226 12.000000000000000
7.109150715529260 -9.402797891754572 -2.411719699862644 9.000000000000000
5.750060189346368 -7.470697399957208 -2.266694548713305 11.000000000000000
5.779540638452842 -7.441418426740198 -2.435985592454017 17.000000000000000
5.569082502106023 -7.106436197596831 -2.498661372459665 15.000000000000000
5.978322970565783 -7.558693250812356 -2.843961110797625 1.000000000000000
3.822267770577917 -4.744283089174989 -2.024462165556456 9.000000000000000
3.762165421244120 -4.626423449436174 -2.093971683118503 8.000000000000000
3.741341217575652 -4.558148813963756 -2.182793916848390 47.000000000000000
3.738256703502283 -4.511953288848368 -2.281810320331346 33.000000000000000
3.729394293747555 -4.458799415290161 -2.376789005353922 14.000000000000000
7.114708492861091 -9.470021736224089 -2.432298373360804 6.000000000000000
5.881086516001534 -7.759332036928059 -2.173974179241057 0.000000000000000
5.768445864824888 -7.542714468949919 -2.290483517617671 10.000000000000000
5.757612714645092 -7.461014499714629 -2.443942401777353 14.000000000000000
5.533797065813873 -7.107185014564341 -2.500023040522189 15.000000000000000
5.877283045321078 -7.479340235027173 -2.814855885100524 1.000000000000000
3.798992142369474 -4.746397740719253 -2.025297802573776 17.000000000000000
3.760460638384890 -4.654880646111546 -2.106503728364623 40.000000000000000
3.715994795785295 -4.557327371096093 -2.181773111566594 36.000000000000000
3.720009767378025 -4.519888889325204 -2.284904321578185 26.000000000000000
3.725354866243394 -4.483837986902503 -2.388917752407304 9.000000000000000
7.390940235476354 -9.988766220721059 -2.338650855386211 2.000000000000000
7.117556789393794 -9.534225458568184 -2.452108124643894 4.000000000000000
5.846885570494710 -7.763629315165792 -2.177518996986962 9.000000000000000
5.767599073601043 -7.590144151511844 -2.306810934053098 18.000000000000000
5.825117266276789 -7.597297042274705 -2.490130616166158 5.000000000000000
5.496200067130212 -7.104753601698410 -2.500247404004515 13.000000000000000
5.597482657503464 -7.169760153043844 -2.699050063776631 17.000000000000000
3.716096348427028 -4.716545978842911 -1.893261196630852 8.000000000000000
3.792268998967415 -4.769214368102231 -2.034960970278771 17.000000000000000
3.742071347455507 -4.662783376467397 -2.109728232425171 38.000000000000000
3.695412272502957 -4.562234166216102 -2.183493427708217 35.000000000000000
3.694673060302233 -4.519115363055448 -2.283596136113637 21.000000000000000
3.725887909823062 -4.514608961958074 -2.404090098985930 10.000000000000000
7.134060442617508 -9.617409818074778 -2.476811254875700 0.000000000000000
5.817383964336700 -7.774054069303139 -2.182757691322960 18.000000000000000
5.759469866214408 -7.628334599548880 -2.320326291169756 13.000000000000000
6.156820089477588 -8.081946872701346 -2.650603918475587 39.000000000000000
5.456322253874296 -7.099121944024569 -2.499326126327841 17.000000000000000
3.672637402388758 -4.735012101214428 -1.782946693518369 0.000000000000000
3.693147631770408 -4.718220345564412 -1.894126009707555 24.000000000000000
3.776023105611900 -4.780135261589827 -2.039542200296584 10.000000000000000
3.716613200723314 -4.661782542315608 -2.108920540079836 34.000000000000000
3.672484329359880 -4.564149967042911 -2.183780650374091 34.000000000000000
3.671728748321335 -4.521134286203305 -2.283700673220458 20.000000000000000
3.730932320072381 -4.551152772735922 -2.422322947556218 16.000000000000000
6.205059629953067 -8.641051446791742 -1.641085275854075 15.000000000000000
5.778553153919906 -7.771858744598735 -2.184426492543636 15.000000000000000
5.772134127905677 -7.694531421752461 -2.342360734201852 37.000000000000000
6.515770395482116 -8.608681046440841 -2.825056954117752 40.000000000000000
5.437571860723405 -7.120884487150267 -2.508033568382147 26.000000000000000
3.390128930632886 -4.399431277438697 -1.656999175853760 2.000000000000000
3.667882779444391 -4.716800367384668 -1.893740798128177 13.000000000000000
3.776127656755777 -4.811893860184771 -2.053007890437888 10.000000000000000
3.693540383638406 -4.663638726595404 -2.109402110132597 31.000000000000000
3.647241750561968 -4.563054466525332 -2.182626296112295 34.000000000000000
3.646471789868477 -4.520171180902746 -2.282300589543295 20.000000000000000
3.712408540012066 -4.559101204710319 -2.425328645205512 6.000000000000000
6.167066442780881 -8.642544037451453 -1.645375352628786 28.000000000000000
6.217071811495191 -8.637698681030397 -1.837982477184607 5.000000000000000
5.751377223552002 -7.785205016502413 -2.190438057428899 5.000000000000000
5.779776940052829 -7.754642582936838 -2.362547974991458 43.000000000000000
5.822614215692424 -7.742951377349895 -2.542464092806796 5.000000000000000
5.437349191239044 -7.167154479062155 -2.525364616405199 27.000000000000000
3.368468761904151 -4.400037466224335 -1.657632195602525 1.000000000000000
3.411937843574361 -4.416618062110281 -1.773386885320395 8.000000000000000
3.664170082773793 -4.700185011762375 -2.005258701442239 19.000000000000000
3.668161861856721 -4.662448090092203 -2.108502398010350 25.000000000000000
3.619715457728380 -4.558927526233084 -2.180021975952656 35.000000000000000
3.625914994936953 -4.524918830626983 -2.283785021784820 20.000000000000000
3.689219255606796 -4.561243327447065 -2.425247325919495 5.000000000000000
6.138257042931939 -8.656795189816664 -1.652058569319964 26.000000000000000
6.176530886404259 -8.636112130727646 -1.841252148618705 27.000000000000000
6.226498444744491 -8.632014019336287 -2.034194456677192 0.000000000000000
5.731089995773779 -7.807903338571449 -2.199062735773247 6.000000000000000
5.766273474909798 -7.786771364556216 -2.374206799897395 0.000000000000000
5.797326262926443 -7.759619272805826 -2.549426002511884 4.000000000000000
5.786814823056392 -7.677788942979023 -2.706376756980420 20.000000000000000
3.380809313889642 -4.405268843856325 -1.768988071318123 3.000000000000000
3.657442896086411 -4.722729865121554 -2.014782887299771 31.000000000000000
3.645149140609464 -4.664128383562325 -2.108897855364829 28.000000000000000
3.599212830610776 -4.563510802802833 -2.181582029782194 36.000000000000000
3.598412138041975 -4.520862643742839 -2.280827709670919 20.000000000000000
3.661426023080719 -4.557538666229794 -2.422062093202334 5.000000000000000
6.129894426119954 -8.700035941279184 -1.664257475595034 9.000000000000000
6.145180609613488 -8.647222581913141 -1.847192706265864 30.000000000000000
6.190295797424487 -8.636949242797272 -2.038564621917177 21.000000000000000
6.495784782820573 -8.751350343334277 -2.876913489053808 36.000000000000000
3.428735388671585 -4.579037140696027 -1.614722421531783 0.000000000000000
4.862971368762278 -6.378564054575327 -2.561606930869350 4.000000000000000
3.657529856775485 -4.754294229429027 -2.028148349311202 2.000000000000000
3.619851884485401 -4.662748754121820 -2.107906637003381 26.000000000000000
3.576406888340627 -4.565076515841359 -2.181698002369578 35.000000000000000
3.577896660868528 -4.525448860634341 -2.282232261170885 20.000000000000000
3.636003225920259 -4.556609840715116 -2.420357680301741 5.000000000000000
6.131993238215760 -8.683982827953590 -1.858592254983145 18.000000000000000
6.151834876241765 -8.638558530287289 -2.042115122674580 31.000000000000000
6.202455266754129 -8.634107730931820 -2.237907137165738 16.000000000000000
6.501623541838353 -8.816633450674091 -2.900015502832348 6.000000000000000
3.413622073125475 -4.588872063393449 -1.618818559220792 17.000000000000000
3.310554363737011 -4.410562404512377 -1.662759477688770 3.000000000000000
4.873672518040001 -6.435075046793997 -2.584511816384455 3.000000000000000
4.605151440159998 -6.026029560264869 -2.570527562973460 5.000000000000000
3.596900804171810 -4.664253859741726 -2.108216435006754 26.000000000000000
3.549030091999529 -4.560650909609612 -2.178950363537185 36.000000000000000
3.552793852072030 -4.524115720772778 -2.280652711338532 20.000000000000000
3.615214482732025 -4.561371497046435 -2.421679233461147 5.000000000000000
6.120889856505532 -8.723971861540807 -1.870674296496296 0.000000000000000
6.133830584152719 -8.668882069053792 -2.052428327067807 21.000000000000000
6.166015732750198 -8.639040055235279 -2.241950246441138 28.000000000000000
6.214068710536086 -8.631992767219247 -2.438400075338543 6.000000000000000
3.389327529184824 -4.586286769866976 -1.618522957653993 14.000000000000000
3.346196964519570 -4.487604830894399 -1.692179882983268 15.000000000000000
4.723757161403818 -6.278669675203914 -2.521890043154325 0.000000000000000
3.576265530754425 -4.668663860595050 -2.109835683249171 25.000000000000000
3.528586051726936 -4.564996433715345 -2.180392633386083 35.000000000000000
3.527738283357388 -4.522685562916934 -2.279026525321153 21.000000000000000
3.583013089636399 -4.551557313392392 -2.415267940084175 5.000000000000000
6.120203502269666 -8.705607543296237 -2.064244751212837 1.000000000000000
6.140914763454103 -8.659805141743252 -2.250076615368591 25.000000000000000
6.175104656333035 -8.633879740650480 -2.441283905513501 22.000000000000000
6.228605555073598 -8.633103307520711 -2.640269706106041 1.000000000000000
3.436929540669837 -4.722233295575397 -1.554980396863619 14.000000000000000
3.365081609778231 -4.583607306279638 -1.618182258385090 19.000000000000000
3.287936703467210 -4.438777138190637 -1.674130745034365 6.000000000000000
3.371370765025397 -4.511035702118086 -1.812035336009776 2.000000000000000
4.721358795247323 -6.261132076463528 -2.670515352440475 2.000000000000000
3.553357051285126 -4.670007719091078 -2.110065773788108 25.000000000000000
3.503592475542291 -4.563337701039873 -2.178965991380216 35.000000000000000
3.507282338337153 -4.527034074546763 -2.280313374753744 21.000000000000000
3.562287185888289 -4.556143497805676 -2.416503762186011 5.000000000000000
6.127001211431700 -8.696499929929702 -2.262326484804343 7.000000000000000
6.147470197506736 -8.651511942085442 -2.448594553354936 28.000000000000000
6.187120903466386 -8.631988804880677 -2.641863016566896 21.000000000000000
3.423765735503229 -4.735212216450727 -1.560095334769589 21.000000000000000
3.343151274015006 -4.583941670738213 -1.618894165262696 22.000000000000000
3.252716658516564 -4.420485608318709 -1.667584278546669 8.000000000000000
3.272205364887463 -4.407648920985674 -1.770628995395572 5.000000000000000
4.729536417680917 -6.314138030386653 -2.692961605195088 5.000000000000000
3.530475534482319 -4.671267847359077 -2.110254771029099 24.000000000000000
3.483182371986571 -4.567529833989775 -2.180332034139605 34.000000000000000
3.480036222675243 -4.522479467973059 -2.277117333522875 22.000000000000000
3.532515547014120 -4.549002125652356 -2.411524325175651 6.000000000000000
6.128765940362817 -8.681802680444878 -2.459470322258178 14.000000000000000
6.152452029608191 -8.640204156929499 -2.646286105081658 28.000000000000000
3.419564856078932 -4.760714630574192 -1.569329921114963 26.000000000000000
3.321249874530858 -4.584195360839408 -1.619566659507168 23.000000000000000
3.292163764607384 -4.503977823149244 -1.699430938751537 25.000000000000000
3.264125982440287 -4.426262963206052 -1.778223200644007 3.000000000000000
3.411289273968580 -4.584909801789002 -1.955328002859379 0.000000000000000
3.505362729483956 -4.669435742193987 -2.109043855462962 23.000000000000000
3.462779395943178 -4.571652025438153 -2.181662809266967 35.000000000000000
3.459625174459579 -4.526668040967361 -2.278325283871961 22.000000000000000
3.514096378127654 -4.556340978590562 -2.414225244679230 6.000000000000000
6.135712313329622 -8.673647048564050 -2.658417816106303 20.000000000000000
3.395033128330439 -4.757936736967927 -1.569232954200818 22.000000000000000
3.303869763820118 -4.590610017810028 -1.622405697751771 18.000000000000000
3.286130770190617 -4.525828322352293 -1.708018313075201 30.000000000000000
3.352642035590558 -4.576870765141501 -1.838842402269501 21.000000000000000
3.386678604417785 -4.582581949242554 -1.954207437519139 0.000000000000000
3.487043079297064 -4.676552715309371 -2.111871507468910 23.000000000000000
3.440136850583539 -4.572717594369617 -2.181533463277543 36.000000000000000
3.436976626772742 -4.527829257480882 -2.278010070679666 22.000000000000000
3.488936580754897 -4.554840424438626 -2.412245062876094 6.000000000000000
3.850401913938301 -4.981788378219794 -2.773191240389754 0.000000000000000
6.491337643938180 -9.237183561417343 -2.833121149028459 45.000000000000000
3.377251421538283 -4.764517973038338 -1.572210329540005 26.000000000000000
3.279770972378127 -4.587588546575568 -1.621899409974152 15.000000000000000
3.286695311364122 -4.556995512999372 -1.720116805557312 19.000000000000000
3.330500722907927 -4.577302505577893 -1.839122265413619 25.000000000000000
4.631305817939467 -6.309154037868055 -2.690308113799101 13.000000000000000
3.461996347104119 -4.674547395314876 -2.110576210799469 24.000000000000000
3.419759387269643 -4.576693610062886 -2.182791179382649 37.000000000000000
3.416591110852080 -4.531871542619066 -2.279144905978122 23.000000000000000
3.463825527437816 -4.553243181854147 -2.410218505108793 6.000000000000000
3.821367746834050 -4.978481026729607 -2.769742805740234 27.000000000000000
5.554389852673045 -8.298805178012900 -1.616181296114077 0.000000000000000
6.503645356058948 -9.316195974690089 -2.859326082100648 43.000000000000000
3.352787464615020 -4.761570977229482 -1.572031184781734 28.000000000000000
3.257948137442620 -4.587607594811474 -1.622456930017635 18.000000000000000
3.282629036577029 -4.581994172767470 -1.729882079491635 23.000000000000000
3.310616890145998 -4.580735670227785 -1.840601131745509 25.000000000000000
3.346518880485138 -4.589865113306155 -1.957042059898449 0.000000000000000
3.439226263574652 -4.675474153247824 -2.110601845505180 24.000000000000000
3.392711376309435 -4.571600715195228 -2.179723014028851 37.000000000000000
3.391765402214548 -4.529903221069517 -2.277258058298267 23.000000000000000
3.440985065718795 -4.554489771556499 -2.409701371184291 6.000000000000000
3.648244451038517 -4.785949095731430 -2.661090693406402 36.000000000000000
3.874266028527777 -4.989580093570613 -3.052606956363605 12.000000000000000
5.531057779074528 -8.317852702647395 -1.623307198776792 52.000000000000000
6.504448662562797 -9.379432510385717 -2.880690434462636 40.000000000000000
3.328373395565551 -4.758530105130240 -1.571807169553772 28.000000000000000
3.233940573438006 -4.584406579688143 -1.621864568816868 41.000000000000000
3.262910601949667 -4.585210395902045 -1.731416769295095 14.000000000000000
3.290742234150033 -4.584100670341194 -1.842045762883932 13.000000000000000
3.339757941542031 -4.611777165990544 -1.966241150814203 0.000000000000000
3.414267872514475 -4.673283362700891 -2.109217273449686 26.000000000000000
3.372381533480740 -4.575418062003344 -2.180902645817012 36.000000000000000
3.371417103323824 -4.533793170536360 -2.278317405940938 24.000000000000000
3.413751347667033 -4.549759605926343 -2.406026862813981 6.000000000000000
3.564839417497566 -4.709097757014040 -2.616852736082208 27.000000000000000
3.598178945373865 -4.709198517370958 -2.746558137207254 6.000000000000000
3.629519624552340 -4.707233592417998 -2.877734386874679 25.000000000000000
5.498948018109503 -8.323666797743554 -1.627822390272085 0.000000000000000
5.538267848203792 -8.313895577527138 -1.808268112732956 44.000000000000000
6.507100291207954 -9.445956604270735 -2.903062801662322 11.000000000000000
3.301806953361079 -4.752225338848419 -1.570490742266083 28.000000000000000
3.221007686418613 -4.596844784911209 -1.626795471922279 77.000000000000000
3.238789352874212 -4.582116345621443 -1.730559829331951 20.000000000000000
3.268669967946658 -4.584302173287544 -1.842212318011874 13.000000000000000
3.368196274775450 -4.682796195473461 -1.996369115731872 2.000000000000000
3.389359471316742 -4.670996955030374 -2.107786948506053 28.000000000000000
3.345444441794661 -4.570128119989145 -2.177740676423550 35.000000000000000
3.346671035554309 -4.531646957920105 -2.276344619901675 24.000000000000000
3.393190090047341 -4.553780093073670 -2.406983979325677 6.000000000000000
3.688531720406785 -4.906507608541563 -2.724990428400937 37.000000000000000
3.570121847542925 -4.705246524674046 -2.742449477335819 31.000000000000000
3.601305919914959 -4.703554500628439 -2.873365053522338 29.000000000000000
3.561331246854074 -4.562997133781029 -3.052853240378076 18.000000000000000
5.518949374031718 -8.339488663678328 -1.816871661745977 0.000000000000000
5.543137840277824 -8.307676404541429 -1.992483786911621 31.000000000000000
3.259965773136943 -4.723578472572530 -1.561772573528237 30.000000000000000
3.208022689250982 -4.609253974452904 -1.631708375979299 34.000000000000000
3.221307281443891 -4.588312412785633 -1.733202989033269 59.000000000000000
3.246628309754019 -4.584422937954955 -1.842339530123646 15.000000000000000
3.343461934514495 -4.680225819032821 -1.995117183353185 14.000000000000000
3.371089928022263 -4.677757374414112 -2.110435652490083 32.000000000000000
3.322968804241815 -4.570768441431259 -2.177404459638074 32.000000000000000
3.324168556842729 -4.532395395503170 -2.275827626275725 23.000000000000000
3.372637312013417 -4.557730475483669 -2.407905827573479 7.000000000000000
3.721204997378077 -4.984614308366086 -2.766788312162768 32.000000000000000
3.574871147793790 -4.744632472931111 -2.763596022120296 27.000000000000000
3.573161288164196 -4.699763869911492 -2.868943006725533 56.000000000000000
3.524713122195104 -4.548285951345609 -3.040321744654309 20.000000000000000
4.913050794998598 -7.534868101688039 -1.479577837062903 20.000000000000000
5.525725862164627 -8.336545255257624 -2.002090633124920 2.000000000000000
5.553113657377454 -8.307763165816016 -2.180821837968108 33.000000000000000
3.227069582607483 -4.707469346072117 -1.557180228747115 31.000000000000000
3.212456539304685 -4.646906063973963 -1.645552495571191 7.000000000000000
3.214741711428679 -4.610123766401291 -1.741737806692671 34.000000000000000
3.231176149760224 -4.593787461531767 -1.846174814987523 48.000000000000000
3.323151137900196 -4.683723536732560 -1.996446930456721 35.000000000000000
3.344065639499377 -4.672245790021289 -2.107544608388625 39.000000000000000
3.300523458726382 -4.571326814189166 -2.177028262625905 31.000000000000000
3.301696350268600 -4.533061763809721 -2.275270589646276 23.000000000000000
3.347734273843619 -4.555678955299881 -2.405660094022120 7.000000000000000
3.507486318412210 -4.731304672963572 -2.624690423220275 22.000000000000000
3.570687316980703 -4.772486933606988 -2.778009458749865 37.000000000000000
3.562421608550133 -4.718824679687205 -2.878475625276339 20.000000000000000
3.547182671445650 -4.654937510285464 -2.972397663626634 26.000000000000000
3.499028039708719 -4.547422488324524 -3.037073507508924 23.000000000000000
4.892010482008654 -7.552128246021795 -1.485931492215308 77.000000000000000
4.929175686759637 -7.547232344425255 -1.649668751088821 11.000000000000000
5.526764920240410 -8.323614764644438 -2.187302166183975 8.000000000000000
5.560491493445014 -8.305456155529800 -2.369454873994818 11.000000000000000
3.216023567929436 -4.723108847468158 -1.563077485440321 15.000000000000000
3.207977828304429 -4.671968078402547 -1.654934599159376 7.000000000000000
3.210236195697437 -4.635083607516531 -1.751456399447494 7.000000000000000
3.217868137192953 -4.606223839409601 -1.851238124308441 38.000000000000000
3.307201339599489 -4.693327509536707 -2.000374011923101 57.000000000000000
3.323639012666343 -4.675806842101549 -2.108743248676482 37.000000000000000
3.278108755417187 -4.571803403211606 -2.176612191006921 32.000000000000000
3.277083074578323 -4.530643813068900 -2.273167209294730 22.000000000000000
3.325051401419953 -4.556504391827799 -2.404937609413015 7.000000000000000
3.419050718478929 -4.644463558965495 -2.575054646781363 13.000000000000000
3.499337936034405 -4.710181313943520 -2.739963868230342 13.000000000000000
3.514862460302081 -4.645431518870099 -2.963950723046426 27.000000000000000
3.477682948207036 -4.552077780944168 -3.037526162518514 21.000000000000000
2.972510603951476 -4.619253259972717 -0.910661314445419 3.000000000000000
4.897147309390424 -7.548052219273663 -1.652501112026265 39.000000000000000
4.930285040987199 -7.537729538366938 -1.815011520913400 8.000000000000000
3.284729748920491 -4.980154202255061 -1.310068165523450 14.000000000000000
5.531725144616649 -8.318119831370801 -2.375020714724764 12.000000000000000
5.570763150302882 -8.306657353403104 -2.559495562875936 22.000000000000000
3.213549030868754 -4.751512358891927 -1.573193227006706 8.000000000000000
3.214178336327403 -4.712908012352337 -1.669937630388856 6.000000000000000
3.214252640229436 -4.672649991620260 -1.765933753171189 6.000000000000000
3.215333764428526 -4.634233598542197 -1.862554089810150 7.000000000000000
3.293384461727204 -4.705981547989652 -2.005595287498132 47.000000000000000
3.301057257221824 -4.676232030175663 -2.108524361847004 33.000000000000000
3.257888316012604 -4.575236380195003 -2.177602302012168 33.000000000000000
3.254683011089013 -4.531140228324815 -2.272527827901145 22.000000000000000
3.300240592055774 -4.554268791527569 -2.402603548042281 7.000000000000000
3.391610896963997 -4.639694811438234 -2.570957716553930 15.000000000000000
3.419877606933067 -4.635849801859230 -2.694983073824307 12.000000000000000
3.611460027512662 -4.852055921632788 -2.955458306765034 13.000000000000000
3.501919641472593 -4.661433276054103 -2.971789803731747 31.000000000000000
3.454210503995030 -4.553846401250626 -3.036065998608585 22.000000000000000
2.907286485815571 -4.547906553164989 -0.898340288016243 19.000000000000000
2.940828845213578 -4.562981612642420 -1.000562094948108 7.000000000000000
4.902340345512838 -7.545206797149719 -1.819151869691678 52.000000000000000
3.266790320517572 -4.986266196721698 -1.313029480706059 29.000000000000000
3.289746097296151 -4.980237924251560 -1.423129239799133 9.000000000000000
5.543877241651990 -8.322622225963020 -2.566000859976362 37.000000000000000
3.219520632100525 -4.792754070149049 -1.587557659598159 5.000000000000000
3.217985789493118 -4.750752092761819 -1.683841444952446 6.000000000000000
3.215894995305066 -4.707133220178866 -1.779241475084363 6.000000000000000
3.210487206933750 -4.659148628686038 -1.872620076237498 6.000000000000000
3.281669054748511 -4.721704339316328 -2.012118373055464 16.000000000000000
3.282814542564834 -4.682720578158891 -2.111035922482632 27.000000000000000
3.235525382963817 -4.575556177978308 -2.177109358383581 34.000000000000000
3.234464865188798 -4.534570108485370 -2.273360280969599 24.000000000000000
3.275481775499244 -4.551938344333204 -2.400224249473660 7.000000000000000
3.372820041202153 -4.646633274941851 -2.573353488712397 20.000000000000000
3.398784044913570 -4.639998374568069 -2.695660605500372 16.000000000000000
3.427118924604901 -4.637264381111964 -2.822593654121192 10.000000000000000
3.473990044865379 -4.657423741114506 -2.966879381417318 28.000000000000000
3.426518340414957 -4.549888847960329 -3.030806416451925 23.000000000000000
2.889054672918229 -4.549502580122568 -0.900380680794213 26.000000000000000
2.913914363159566 -4.551474189799378 -0.999600812205789 10.000000000000000
3.007963953902352 -4.660672120154359 -1.125116989668185 1.000000000000000
3.248840047106897 -4.992322429317285 -1.315961667393857 25.000000000000000
3.273785883674626 -4.989650569785501 -1.426958015952812 24.000000000000000
3.296054921356147 -4.981784992901794 -1.536900855586458 6.000000000000000
3.332260828896597 -4.994463895751635 -1.655098837602987 15.000000000000000
3.221573201698097 -4.788664739681292 -1.697766802901324 6.000000000000000
3.217337866811372 -4.741672808574646 -1.792565766493791 6.000000000000000
3.218368907066688 -4.702881816141147 -1.890243423857180 6.000000000000000
3.282744458908138 -4.756046881906459 -2.026569237557837 4.000000000000000
3.260273764575238 -4.682994529078184 -2.110742338762882 25.000000000000000
3.213194115927809 -4.575794664857196 -2.176576844136526 33.000000000000000
3.209977259499085 -4.531888601942696 -2.271130047593183 25.000000000000000
3.255049889470869 -4.555495570807807 -2.400952794497660 7.000000000000000
3.358284269926301 -4.659433857497356 -2.578995713446008 20.000000000000000
3.375569523629680 -4.641147428937212 -2.694602184741191 18.000000000000000
3.393122441646181 -4.624134455310325 -2.812586822697023 15.000000000000000
3.431295963485885 -4.633271443822547 -2.949165939519850 10.000000000000000
3.405238957386229 -4.554302849801558 -3.031139916828082 23.000000000000000
2.887673839623248 -4.577728282212195 -0.907682527203281 17.000000000000000
2.899758051466474 -4.559766881725633 -1.002968208505863 11.000000000000000
2.908706145224065 -4.537255478139136 -1.096695621780330 26.000000000000000
3.167279163458620 -4.899930710663666 -1.292902831389860 4.000000000000000
3.262041439311081 -5.005536857167104 -1.432627802242780 0.000000000000000
3.275673938419735 -4.984760759675646 -1.538739879887313 27.000000000000000
3.324448525140975 -5.016890032839205 -1.663247546845220 27.000000000000000
3.372012782354006 -5.046763065898702 -1.789775503330495 11.000000000000000
3.218580907491495 -4.776267970104061 -1.805906204565800 6.000000000000000
3.217452722868711 -4.734150507057121 -1.902850743656875 5.000000000000000
4.358955783598081 -6.359244844970732 -2.709445234425309 16.000000000000000
3.242030356449496 -4.689357020994499 -2.113189508186510 21.000000000000000
3.195157914038083 -4.582065506771090 -2.178912021174420 33.000000000000000
3.187672265962061 -4.532140898589562 -2.270371863846998 26.000000000000000
3.230375066782516 -4.552988647310752 -2.398488546015856 7.000000000000000
3.339448179863037 -4.666268001766129 -2.581335466324163 20.000000000000000
3.358742506708082 -4.651015943087638 -2.698610655647998 17.000000000000000
3.376174565893294 -4.634072007086643 -2.816623143722139 17.000000000000000
3.403583604715196 -4.628998542601962 -2.944134361455473 13.000000000000000
3.381864906628085 -4.555811792862193 -3.029553211504165 23.000000000000000
2.907086511699311 -4.639412285804402 -0.921632060978297 18.000000000000000
2.929676494385623 -4.637837464148359 -1.021694325317651 16.000000000000000
2.896556134443427 -4.548855926855603 -1.100857991172706 26.000000000000000
2.985071956288222 -4.649401596273617 -1.228010672734544 6.000000000000000
3.300942395375132 -5.099760782230046 -1.460726965056602 14.000000000000000
3.255303076669231 -4.987667680891990 -1.540544379111925 37.000000000000000
3.286851393951995 -4.994239921873839 -1.656439409346874 26.000000000000000
3.332012834120724 -5.021308486031184 -1.781237648761666 9.000000000000000
3.223868498540610 -4.817260590125196 -1.821660866062659 2.000000000000000
3.222726154192671 -4.774898338442137 -1.919261835348431 5.000000000000000
4.333056665736073 -6.365619045487422 -2.711901565184104 14.000000000000000
3.215287177361333 -4.683297603398940 -2.110036000899872 24.000000000000000
3.168627965136498 -4.576028385469658 -2.175393535416267 32.000000000000000
3.165399655402609 -4.532312162605296 -2.269574295386065 28.000000000000000
3.212101459235125 -4.559398254812650 -2.400724009458594 7.000000000000000
3.329049755445498 -4.684934384067533 -2.590218821402940 17.000000000000000
3.343990726646604 -4.663778671467100 -2.704298527099052 17.000000000000000
3.357089812174685 -4.641054918841006 -2.818867367098822 18.000000000000000
3.380139949052003 -4.630364868689223 -2.942704726545184 15.000000000000000
3.360613395291281 -4.560076002520740 -3.029811951033147 23.000000000000000
2.886543330514258 -4.637626985883775 -0.922975373921877 37.000000000000000
2.911067738460718 -4.639516403251641 -1.023599612178584 30.000000000000000
2.928345470640623 -4.629978116423861 -1.121855358776120 15.000000000000000
2.936729266839831 -4.605262113249371 -1.217537712580735 16.000000000000000
2.992303501278327 -4.654549726997405 -1.334222843135978 2.000000000000000
3.213881794338752 -4.958015564663258 -1.532273302180392 30.000000000000000
3.278953868836279 -5.016588236046996 -1.664543179373393 42.000000000000000
3.283770940834150 -4.982864225655267 -1.768074805209931 25.000000000000000
3.243695717252514 -4.880573884647547 -1.845852824678622 0.000000000000000
3.219306662332468 -4.803118237326072 -1.930630936281577 5.000000000000000
4.307157601818943 -6.371908983724964 -2.714314885236858 14.000000000000000
3.194953730070622 -4.686424505129452 -2.111018716267096 24.000000000000000
3.148504029031789 -4.579093059133245 -2.176201538223957 33.000000000000000
3.145267861119106 -4.535442406812948 -2.270259072505606 26.000000000000000
3.187501450136174 -4.556721817916616 -2.398177803980029 7.000000000000000
3.316452898148299 -4.700612801445453 -2.597445565406692 13.000000000000000
3.333380160089666 -4.682400779423725 -2.713380852216048 16.000000000000000
3.344271452925008 -4.656720973621280 -2.826386778731200 18.000000000000000
3.360901602087725 -4.637407720538172 -2.944892197445795 17.000000000000000
3.335207170247517 -4.558577444503071 -3.026256567774352 23.000000000000000
2.872255762439030 -4.645829922042093 -0.926288923929324 73.000000000000000
2.892472392766140 -4.641131763154225 -1.025473263486996 53.000000000000000
2.909626846480622 -4.631695803012777 -1.123619865698830 26.000000000000000
2.901224538044738 -4.580676913540159 -1.212200970799519 54.000000000000000
2.960642876340474 -4.636901856108747 -1.330163499570511 4.000000000000000
2.990367660994520 -4.644982963947231 -1.436349023294185 6.000000000000000
3.241566762530799 -4.993689741564990 -1.657621093327477 40.000000000000000
3.284109873885072 -5.017985871699365 -1.781004246956233 28.000000000000000
3.084530982261153 -4.673448387044063 -1.767747943884052 28.000000000000000
3.278781889506144 -4.926099701046303 -1.980083598335695 0.000000000000000
4.279157182793885 -6.374983580026797 -2.715351571957530 14.000000000000000
3.170429526602696 -4.683275375621143 -2.109171489695997 23.000000000000000
3.128391808298613 -4.582089368375132 -2.176975359069024 34.000000000000000
3.120952961941637 -4.532412282178602 -2.267861440587645 28.000000000000000
3.165050058497130 -4.556967536231768 -2.397173544184294 7.000000000000000
3.316326631922331 -4.734179342574071 -2.614547689897359 10.000000000000000
3.322672626003766 -4.701013116322623 -2.722452258638873 11.000000000000000
3.333459423236182 -4.675284918881654 -2.835661333959975 17.000000000000000
3.347881768818222 -4.653050553886422 -2.952543345150390 17.000000000000000
3.311924195603984 -4.559834484244108 -3.024546841903953 24.000000000000000
2.860004115323536 -4.657353749241889 -0.930251855550398 129.000000000000000
2.875959755791007 -4.646026098198380 -1.028054948886514 87.000000000000000
2.890921854212382 -4.633349586587959 -1.125352585327116 43.000000000000000
2.907465887462696 -4.622007881968258 -1.224296227333911 21.000000000000000
2.937448837628775 -4.632248788150614 -1.329812577392219 7.000000000000000
2.964901597443744 -4.637257264311177 -1.434763946462538 10.000000000000000
3.003956465085357 -4.659758922968542 -1.547394046675556 6.000000000000000
3.248730778183941 -4.998512764970189 -1.774547398440072 22.000000000000000
3.025035610139510 -4.615365247752431 -1.745997476294575 13.000000000000000
3.195262011421482 -4.834333405195058 -1.943210026163382 8.000000000000000
2.990253667071701 -4.486220089707589 -1.910657560440454 3.000000000000000
3.150140254219496 -4.686252359806284 -2.110080377368584 24.000000000000000
3.106202678221694 -4.581936070338483 -2.176251540870108 35.000000000000000
3.098779566015015 -4.532341485360296 -2.266946373721668 28.000000000000000
3.146799567493585 -4.563175968349737 -2.399307725969642 7.000000000000000
3.293113290898257 -4.734895173035455 -2.613502736496519 0.000000000000000
3.318097324843776 -4.728492340507249 -2.736650202095414 5.000000000000000
3.318407435059655 -4.687985797603561 -2.841377351991127 15.000000000000000
3.336852169413957 -4.671563050300019 -2.962012198919671 16.000000000000000
3.288672289091564 -4.561007889359421 -3.022796322639416 22.000000000000000
2.843598045354348 -4.662117534641200 -0.932850604141941 110.000000000000000
2.861498879159329 -4.654217177356593 -1.031351846155679 137.000000000000000
2.874294141777651 -4.638269255586979 -1.127863244910164 78.000000000000000
2.894859779520380 -4.633629965229071 -1.228519516428802 32.000000000000000
2.918453108027300 -4.634084856079473 -1.331309506801735 10.000000000000000
2.941586768675824 -4.632697320806969 -1.434143234178253 15.000000000000000
2.970023305289571 -4.639197546822390 -1.541170882022474 10.000000000000000
3.005651336562203 -4.656836110438002 -1.653660631309370 6.000000000000000
2.997156039887967 -4.604920378733787 -1.742257150390079 11.000000000000000
2.962598455454457 -4.513903365006466 -1.814415278573835 5.000000000000000
2.970818865062401 -4.488593660533712 -1.911467033878927 5.000000000000000
3.127783215842730 -4.686044944968744 -2.109552305212028 24.000000000000000
3.084047238188012 -4.581702437542359 -2.175488774147849 37.000000000000000
3.080791937704229 -4.538306667415555 -2.269050380460545 28.000000000000000
