# This PCD file was generated using the MATLAB® pcwrite function
# from Computer Vision Toolbox®.
# .PCD v.7 - Point Cloud Data file format
VERSION .7
FIELDS x y z intensity
SIZE 8 8 8 8
TYPE F F F F
COUNT 1 1 1 1
WIDTH 637
HEIGHT 1
VIEWPOINT 0 0 0 1 0 0 0
POINTS 637
DATA ascii
2.918453108027300 -4.634084856079473 -1.331309506801735 10.000000000000000
2.943661230430885 -4.635964385208102 -1.435154618687547 15.000000000000000
2.965869426540913 -4.632709158645016 -1.539015398271394 10.000000000000000
3.007729933613767 -4.660056605673437 -1.654804241704467 6.000000000000000
2.999235953864294 -4.608116020911949 -1.743466211563146 11.000000000000000
2.962598455454457 -4.513903365006466 -1.814415278573835 5.000000000000000
2.968738459694711 -4.485450387662191 -1.910128471530273 5.000000000000000
3.127783215842730 -4.686044944968744 -2.109552305212028 23.000000000000000
3.084047238188012 -4.581702437542359 -2.175488774147849 36.000000000000000
3.080791937704229 -4.538306667415555 -2.269050380460545 28.000000000000000
3.120246482421313 -4.557215463469315 -2.395046786276538 7.000000000000000
3.319786762363613 -4.724110883272708 -2.861280869642067 9.000000000000000
3.325725272547066 -4.690064470201857 -2.971469447410140 18.000000000000000
3.267501679446740 -4.564961668849052 -3.022901542682399 21.000000000000000
2.831270943213283 -4.673574037369780 -0.936774553101923 66.000000000000000
2.847010486188818 -4.662368376462600 -1.034626702580401 105.000000000000000
2.859712569160757 -4.646472568214699 -1.131159005008701 116.000000000000000
2.880147481990481 -4.641907758132048 -1.231845301560787 62.000000000000000
2.897410553094610 -4.632561374415118 -1.331827015453992 12.000000000000000
2.922455764418537 -4.634594367297353 -1.435508047916316 23.000000000000000
2.946583776994598 -4.634737469045784 -1.540281999562197 16.000000000000000
2.971655578886516 -4.636456824115964 -1.646825806993912 11.000000000000000
2.979721356471265 -4.610369229058699 -1.744521771012831 12.000000000000000
2.945314753922892 -4.519293955959684 -1.816581168005001 5.000000000000000
2.943118959888388 -4.478303805560828 -1.906879601087834 22.000000000000000
3.107528695071422 -4.688878625133277 -2.110390164892731 23.000000000000000
3.063993301089577 -4.584482089139727 -2.176155560899825 37.000000000000000
3.058664926070813 -4.538087466069675 -2.268062393393432 28.000000000000000
3.095832472988848 -4.554183922148228 -2.392330684172721 8.000000000000000
3.310411612736278 -4.702745007119812 -2.977237033269347 17.000000000000000
3.246341410485603 -4.568844225169840 -3.022971037356886 22.000000000000000
2.816863532678740 -4.681624728045588 -0.940003055323079 38.000000000000000
2.834532485859590 -4.673839672344386 -1.038626161728262 57.000000000000000
2.845103448242781 -4.654635663316499 -1.134432550035130 88.000000000000000
2.863360666325570 -4.646823440909425 -1.234266423246732 97.000000000000000
2.886654222516609 -4.647465259635622 -1.337055743081430 13.000000000000000
2.903338808490080 -4.636426333312256 -1.436840498762498 34.000000000000000
2.923200618304636 -4.630187994108255 -1.539350929567121 22.000000000000000
2.948109101186656 -4.632090058395837 -1.645666557480844 16.000000000000000
2.958161852906187 -4.609348514961696 -1.744330450239014 12.000000000000000
2.923905514752546 -4.518266857167755 -1.816161101945271 6.000000000000000
2.929931688727399 -4.489986913624316 -1.911643746850706 6.000000000000000
3.085228443117492 -4.688516068858394 -2.109786369715059 23.000000000000000
3.041895515882321 -4.584094329872689 -2.175317642387909 34.000000000000000
3.038626826346386 -4.540858444745218 -2.268569504113581 28.000000000000000
3.077629228193869 -4.560179998907145 -2.394359353007405 8.000000000000000
3.288941692352257 -4.706657490126476 -2.977458952688252 12.000000000000000
3.241419152639439 -4.595662712977790 -3.038214953792416 15.000000000000000
2.814560823014379 -4.709937130203493 -0.947292775800118 22.000000000000000
2.822006330276207 -4.685282540904870 -1.042608164064050 35.000000000000000
2.834530766602836 -4.669453016622153 -1.139317277469368 55.000000000000000
2.850639636688486 -4.658341528633998 -1.238429596038625 80.000000000000000
2.865629703786805 -4.645818505243280 -1.337511426909634 43.000000000000000
2.888321488944870 -4.644762990285471 -1.440177676737719 50.000000000000000
2.906009354556173 -4.635335460680181 -1.541632510747252 32.000000000000000
2.928712548924332 -4.634110349203858 -1.646766552118070 23.000000000000000
2.936637689787675 -4.608249700938019 -1.744101422716915 12.000000000000000
2.904580386522511 -4.520349836894363 -1.816984900960335 6.000000000000000
2.910549582827427 -4.492156109865396 -1.912352114675034 5.000000000000000
3.062962444016149 -4.688073174836229 -2.109143658911731 25.000000000000000
3.017786463778664 -4.580521300820080 -2.172967894785329 35.000000000000000
3.016558173215794 -4.540485325676824 -2.267506514856884 29.000000000000000
3.053294291395117 -4.556981211814379 -2.391562711974064 9.000000000000000
3.265458958993031 -4.707581324297948 -2.975801045475543 13.000000000000000
3.236335706295259 -4.622505781604850 -3.053461559474445 13.000000000000000
2.804059939707585 -4.724721418931393 -0.951856800163766 13.000000000000000
2.813465747160262 -4.703440099190529 -1.048075246765486 21.000000000000000
2.823888718241527 -4.684253200335040 -1.144188997560787 34.000000000000000
2.835844380146915 -4.666497344038288 -1.241688040400149 49.000000000000000
2.850728021514421 -4.654032987329849 -1.340793310021374 39.000000000000000
2.869212151743677 -4.646476806787981 -1.441450280886508 64.000000000000000
2.886776836687201 -4.637161466262629 -1.542799089633924 47.000000000000000
2.909330276839508 -4.636064822277630 -1.647833821689805 33.000000000000000
2.917186340074923 -4.610292446215507 -1.745053413981506 13.000000000000000
2.905646046658985 -4.554304718044198 -1.830613445469950 13.000000000000000
2.883032111063599 -4.481590579189384 -1.907635113719899 6.000000000000000
3.038694379301384 -4.684410436254613 -2.107049912534357 26.000000000000000
2.999839523045363 -4.586190887695270 -2.175001604044426 34.000000000000000
2.994524575186308 -4.540032493736180 -2.266404978026853 30.000000000000000
3.033075946429548 -4.559794270741965 -2.391924436870706 9.000000000000000
3.634616860821311 -5.371424651209938 -3.099145284011002 13.000000000000000
3.256095431122579 -4.728880093547751 -2.987025209848504 17.000000000000000
3.239118434348272 -4.660924039765864 -3.076334647563210 12.000000000000000
2.797492521641942 -4.746278623255533 -0.957778064994690 9.000000000000000
2.802828853921863 -4.718214502674924 -1.052780282096442 12.000000000000000
2.815188179793532 -4.702394813860546 -1.149868917280669 22.000000000000000
2.827066808918874 -4.684629365191468 -1.247591667451750 29.000000000000000
2.835798781105741 -4.662206355092375 -1.344052519664114 37.000000000000000
2.856181704984798 -4.658015393576883 -1.445760236453792 59.000000000000000
2.871606395964622 -4.645469740626123 -1.546112413630440 58.000000000000000
2.891987756525963 -4.641203713942873 -1.650023909459135 46.000000000000000
2.893696710544900 -4.605818499281222 -1.743530699202191 12.000000000000000
2.900430715982472 -4.578712947084206 -1.840398166155592 32.000000000000000
2.867775892904572 -4.489950618272050 -1.910969616072903 6.000000000000000
3.016508701129870 -4.683801486488642 -2.106327346633130 35.000000000000000
2.979860375622373 -4.588687412464823 -2.175528435227307 34.000000000000000
2.974548496524780 -4.542588225355746 -2.266806003318656 30.000000000000000
3.008832266306445 -4.556423022303424 -2.389045339682058 9.000000000000000
3.299640446046451 -4.955400190638397 -2.726295266003907 8.000000000000000
3.603100532348235 -5.364112201651195 -3.093034568492347 21.000000000000000
3.246613197687050 -4.750178205436254 -2.998241778309863 14.000000000000000
2.798776953793655 -4.781444138016402 -0.966444782665876 8.000000000000000
2.798110380048677 -4.743120693364975 -1.059739774301597 9.000000000000000
2.806397200410267 -4.720530237715550 -1.155540145707880 14.000000000000000
2.818198380523202 -4.702755088821333 -1.253486522696376 16.000000000000000
2.826865280361665 -4.680310780947423 -1.350165797386790 31.000000000000000
2.843102257861982 -4.669524062754147 -1.450051922760048 43.000000000000000
2.858421064118498 -4.657015743228359 -1.550494562237120 57.000000000000000
2.872624115884788 -4.643032674421668 -1.651028247211391 57.000000000000000
2.874296190254310 -4.607717696110956 -1.744412521061318 12.000000000000000
2.887015053404809 -4.590315390342122 -1.845029186382231 43.000000000000000
2.858539322079729 -4.507805525893772 -1.918339460274308 29.000000000000000
2.990328220667355 -4.676809789442195 -2.102732347698600 17.000000000000000
2.955868186698541 -4.584869989058742 -2.173061077441674 34.000000000000000
2.952575184377842 -4.541982410266131 -2.265630059261488 30.000000000000000
2.990671123407416 -4.562151667179521 -2.390940065595150 9.000000000000000
3.279885803247232 -4.962027650550255 -2.728473330056933 22.000000000000000
3.449621189650236 -5.173618033010409 -2.981376543884653 19.000000000000000
3.246966104511863 -4.786147640699395 -3.018704668823812 13.000000000000000
2.789966319455853 -4.799627848338010 -0.971677134525771 0.000000000000000
2.797230236904617 -4.774820834549019 -1.068215802028386 6.000000000000000
2.799505450716565 -4.742029442611075 -1.162028397595313 10.000000000000000
2.809239067510198 -4.720874171793951 -1.259372429292945 11.000000000000000
2.817840528196546 -4.698408483424839 -1.356270061799832 24.000000000000000
2.829973900791373 -4.681002644969023 -1.454325258885603 32.000000000000000
2.845186558360814 -4.668531395858526 -1.554858210257833 43.000000000000000
2.859286658595725 -4.654581456160566 -1.655480374979624 56.000000000000000
2.852905913226834 -4.606314131975116 -1.744036114259592 12.000000000000000
2.859512753028543 -4.579407364726864 -1.840606151014515 50.000000000000000
2.839184566939150 -4.509729161498899 -1.918924147740339 97.000000000000000
2.874037256660237 -4.527634496170406 -2.035222768253303 20.000000000000000
2.937941750523100 -4.590348889471100 -2.174998699646670 34.000000000000000
2.932638352477606 -4.544397260832398 -2.265961568367041 31.000000000000000
2.964511625291305 -4.555544898125776 -2.386373295331833 9.000000000000000
3.260120497331483 -4.968594384976614 -2.730619742926135 0.000000000000000
3.285621289259699 -4.964242698323178 -2.858986389563345 14.000000000000000
3.249071624861422 -4.825114498661915 -3.041035950350296 11.000000000000000
2.811973131224259 -4.833715159166919 -1.082783851612481 0.000000000000000
2.798439281110582 -4.773661139564833 -1.170996547623375 7.000000000000000
2.802171980530880 -4.742342493271594 -1.266145279199115 8.000000000000000
2.808724498803321 -4.716499117762578 -1.362365135331514 17.000000000000000
2.820775251330411 -4.699078726662194 -1.460640305521065 22.000000000000000
2.831902970692583 -4.680016528500701 -1.559203276530282 32.000000000000000
2.843906945922763 -4.662831883728220 -1.658751369862221 47.000000000000000
2.847505014558469 -4.630776078763133 -1.753445779150161 21.000000000000000
2.760312280870993 -4.452568681088952 -1.789582144596488 39.000000000000000
2.829816545182815 -4.527540450748072 -1.926263685856518 100.000000000000000
2.852490377639745 -4.526501250794263 -2.034271631820746 23.000000000000000
2.916024558209969 -4.589502362074469 -2.173937635818751 35.000000000000000
2.912716149542929 -4.546744776352470 -2.266259599186145 31.000000000000000
2.944391936878119 -4.558061932311865 -2.386589940324174 9.000000000000000
3.283170859672758 -4.955650885012650 -2.985199727332994 22.000000000000000
3.254865863371704 -4.870041561352980 -3.067097553413034 12.000000000000000
3.270263597104567 -5.661158973441696 -1.269746070233434 28.000000000000000
2.964517641600924 -5.092771463407479 -1.250555866060897 28.000000000000000
2.802882516638321 -4.777262452639483 -1.276506583032078 4.000000000000000
2.801492832811170 -4.737923610868166 -1.369416578432435 12.000000000000000
2.811484924471375 -4.717147259806571 -1.466945891561634 16.000000000000000
2.822531842010563 -4.698064746408742 -1.565727191878530 22.000000000000000
2.834445982745420 -4.680859845027760 -1.665493044748326 35.000000000000000
2.839985040557881 -4.652004652872073 -1.761624727081233 42.000000000000000
2.773076588094436 -4.505687339474389 -1.810881507847135 31.000000000000000
2.802505403905573 -4.516576100632258 -1.921355716226846 70.000000000000000
2.856752986389015 -4.566486873705786 -2.051793363628560 16.000000000000000
2.896124945315650 -4.591717718858659 -2.174325801585370 36.000000000000000
2.888851519652635 -4.542802035858984 -2.263423636970357 30.000000000000000
2.922310936231574 -4.557429728602161 -2.385160175089837 10.000000000000000
3.380888744693044 -5.141468570329773 -3.095066434879710 16.000000000000000
3.260366726371290 -4.915058681843122 -3.093187185349364 15.000000000000000
3.244805797919200 -5.656865814930284 -1.270370215985510 29.000000000000000
2.971984753097916 -5.141893185626297 -1.263892833654563 32.000000000000000
2.928949678957411 -5.027754509880285 -1.344515662427828 39.000000000000000
2.798078283229115 -4.766045570079331 -1.378398906285399 7.000000000000000
2.804070666679197 -4.738533184199696 -1.474276418622905 11.000000000000000
2.813068665270539 -4.716104932657792 -1.572241377344420 16.000000000000000
2.822921319460130 -4.695600555318785 -1.671057943049070 24.000000000000000
2.818544040858721 -4.650456058585382 -1.761171183305673 40.000000000000000
2.777619014421973 -4.546010727077745 -1.827031220317695 35.000000000000000
2.771352323927779 -4.499095695508799 -1.913672965612018 30.000000000000000
2.876542602373483 -4.631942786203130 -2.080746183961702 17.000000000000000
2.874270471295180 -4.590719500431791 -2.173191138900550 36.000000000000000
2.868981227334630 -4.545003612371543 -2.263650344185494 31.000000000000000
2.900266607605583 -4.556718246818051 -2.383692183131753 9.000000000000000
3.236364623474433 -4.915798273718404 -3.091403460570999 16.000000000000000
3.215515870529664 -5.645656805128060 -1.269415977953275 30.000000000000000
2.948012940794495 -5.136818938287155 -1.263901458248471 31.000000000000000
2.893459773768746 -5.002413880749111 -1.338794197504134 27.000000000000000
2.970386042533256 -5.095925680705850 -1.474702754810690 48.000000000000000
2.798500129697746 -4.763253132338204 -1.482638398717628 6.000000000000000
2.805472548801880 -4.737445010749034 -1.579848900385150 12.000000000000000
2.815246877306079 -4.716890817251997 -1.678946704914170 16.000000000000000
2.801063758234492 -4.655350465455990 -1.763149984001349 36.000000000000000
2.801535508452345 -4.618750754071088 -1.856201569509200 41.000000000000000
2.791347822406710 -4.564887422331373 -1.941402625883194 35.000000000000000
2.882186800408251 -4.675298568721812 -2.099757733849365 28.000000000000000
2.854412390393637 -4.592795027478349 -2.173510464924756 37.000000000000000
2.847169608121065 -4.544015168861213 -2.262288966456530 33.000000000000000
2.882167308371884 -4.562113590449297 -2.385420548748205 10.000000000000000
3.214332240795033 -4.919416771666810 -3.091440905537236 17.000000000000000
3.188254845583296 -5.637749388705852 -1.269178029183228 25.000000000000000
2.922161640149025 -5.128257012949851 -1.263031020193969 32.000000000000000
2.877559857116349 -5.010704941777729 -1.342054117819689 19.000000000000000
2.903501147866755 -5.017141233706939 -1.452773528590761 22.000000000000000
2.905674160014955 -4.981508406688986 -1.551262605076375 20.000000000000000
2.805555903246109 -4.772043331187037 -1.591872645356476 6.000000000000000
2.805508696452097 -4.734893129221788 -1.685658331032705 11.000000000000000
2.787479244245628 -4.666722121235878 -1.767574639461523 28.000000000000000
2.766460265350290 -4.594472783886508 -1.846375216028464 55.000000000000000
2.808972651650090 -4.627628389372250 -1.967823196366447 36.000000000000000
2.866115337898499 -4.683687935237163 -2.103057344719065 37.000000000000000
2.832621883761135 -4.591645747700710 -2.172302601218235 38.000000000000000
2.827341523004764 -4.546077154733417 -2.262446997280605 34.000000000000000
2.858232354960155 -4.558156876222149 -2.382261466927521 10.000000000000000
3.188460896706761 -4.917023840594772 -3.087712690843263 17.000000000000000
3.153383158523188 -5.616048883401144 -1.265806302240229 15.000000000000000
2.896389119893910 -5.119595049922797 -1.262114333555472 35.000000000000000
3.025650233880262 -5.306619612594801 -1.422396902922852 48.000000000000000
2.883532121168793 -5.018751994130739 -1.454095914166781 18.000000000000000
2.895335660074549 -4.999896091582770 -1.557667001921789 26.000000000000000
2.937185803665747 -5.032417194891678 -1.679229803005822 27.000000000000000
2.809249326488697 -4.775958455110834 -1.700574919454635 6.000000000000000
2.775785569236958 -4.681333542123767 -1.773219315539619 23.000000000000000
2.783957312394419 -4.657674347413391 -1.871697453172621 26.000000000000000
2.799042149536878 -4.645448992044586 -1.975133086004057 31.000000000000000
2.848077022857117 -4.688841062152661 -2.104899704438302 32.000000000000000
2.814743697993456 -4.596745582198560 -2.174049669888927 38.000000000000000
2.809464385904026 -4.551206822771132 -2.264131250766709 35.000000000000000
2.840153218870953 -4.563423114592471 -2.383925160431867 11.000000000000000
3.166474411290845 -4.920485071342016 -3.087672661624068 17.000000000000000
3.128227879657787 -5.611340181705543 -1.266236825443227 15.000000000000000
2.886016409133028 -5.138109371795884 -1.267882238095560 36.000000000000000
3.152695392735775 -5.569532091839671 -1.493990642069304 63.000000000000000
2.886640777706931 -5.060727988441889 -1.467106419957475 34.000000000000000
2.871432338670818 -4.994838382329615 -1.556756197624505 47.000000000000000
2.899523687864388 -5.004311446708191 -1.670338087890795 26.000000000000000
2.922632920675341 -5.005286088524733 -1.782533024380051 21.000000000000000
2.767878915120325 -4.702478395523231 -1.781331875555368 16.000000000000000
2.775977304609457 -4.678756381689632 -1.880086361072743 21.000000000000000
2.789018612251612 -4.663259927931711 -1.982432350689529 26.000000000000000
2.833888372974067 -4.700333444497040 -2.109583418607806 27.000000000000000
2.794933630469714 -4.598620808879727 -2.174269683688699 38.000000000000000
2.787733790019597 -4.550000953227238 -2.262663837518557 36.000000000000000
2.814383757212525 -4.556193320455590 -2.379064205475372 10.000000000000000
3.140693487358650 -4.917912438459985 -3.083858243516313 19.000000000000000
3.099327499762159 -5.599672907497991 -1.265072479445753 15.000000000000000
2.885073284274871 -5.173686926295654 -1.277855912472461 21.000000000000000
3.150253084454576 -5.605734322232165 -1.504813680304881 62.000000000000000
2.849373404559632 -5.031898113150488 -1.459578219987136 35.000000000000000
2.849501669767939 -4.993044876915470 -1.556849090662905 54.000000000000000
2.869735516934233 -4.989360669330112 -1.665821771435340 49.000000000000000
2.896507111555277 -4.997197534040751 -1.779943639132073 28.000000000000000
2.761775809669696 -4.726907363522360 -1.790681756706471 11.000000000000000
2.771718930582381 -4.706353829918469 -1.891086406662324 15.000000000000000
2.778902025870178 -4.681060844544382 -1.989720809633368 20.000000000000000
2.811982712731363 -4.698980056787807 -2.108497960447300 26.000000000000000
2.775140110392700 -4.600429469250972 -2.174456728963998 37.000000000000000
2.766041792951120 -4.548717242765675 -2.261159049030824 34.000000000000000
2.798246960591952 -4.564440879683735 -2.382287430897010 11.000000000000000
3.118754225494520 -4.921216998817927 -3.083741125890036 20.000000000000000
3.074304874777693 -5.594769576087314 -1.265411761999183 15.000000000000000
2.912334291994369 -5.260613362485311 -1.300522980233203 22.000000000000000
3.141915964518559 -5.631772703784996 -1.512903263531955 62.000000000000000
2.829418605729791 -5.033325598488388 -1.460807917952122 34.000000000000000
2.829511427457345 -4.994532384666138 -1.557952290800161 52.000000000000000
2.851500873855434 -4.994304518062927 -1.667935594457394 55.000000000000000
2.872368388374937 -4.992320620185718 -1.778487747141612 52.000000000000000
2.766978048436183 -4.771077324885277 -1.807503703851767 7.000000000000000
2.763487591089046 -4.727449415955400 -1.899466860326814 11.000000000000000
2.768692378036181 -4.698851389159239 -1.996998282022456 15.000000000000000
2.790115515869121 -4.697548527117858 -2.107374965087898 27.000000000000000
2.753459217933033 -4.598991173198296 -2.173108033215044 37.000000000000000
2.744388721709068 -4.547355884466271 -2.259617003867256 33.000000000000000
2.774486473200163 -4.560158829108555 -2.378972942959340 11.000000000000000
3.096828049124420 -4.924449042534579 -3.083587790486353 19.000000000000000
2.505755443210301 -4.627961380608948 -0.950929607496824 0.000000000000000
3.045580834887030 -5.582886615665908 -1.264148098439135 15.000000000000000
2.886353441351558 -5.251820459811714 -1.299526709806729 7.000000000000000
3.140986442882530 -5.671441350150628 -1.524649854041830 41.000000000000000
2.803811785514493 -5.024529203063746 -1.459055091135916 36.000000000000000
2.833260412418015 -4.999192258170662 -1.670020419417506 47.000000000000000
2.850184347956195 -4.990672252656914 -1.778171996525050 68.000000000000000
2.819311479352599 -4.897666675420528 -1.855545181035995 11.000000000000000
2.762726120047003 -4.761617874823941 -1.913092679345978 7.000000000000000
2.764077059318796 -4.726356221625807 -2.008397091325963 12.000000000000000
2.772076688559280 -4.702467575264709 -2.109097801509037 25.000000000000000
2.733710642568233 -4.600661445136770 -2.173227183232628 37.000000000000000
2.724665718171563 -4.549073959363422 -2.259605902909231 34.000000000000000
2.754562963904663 -4.562041226483934 -2.378877618908910 11.000000000000000
3.071174476996081 -4.921614003496961 -3.079647209085883 20.000000000000000
2.454187513942540 -4.565769222544841 -0.939435496918662 19.000000000000000
2.563011877983631 -4.732670269627610 -1.072821621844821 1.000000000000000
2.881044918160894 -5.280671469236677 -1.307832180950231 1.000000000000000
3.128577975603255 -5.690687838208753 -1.530900316360678 24.000000000000000
2.785800482664124 -5.029198772255707 -1.461197926336476 35.000000000000000
3.171430400033183 -5.681362513225671 -1.773607964308755 33.000000000000000
3.056032300091498 -5.432462065482917 -1.815237308972728 25.000000000000000
2.828038371966943 -4.988945409420717 -1.777818513938503 62.000000000000000
2.846322007344462 -4.981718730512532 -1.887466428990775 67.000000000000000
2.839053274734453 -4.930048209585646 -1.980650689642407 23.000000000000000
2.861080023362188 -4.929231224040747 -2.094298125831078 24.000000000000000
2.752149051938114 -4.704111179568069 -2.109348147219622 25.000000000000000
2.712097348992422 -4.599073904072259 -2.171806435774105 36.000000000000000
2.706839909369437 -4.553888269390745 -2.261132312570455 34.000000000000000
2.734656571493091 -4.563856856015891 -2.378749258283942 11.000000000000000
3.049297463086868 -4.924690227692114 -3.079417338212828 20.000000000000000
2.438226595699958 -4.569295076583586 -0.941429535934795 66.000000000000000
2.512957483184613 -4.674352851353816 -1.060761098809199 7.000000000000000
2.549866276623332 -4.708136768199915 -1.167060471125265 2.000000000000000
3.022834524841010 -5.539063498396009 -1.491141507760482 13.000000000000000
2.764048853851591 -5.027019688501942 -1.461337395995723 35.000000000000000
3.151141876067863 -5.687125873490508 -1.776092389479315 32.000000000000000
3.070074401975293 -5.498280520876772 -1.837703588744143 23.000000000000000
2.895840452954072 -5.146941839434592 -1.834381032531793 41.000000000000000
2.827823494331364 -4.986666216633998 -1.889410047816172 68.000000000000000
2.850552155896438 -4.987482157946547 -2.003604284952248 60.000000000000000
2.870539088021928 -4.983097140935142 -2.116868495713007 48.000000000000000
2.735984051018981 -4.712138717634899 -2.112457331719600 25.000000000000000
2.692394869589299 -4.600606323522446 -2.171858034535062 36.000000000000000
2.685272313949617 -4.552311651951314 -2.259485610364440 34.000000000000000
2.712901746883528 -4.562467947978962 -2.376953162227001 12.000000000000000
3.027434444560992 -4.927694274041698 -3.079151478161207 19.000000000000000
2.424105816640094 -4.576248766294178 -0.944115574875602 62.000000000000000
2.483600253904383 -4.653854170520550 -1.057246961846932 9.000000000000000
2.461019561804639 -4.577762872339671 -1.135724350819056 22.000000000000000
2.554712828953519 -4.716092082430117 -1.270457331680312 5.000000000000000
2.744192636316828 -5.028165752718115 -1.462429464274146 36.000000000000000
3.123408062602617 -5.679305397356345 -1.774320229842415 23.000000000000000
3.050215536880280 -5.503789359564259 -1.840006484804169 23.000000000000000
2.893726708270869 -5.181999648105335 -1.847127874532791 26.000000000000000
2.809319505200168 -4.991556890846378 -1.891324330501229 75.000000000000000
2.835608903161557 -4.999050199241430 -2.008124312331068 57.000000000000000
2.851720684670374 -4.988197516568722 -2.118714391398888 56.000000000000000
2.716069074123028 -4.713660088838560 -2.112646054473617 25.000000000000000
2.670850397128888 -4.598870199317546 -2.170365647992396 38.000000000000000
2.665602449569336 -4.553831479774138 -2.259376558847161 34.000000000000000
2.691186795354837 -4.561001526258619 -2.375119935913618 11.000000000000000
3.005585711044193 -4.930626237078576 -3.078849694902194 19.000000000000000
2.408130570009404 -4.579680780907238 -0.946060834605814 36.000000000000000
2.434198629454547 -4.595111396171583 -1.045009229210755 16.000000000000000
2.468672420566531 -4.626179763301872 -1.148712878638705 16.000000000000000
2.510223322458379 -4.668582392896074 -1.258499627384449 15.000000000000000
2.622836365746806 -4.841841687122685 -1.408955100546872 16.000000000000000
3.092057142403319 -5.664608565743267 -1.770383129444199 25.000000000000000
3.028499056025530 -5.505874309170687 -1.841153323128386 23.000000000000000
2.900664145867268 -5.233796744368572 -1.865835778281955 13.000000000000000
2.788958360690748 -4.993075308544077 -1.891953018851325 74.000000000000000
2.972480960185032 -5.280357917045629 -2.120984962047355 38.000000000000000
2.832896577083618 -4.993240178580043 -2.120530476687818 38.000000000000000
2.698022372790691 -4.718351155806156 -2.114252030015250 25.000000000000000
2.653043969880675 -4.603473305184393 -2.171863536766174 38.000000000000000
2.644104391907703 -4.552106591433839 -2.257658420780032 35.000000000000000
2.669512041036497 -4.559457788396408 -2.373249700008933 11.000000000000000
2.985577592924791 -4.936505481671341 -3.080396089150584 19.000000000000000
2.388512778249970 -4.576087506821602 -0.946537816491172 58.000000000000000
2.405258543519732 -4.574306088602995 -1.041364079750644 18.000000000000000
2.424837898743622 -4.578013327010100 -1.137704330014841 19.000000000000000
2.482547531091100 -4.651759180649968 -1.254788540397233 20.000000000000000
2.504536109206708 -4.658280155163719 -1.356217118933250 7.000000000000000
2.537218543316559 -4.683286179184789 -1.464216045297735 3.000000000000000
2.999441162684550 -5.494413119467072 -1.837757651112266 22.000000000000000
2.857605161856156 -5.195360850968375 -1.852366693491925 20.000000000000000
2.753887633508296 -4.967959560167700 -1.882481529935534 74.000000000000000
2.849755481894483 -5.101167114169088 -2.048865970904921 37.000000000000000
3.027560623838798 -5.377423381388750 -2.283329684096101 46.000000000000000
2.678132105852934 -4.719745065974109 -2.114377198092331 26.000000000000000
2.633396083446896 -4.604808080620756 -2.171817581735707 37.000000000000000
2.624482430021314 -4.553489372018182 -2.257482339560350 40.000000000000000
2.651542689780775 -4.564145357841182 -2.374624710721029 11.000000000000000
2.913145195267811 -4.975476583299464 -2.713042911626493 11.000000000000000
2.967376983053186 -4.945348329615740 -3.083796967897365 18.000000000000000
2.376175710141135 -4.586396194910278 -0.949875222251742 57.000000000000000
2.421821039828052 -4.640274155136593 -1.057468021368756 27.000000000000000
2.406777229129717 -4.578047243769069 -1.138649552391393 27.000000000000000
2.453179403127708 -4.631382949981096 -1.250098710780228 16.000000000000000
2.482279247344800 -4.651817062699225 -1.354999539993165 11.000000000000000
2.505596924255968 -4.660035561951520 -1.457462388710672 7.000000000000000
2.531768447148444 -4.673065274457919 -1.563396773272572 5.000000000000000
2.814827783620970 -5.156727908896587 -1.838814243517403 36.000000000000000
2.636672734912326 -4.793013172031632 -1.816226203340661 41.000000000000000
2.569072368437944 -4.634157405948233 -1.861157785525930 5.000000000000000
2.615956777019256 -4.682269590874107 -1.987843459415920 2.000000000000000
2.660088377335400 -4.724319628136513 -2.115923882366566 27.000000000000000
2.610113864017453 -4.599639625178143 -2.168703975962360 36.000000000000000
2.604879267107320 -4.554806527950515 -2.257273908220668 35.000000000000000
2.629926973404109 -4.562458354237806 -2.372684951780820 11.000000000000000
2.895360088550797 -4.984054853542370 -2.716334142646641 22.000000000000000
2.914621368827189 -4.976287715593079 -2.839141921076389 15.000000000000000
2.943735627255378 -4.945050696696302 -3.081505827340070 21.000000000000000
2.372788992514682 -4.614167257752440 -0.956822300370600 12.000000000000000
2.403730013524972 -4.640239227139800 -1.058530083177738 48.000000000000000
2.421261404352566 -4.640353542859181 -1.155081040043029 33.000000000000000
2.409480322380372 -4.583333882486149 -1.237914010630879 16.000000000000000
2.456460430101107 -4.638424216856061 -1.351748105170012 14.000000000000000
2.477779622381894 -4.643451715458998 -1.452778134854023 10.000000000000000
2.501934494402893 -4.653350252014745 -1.557150993895983 11.000000000000000
2.537820830904185 -4.684975194115423 -1.670786898665400 6.000000000000000
2.602491536659961 -4.767353367604940 -1.806531391921854 28.000000000000000
2.529814621056777 -4.598653698358683 -1.846758821735898 7.000000000000000
2.501843963147615 -4.512795187732141 -1.915586692802875 5.000000000000000
2.638406736555794 -4.722334084523047 -2.114529424398929 26.000000000000000
2.594156767445022 -4.607280740243937 -2.171628616153433 37.000000000000000
2.585295168419831 -4.556058168243026 -2.257033198632903 37.000000000000000
2.606542285596321 -4.557529620774556 -2.369063331606153 10.000000000000000
2.872127300073453 -4.983181723441531 -2.714476871025258 50.000000000000000
2.893049064191747 -4.978687432572754 -2.838897419936370 22.000000000000000
2.933747119819691 -5.008981245674008 -2.986305194958431 18.000000000000000
2.925509766328835 -4.953776788967208 -3.084845560510984 23.000000000000000
2.371038004342288 -4.645464099914864 -0.964498874217446 119.000000000000000
2.387451774228714 -4.643629821746920 -1.060358479154497 72.000000000000000
2.401249417490582 -4.636891243202243 -1.155138447856137 49.000000000000000
2.407492784403262 -4.614398369711536 -1.247080662447199 13.000000000000000
2.436155440592394 -4.635212647264789 -1.351448994194246 20.000000000000000
2.455505266196472 -4.636973854343476 -1.451242006633079 14.000000000000000
2.475864950402039 -4.640278045660770 -1.553115709253299 45.000000000000000
2.498847148480703 -4.648633406127225 -1.658009162811793 9.000000000000000
2.532356499739101 -4.674808396290667 -1.771483281377334 6.000000000000000
2.507089674096235 -4.592770887183979 -1.844250781177904 10.000000000000000
2.466613624794667 -4.483956927527543 -1.903036389051739 6.000000000000000
2.596901226729365 -4.684438130788780 -2.097056846493111 19.000000000000000
2.570957506598081 -4.601959951668091 -2.168442321693154 39.000000000000000
2.565730398583979 -4.557244402766391 -2.256760283068740 37.000000000000000
2.588618143615396 -4.562024486726696 -2.370342736620847 10.000000000000000
2.850728484635011 -4.985366799081125 -2.714289775523275 62.000000000000000
2.871492906963804 -4.981016178266684 -2.838617677162976 56.000000000000000
2.888681822147638 -4.971544873084701 -2.962141607907869 22.000000000000000
2.900129227109544 -4.950289612931286 -3.080588777193349 25.000000000000000
2.356671844233307 -4.652233657454031 -0.967075909662670 127.000000000000000
2.371172418363328 -4.646970100399057 -1.062161121671370 106.000000000000000
2.386635114488934 -4.643777445013325 -1.157759850519051 72.000000000000000
2.405328576067309 -4.645494929519647 -1.256252880976304 41.000000000000000
2.415892989794387 -4.631928736027254 -1.351115556208019 30.000000000000000
2.433295503463912 -4.630412691753556 -1.449667305580802 20.000000000000000
2.453493900964084 -4.633880660864660 -1.551303225935068 55.000000000000000
2.478095056637925 -4.645777672107123 -1.657164660381582 13.000000000000000
2.498792407956885 -4.648744705831724 -1.761620039037519 8.000000000000000
2.482633073696646 -4.583486571502947 -1.840371666332566 14.000000000000000
2.445971801263267 -4.481282010616664 -1.901588149087071 7.000000000000000
2.552093942609057 -4.639823721739674 -2.076582851532764 15.000000000000000
2.554994493327208 -4.609491607621894 -2.171310723579416 38.000000000000000
2.547975787852510 -4.561570943753961 -2.258042052225109 38.000000000000000
2.567115552815402 -4.560113045317775 -2.368295326266537 10.000000000000000
2.856105638490654 -5.034651839719642 -2.739736745490252 61.000000000000000
2.844612856536896 -4.973936251327118 -2.832984268251227 63.000000000000000
2.870552483634549 -4.980096877262926 -2.965398376571953 48.000000000000000
2.880120049387816 -4.955847686712372 -3.081971156130760 24.000000000000000
2.344049593414308 -4.662477030697386 -0.970362531136432 118.000000000000000
2.358433331494829 -4.657252958235473 -1.065537941089447 121.000000000000000
2.370223785497614 -4.647144827296199 -1.159491337093785 99.000000000000000
2.386991261846338 -4.645491491483216 -1.257006570558110 43.000000000000000
2.399233073355315 -4.635450210427948 -1.352754969076625 43.000000000000000
2.416496923045655 -4.634020782573452 -1.451264968084127 32.000000000000000
2.434755220120390 -4.634189737419749 -1.551725650909334 52.000000000000000
2.453816444292982 -4.636104777577954 -1.653879484435375 18.000000000000000
2.472567883345134 -4.635922415858709 -1.756767319934233 13.000000000000000
2.461834401044272 -4.580750730752750 -1.839116669638754 21.000000000000000
2.423588521925297 -4.475238000210229 -1.898706801448374 7.000000000000000
2.509403570405288 -4.598264993837099 -2.057483114703372 12.000000000000000
2.533661147986692 -4.607259160618333 -2.169577888456923 39.000000000000000
2.526659900802924 -4.559421098266942 -2.256118125088497 39.000000000000000
2.547431480403322 -4.561306229863269 -2.367862819096720 11.000000000000000
2.831026546482850 -5.030475201040317 -2.736083321981947 0.000000000000000
2.835505667356899 -4.997932609774131 -2.845052062536510 28.000000000000000
2.845338679148039 -4.976258362919776 -2.961284266397787 60.000000000000000
2.861863672698948 -4.964396068529140 -3.085218305672795 46.000000000000000
2.329627670376627 -4.669172104250759 -0.972898133569037 86.000000000000000
2.343890166135300 -4.664004315979271 -1.068094859842033 104.000000000000000
2.357337933779740 -4.657428527936253 -1.162936530137651 101.000000000000000
2.372207687531033 -4.652355026056513 -1.259606049026978 62.000000000000000
2.382572109472985 -4.638920269806190 -1.354368071663946 57.000000000000000
2.399697149001955 -4.637577045955951 -1.452836100836693 44.000000000000000
2.416037396367701 -4.634436201816481 -1.552117389454037 70.000000000000000
2.433172283445516 -4.633091426261524 -1.652961123249571 25.000000000000000
2.450001407755131 -4.629699799095932 -1.754408410903505 18.000000000000000
2.439304799880569 -4.574613982791715 -1.836490947902041 33.000000000000000
2.406591583813065 -4.479012163852139 -1.899987101215348 7.000000000000000
2.479431159820827 -4.579419123515443 -2.048550125061772 13.000000000000000
2.515911371522030 -4.611441570043227 -2.170864486033940 39.000000000000000
2.505386606761966 -4.557195695962839 -2.254158232989765 40.000000000000000
2.526002089426886 -4.559247820799577 -2.365744862140741 11.000000000000000
2.839466909642915 -5.006321352564646 -2.977343477648859 31.000000000000000
2.841831127446037 -4.969837474965143 -3.086539699325261 53.000000000000000
2.316928171203751 -4.679350891473677 -0.976147060614813 52.000000000000000
2.329324562753315 -4.670715444413053 -1.070629870065025 68.000000000000000
2.342655345223539 -4.664193274317423 -1.165491756001598 88.000000000000000
2.355645977390540 -4.655708435024851 -1.261243432982794 73.000000000000000
2.367668030622140 -4.645787926362463 -1.356962283939628 68.000000000000000
2.382896381085294 -4.641081504946473 -1.454380727820055 57.000000000000000
2.399102137935218 -4.638025473935633 -1.553619205236222 52.000000000000000
2.416096013169055 -4.636768882483857 -1.654421465521408 35.000000000000000
2.431026322734623 -4.630108290462892 -1.754555281761786 24.000000000000000
2.420366697978751 -4.575057511275694 -1.836501515337053 37.000000000000000
2.386069111831298 -4.476122157613672 -1.898436362821924 6.000000000000000
2.458419460760123 -4.576839272780782 -2.046893262016215 15.000000000000000
2.494640882262913 -4.609068591919899 -2.169063757366303 40.000000000000000
2.487669878059830 -4.561337510499384 -2.255348020396203 41.000000000000000
2.506369313165671 -4.560304846250346 -2.365245986210959 11.000000000000000
2.920484080173108 -5.191182772754146 -3.085394327685849 24.000000000000000
2.820056361233656 -4.972156246289046 -3.085929419470642 63.000000000000000
2.307652307305961 -4.696556874658031 -0.980851850020107 32.000000000000000
2.319950035972854 -4.687920931078398 -1.075559935357678 45.000000000000000
2.326209109856732 -4.667423820787048 -1.167151255994350 64.000000000000000
2.340827969035649 -4.662485064047813 -1.263796442039417 64.000000000000000
2.352741137406432 -4.652614351032067 -1.359534052874712 63.000000000000000
2.369592372155847 -4.651399717841897 -1.458050978080381 65.000000000000000
2.383916247993637 -4.644972972290878 -1.556236938656576 78.000000000000000
2.395516431436609 -4.633619446588525 -1.653437586035189 47.000000000000000
2.413824075221273 -4.633816243790851 -1.755945429864553 34.000000000000000
2.406704701237700 -4.585449747653248 -1.840499685625379 39.000000000000000
2.372594731023594 -4.486403110838608 -1.902467179579386 7.000000000000000
2.433951645073313 -4.567617591265677 -2.042264657042581 15.000000000000000
2.475161506837471 -4.609875966302231 -2.168758882489967 40.000000000000000
2.468205699613237 -4.562198394122126 -2.254915172920307 41.000000000000000
2.488499609884711 -4.564493016188922 -2.366372159396362 11.000000000000000
2.853119205552932 -5.113024496964861 -3.037088621088006 40.000000000000000
2.798298640382447 -4.974403743479193 -3.085283798306722 63.000000000000000
2.296566097659398 -4.710218984745583 -0.984807227239812 22.000000000000000
2.307033904307156 -4.698082865166535 -1.078864197388104 27.000000000000000
2.316683214731208 -4.684598002170431 -1.172286842305871 43.000000000000000
2.329453908252247 -4.676179295210963 -1.268214370037118 51.000000000000000
2.339527131400049 -4.662858570335860 -1.363094550824881 55.000000000000000
2.351030304096192 -4.651372926818534 -1.458468513503444 59.000000000000000
2.368707288456517 -4.651878455017675 -1.558831813043138 58.000000000000000
2.381940391586937 -4.643966034416601 -1.657261428414848 55.000000000000000
2.394880325766400 -4.634103448869904 -1.756032303355805 43.000000000000000
2.386035345711385 -4.582439925412118 -1.839112736893779 48.000000000000000
2.364293873280537 -4.506600518202476 -1.910696797010265 7.000000000000000
2.420003752254356 -4.578034084055070 -2.046413879034467 22.000000000000000
2.455702984325107 -4.610618599267901 -2.168422233989880 41.000000000000000
2.450496675384228 -4.566226131640009 -2.256047197790592 42.000000000000000
2.465433957508941 -4.559021613809756 -2.362493031942587 12.000000000000000
2.821169351500111 -5.177731328160196 -2.810538344080169 26.000000000000000
2.818356597458760 -5.131602158092115 -2.914639837205455 10.000000000000000
2.834487860571652 -5.121489240255777 -3.040270140993437 44.000000000000000
2.778272173470358 -4.979652033857100 -3.086506982305911 63.000000000000000
2.288838103220365 -4.730937527771662 -0.990229390377989 15.000000000000000
2.297505420451419 -4.715257129483964 -1.083768907953628 21.000000000000000
2.305349835921954 -4.698257724733280 -1.176534098952800 29.000000000000000
2.316291042126579 -4.686368127322787 -1.271671963745871 42.000000000000000
2.326268375637865 -4.673071436417947 -1.366636306645581 45.000000000000000
2.341122566311844 -4.668498522795421 -1.464254988778399 51.000000000000000
2.353475409430146 -4.658741853961696 -1.561403802785545 65.000000000000000
2.364861444716616 -4.647485777809474 -1.658641098113605 61.000000000000000
2.379416673897679 -4.641073352702505 -1.758644485623071 52.000000000000000
2.370597563195643 -4.589399349814109 -1.841721151883940 54.000000000000000
2.362793580611688 -4.540081187058598 -1.924550157916596 7.000000000000000
2.402555184498582 -4.581829537229235 -2.047599247219219 27.000000000000000
2.436265574879308 -4.611296606441859 -2.168053886801659 41.000000000000000
2.431063248868326 -4.566962776413519 -2.255552810034625 42.000000000000000
2.447594590312173 -4.563084705726904 -2.363557211035054 12.000000000000000
2.759773627031337 -5.106673485640514 -2.770588283848479 23.000000000000000
2.772449066523987 -5.089649823197504 -2.889215611676620 17.000000000000000
2.812413224611479 -5.123680595970669 -3.039732390277817 42.000000000000000
2.756538086798431 -4.981762395015890 -3.085792801799107 58.000000000000000
2.279299754733331 -4.748111523831506 -0.994901796827726 11.000000000000000
2.287889000634221 -4.732420282828618 -1.088662568222704 14.000000000000000
2.295658273666103 -4.715404806164777 -1.181645718710345 20.000000000000000
2.304794808712770 -4.700014929708472 -1.276058208017223 34.000000000000000
2.312964968062590 -4.683252790442230 -1.370159245244976 36.000000000000000
2.325979302185467 -4.675268809450023 -1.466784866702882 41.000000000000000
2.338220761247015 -4.665563101383967 -1.563952882499297 50.000000000000000
2.351216950488369 -4.657757611993031 -1.662422593583580 56.000000000000000
2.362211926811170 -4.644622556479653 -1.759953442756788 55.000000000000000
2.351701044314062 -4.589610996919236 -1.841615892397261 54.000000000000000
2.359372472714657 -4.570274051323549 -1.937000937220981 47.000000000000000
2.385105718791254 -4.585571361434170 -2.048757184095767 35.000000000000000
2.416849537999163 -4.611910104288802 -2.167653916249565 41.000000000000000
2.408228018544941 -4.561151380720180 -2.251825901984764 43.000000000000000
2.428045090344647 -4.563881303943033 -2.362930486233672 12.000000000000000
2.707441880705641 -5.051215110354570 -2.739140078843499 17.000000000000000
2.745588821100981 -5.082120417386768 -2.883353965198495 20.000000000000000
2.792052272201454 -5.128916020571123 -3.041006504962389 43.000000000000000
2.733130584241478 -4.980719637920759 -3.083135595122981 60.000000000000000
2.562896258465887 -4.631638356182566 -2.990967887804887 20.000000000000000
2.554918459850715 -4.576744350330480 -3.080941871446472 21.000000000000000
2.276433917235086 -4.779467107192134 -1.002540169634205 9.000000000000000
2.283266095916995 -4.760165827196191 -1.095984138949812 9.000000000000000
2.287575381650758 -4.736053719488345 -1.187627062417322 14.000000000000000
2.294931981375491 -4.717134325970536 -1.281378535644512 27.000000000000000
2.301319166423958 -4.696876494861184 -1.374680066877480 27.000000000000000
2.312517728493160 -4.685449985716251 -1.470375525760828 32.000000000000000
2.328060110090927 -4.682633632450427 -1.569929421358662 40.000000000000000
2.337527185192722 -4.667996911357934 -1.666184711860538 48.000000000000000
2.348420154286318 -4.654884713774964 -1.763799047625890 52.000000000000000
2.273098208336862 -4.472245832451295 -1.794331560603497 50.000000000000000
2.263654522772694 -4.420605506104987 -1.873226937913555 44.000000000000000
2.369360136520232 -4.592563583620203 -2.051363515780270 43.000000000000000
2.399157870546418 -4.615735104436135 -2.168761618498242 40.000000000000000
2.388860359451985 -4.561749008045001 -2.251264571444098 43.000000000000000
2.406819727989026 -4.561396303875107 -2.360607243053646 12.000000000000000
2.677553880756181 -5.036921381169283 -2.730037401862333 20.000000000000000
2.712055857033348 -5.061874525849483 -2.870292548310569 27.000000000000000
2.763261746418630 -5.118484574589925 -3.033001843135680 36.000000000000000
2.713123828819853 -4.985770255012762 -3.084259076945365 56.000000000000000
2.533953531513498 -4.617921156783058 -2.980031491421809 24.000000000000000
2.531046080687222 -4.572321233514974 -3.075675580256467 20.000000000000000
2.281787811937174 -4.828615010808511 -1.013911958056363 4.000000000000000
2.280171833424471 -4.791464855933570 -1.104119986419583 7.000000000000000
2.279381983651391 -4.756700484398785 -1.193600550572012 10.000000000000000
2.286669236157619 -4.737740755446618 -1.287638279405533 15.000000000000000
2.292988570628711 -4.717436068653115 -1.381222774622817 18.000000000000000
2.302397332330207 -4.702514509362564 -1.476117818235834 22.000000000000000
2.311032370376356 -4.685949766874426 -1.571286150070111 31.000000000000000
2.322097289525252 -4.674791258746859 -1.668709341114696 39.000000000000000
2.336278417455862 -4.668501799287586 -1.768908733139870 45.000000000000000
2.258032725165665 -4.478882570408447 -1.796798022197360 33.000000000000000
2.292678195510438 -4.513972387150993 -1.912439274818773 41.000000000000000
2.353591378721045 -4.599512224254115 -2.053946182582916 51.000000000000000
2.378082616640936 -4.612944042044775 -2.166759408285519 41.000000000000000
2.371203548264573 -4.565534211416512 -2.252275981553528 42.000000000000000
2.390696729066839 -4.568501960681551 -2.363248396778877 12.000000000000000
2.646116344213023 -5.019316663480469 -2.719152905703538 26.000000000000000
2.685414124264818 -5.054123022693195 -2.864330890920535 28.000000000000000
2.714497525139556 -5.070428906199287 -3.002731738465815 29.000000000000000
2.694781411459518 -4.993852305920043 -3.087262912534227 52.000000000000000
2.516788383875746 -4.625486430104013 -2.982843528533091 28.000000000000000
2.510555456876571 -4.573852638010207 -3.074429921743924 21.000000000000000
2.740557743545295 -5.845577380961914 -1.228719796161993 1.000000000000000
2.383892137529829 -5.049411838899337 -1.164523231973791 12.000000000000000
2.284476723261836 -4.805529592414703 -1.206643044691118 8.000000000000000
2.281650837316743 -4.765352408322754 -1.295795462665434 14.000000000000000
2.286226332721252 -4.741476741615253 -1.388777687138422 12.000000000000000
2.293869190705371 -4.723028989961513 -1.482935364712778 15.000000000000000
2.302420041961361 -4.706415436341167 -1.578385152915546 21.000000000000000
2.310012250950304 -4.688377262799949 -1.673650513733370 28.000000000000000
2.322384690437659 -4.678702827860356 -1.772716897361869 34.000000000000000
2.305249290690065 -4.610074204965699 -1.849220790625832 45.000000000000000
2.270594883878067 -4.507318698875247 -1.909265047099615 53.000000000000000
2.337799601024972 -4.606417214755628 -2.056505159013827 60.000000000000000
2.358732247860106 -4.613364719060366 -2.166265023452549 43.000000000000000
2.350191168111868 -4.562751695062143 -2.250047653392369 44.000000000000000
2.369526458874687 -4.565882670226625 -2.360859970946386 12.000000000000000
2.469473363457497 -4.723539255753075 -2.557659517319223 9.000000000000000
2.652191632719189 -5.033615980856464 -2.851155151969239 23.000000000000000
2.677751039847450 -5.044059567466526 -2.985338916847683 24.000000000000000
2.668126113571589 -4.986397874701800 -3.080671887307499 61.000000000000000
2.496294011751079 -4.626879926016648 -2.981683141636595 29.000000000000000
2.488438240939070 -4.572290642011552 -3.071118591980068 23.000000000000000
