# This PCD file was generated using the MATLAB® pcwrite function
# from Computer Vision Toolbox®.
# .PCD v.7 - Point Cloud Data file format
VERSION .7
FIELDS x y z intensity
SIZE 8 8 8 8
TYPE F F F F
COUNT 1 1 1 1
WIDTH 638
HEIGHT 1
VIEWPOINT 0 0 0 1 0 0 0
POINTS 638
DATA ascii
7.312345767322940 -9.221912058930801 -1.676449031870924 38.000000000000000
7.388555935441164 -9.233264722874978 -1.892257843468901 35.000000000000000
7.531722574694204 -9.327256117565790 -2.128479357469375 27.000000000000000
7.557371446211220 -9.272368267500704 -2.335951098768398 21.000000000000000
7.097993774784647 -8.628928863033092 -2.380724059993676 15.000000000000000
7.078459819799754 -8.524950593174060 -2.557930406289759 18.000000000000000
5.956895693982216 -7.107006587520218 -2.307159954567589 4.000000000000000
5.638949376660776 -6.665123236547381 -2.329737789772316 16.000000000000000
5.669022166589014 -6.636732197521377 -2.487920700726910 24.000000000000000
5.444666698522614 -6.313206413368442 -2.529421539443833 22.000000000000000
5.331920589635647 -5.947083789823612 -3.022319841220757 48.000000000000000
7.313564997788748 -9.279908988001630 -1.692085162610277 38.000000000000000
7.396897973445269 -9.300556013219980 -1.910720862763303 33.000000000000000
7.546955334593960 -9.403904217596232 -2.150245252039762 25.000000000000000
7.555273856887571 -9.327394113094844 -2.353588750490368 21.000000000000000
7.092735840644818 -8.676385137980530 -2.396881146878794 11.000000000000000
7.031117953788242 -8.521081584802554 -2.559325877072989 19.000000000000000
7.076252301504518 -8.495735203474615 -2.760063897429586 12.000000000000000
5.681625745808447 -6.758144173703129 -2.363517762152219 11.000000000000000
5.629482332854566 -6.632441270832585 -2.487158107767766 33.000000000000000
5.440824235906984 -6.349162258922716 -2.544242567806493 1.000000000000000
5.964667184233504 -6.827636032334919 -3.095566441104086 33.000000000000000
3.950758732373611 -4.478785750651985 -2.151531463476744 0.000000000000000
3.932852571906350 -4.415298858211425 -2.242940623450941 0.000000000000000
7.316927187405796 -9.341111737996409 -1.708318480982872 37.000000000000000
7.404882331393365 -9.367977921955848 -1.929228683170086 32.000000000000000
7.561770133653125 -9.480724131988580 -2.172073290411946 24.000000000000000
7.555352463228691 -9.385551277702463 -2.372019470831084 19.000000000000000
7.097099233745301 -8.736034497090115 -2.416408022669879 8.000000000000000
6.986333132872967 -8.520036730817385 -2.561536152788785 19.000000000000000
7.018856125499007 -8.480070486951886 -2.757021440952665 19.000000000000000
5.656868400270385 -6.771427049192289 -2.369411661043594 13.000000000000000
5.592503123962477 -6.630929101280289 -2.487421167045119 35.000000000000000
6.146154069289037 -7.218259950124331 -2.892966893863963 30.000000000000000
6.207138508125527 -7.220466239139200 -3.081616918177241 15.000000000000000
5.879130629268623 -6.773349006467948 -3.070499353619082 41.000000000000000
3.927718320947088 -4.481682267631754 -2.152312440909004 23.000000000000000
3.927209024137967 -4.437848683848013 -2.253470288243840 19.000000000000000
7.322403168781891 -9.405539882760612 -1.725157195044104 36.000000000000000
7.412508227524405 -9.435529063474249 -1.947780549552693 31.000000000000000
7.576165977835276 -9.557714228803334 -2.193962578719505 27.000000000000000
7.371273580660741 -9.213982161718839 -2.332304123089436 10.000000000000000
7.108511003288756 -8.804917792816241 -2.438497483671172 4.000000000000000
6.939155654357698 -8.515798029588590 -2.562752958022028 19.000000000000000
6.976411083249352 -8.482137145056026 -2.759712639021762 25.000000000000000
5.639476321353319 -6.793550030383430 -2.378386176711539 29.000000000000000
5.555586727094092 -6.629271052965255 -2.487613600230730 31.000000000000000
6.121830435773664 -7.235893093537705 -2.900480521315147 29.000000000000000
6.160299953244950 -7.212264574514069 -3.078104643000242 28.000000000000000
3.948339794245902 -4.578416849584469 -2.075180960932145 9.000000000000000
3.909637911954556 -4.490166071590596 -2.155774581663001 25.000000000000000
3.899237187465384 -4.435149529577672 -2.251177026840404 26.000000000000000
3.929682693449292 -4.426261253419830 -2.370481226519088 0.000000000000000
7.327541311367664 -9.470082230941122 -1.742033544284811 36.000000000000000
7.417345359634528 -9.500096323866508 -1.965731836534723 29.000000000000000
7.597449462693731 -9.644149065335343 -2.218045641416376 23.000000000000000
7.349493062374581 -9.244149309027934 -2.343556118062092 14.000000000000000
7.112203595161154 -8.864799929779965 -2.458102159380256 0.000000000000000
5.901883383762716 -7.288542960617624 -2.195526824180663 1.000000000000000
6.931560759113112 -8.481040223784330 -2.761347164931548 29.000000000000000
5.870163634963621 -7.116505185259765 -2.492723178959417 20.000000000000000
5.523652452462772 -6.633374285106063 -2.489952846560677 28.000000000000000
6.122053263187730 -7.282730901246099 -2.919691501293866 12.000000000000000
6.133267720255271 -7.227068426859869 -3.084401566780807 30.000000000000000
3.925186020793372 -4.581164746259928 -2.076112778678826 12.000000000000000
3.884159173914988 -4.490061956054443 -2.155111863102373 26.000000000000000
3.881157674310959 -4.443592944730145 -2.254540496128116 26.000000000000000
3.911460256185187 -4.434840146931879 -2.373827191571648 13.000000000000000
7.332340917193561 -9.534737477224018 -1.758946819681840 36.000000000000000
7.431521344655522 -9.577250705385739 -1.986306982849770 26.000000000000000
7.608549254287141 -9.718396378042934 -2.239349477935181 23.000000000000000
7.327583209665102 -9.274278207334632 -2.354780677343859 14.000000000000000
5.856388871492956 -7.278071380657897 -2.194448077285478 8.000000000000000
6.901448298081605 -8.497830463448322 -2.768781826615492 32.000000000000000
5.841801907482790 -7.127328203376779 -2.497768435039640 20.000000000000000
5.491742913826847 -6.637360480598410 -2.492233861222304 21.000000000000000
6.118451672182393 -7.256326590834396 -3.096858011326669 20.000000000000000
3.904504073218277 -4.586706130522786 -2.078306718087243 16.000000000000000
3.858721412005235 -4.489858169547642 -2.154400770952009 30.000000000000000
3.853267480430215 -4.440694162836221 -2.252150322782942 34.000000000000000
3.893219083290330 -4.443361555715027 -2.377142666037891 13.000000000000000
7.334398149403394 -9.596360027560300 -1.775314622108139 34.000000000000000
7.445278699669064 -9.654571319849374 -2.006941382850044 26.000000000000000
7.628912488910068 -9.805218561510781 -2.263573987647956 21.000000000000000
7.283743734813502 -9.276603385767190 -2.358917300105648 17.000000000000000
5.825601831191203 -7.285654417011432 -2.198785805917326 34.000000000000000
5.899763122249264 -7.310669050434534 -2.383647863331801 5.000000000000000
5.803672603497651 -7.126087193157268 -2.498567915212780 19.000000000000000
5.459858616764549 -6.641229807296393 -2.494456760823853 19.000000000000000
3.878941208901971 -4.586403270441521 -2.077848921063661 17.000000000000000
3.838205178060546 -4.495270465323244 -2.156383188281192 28.000000000000000
3.830314884713780 -4.443338408463396 -2.252573566348951 27.000000000000000
3.867652754271221 -4.443431058550680 -2.375939098606153 13.000000000000000
7.343315275296265 -9.667532514019754 -1.793465878674988 33.000000000000000
7.451414705086596 -9.722659629679054 -2.025676335999509 26.000000000000000
7.648794549726108 -9.892245470088170 -2.287873575091123 20.000000000000000
7.182050273789899 -9.204560044240948 -2.344075992095282 14.000000000000000
5.799660158130563 -7.299226712927325 -2.204910756352990 73.000000000000000
5.856508621179950 -7.303334136992252 -2.382901016301048 21.000000000000000
5.763177414086682 -7.121698057551074 -2.498243156867319 13.000000000000000
5.445008123329308 -6.665803776322149 -2.504444559667318 30.000000000000000
3.853419734817940 -4.586000788762051 -2.077342800981459 17.000000000000000
3.812830794488189 -4.494882060892277 -2.155581729202432 30.000000000000000
3.809812467252649 -4.448732847420295 -2.254391495869779 28.000000000000000
3.844553514673116 -4.446205913439718 -2.376186282282658 13.000000000000000
7.349469363078429 -9.735683227042045 -1.811075974072807 33.000000000000000
7.466751882959908 -9.803426483896173 -2.047073397110573 26.000000000000000
7.672988390973121 -9.985714332845548 -2.313692809081337 18.000000000000000
7.140941444830446 -9.209493310560074 -2.348772497338159 12.000000000000000
5.785740447113283 -7.327993614655052 -2.215611216394290 21.000000000000000
5.823015585904360 -7.307947167127692 -2.386028853301074 51.000000000000000
5.727599867189695 -7.123160738575084 -2.499951370285245 12.000000000000000
5.439724275633777 -6.702284513466212 -2.518897795789181 39.000000000000000
3.927703413776301 -4.749609063790379 -2.026944408357141 0.000000000000000
3.827940093398205 -4.585498902564335 -2.076788495715396 21.000000000000000
3.787498666327817 -4.494394581863312 -2.154732279213059 29.000000000000000
3.782057865931993 -4.445529025226044 -2.251853899482541 25.000000000000000
3.821476246685834 -4.448895199738129 -2.376391128952260 12.000000000000000
7.352888617601725 -9.800790447772464 -1.828135546395558 32.000000000000000
7.472123496515435 -9.871784747814104 -2.065899403564158 26.000000000000000
7.130969575297655 -9.254650954105330 -2.363706545630504 13.000000000000000
5.771685717162931 -7.356750848476416 -2.226298483074304 8.000000000000000
5.796760818167632 -7.321553478430933 -2.392074137528444 59.000000000000000
5.692065561069803 -7.124489687176567 -2.501593961017222 11.000000000000000
5.441477934528147 -6.747766502009161 -2.536728034773605 20.000000000000000
3.899465347547815 -4.746231055031203 -2.025459151780450 1.000000000000000
3.802502725876047 -4.584897830463428 -2.076186143850541 20.000000000000000
3.767029488981768 -4.499565850033385 -2.156594535455168 29.000000000000000
3.761590572624052 -4.450760490811541 -2.253590783034236 26.000000000000000
3.800826907715965 -4.454318243077958 -2.378058831687138 12.000000000000000
7.358330391868723 -9.869175270939007 -1.845821582815379 32.000000000000000
7.486616883965286 -9.952872758042803 -2.087408799189870 26.000000000000000
7.118388607692088 -9.296725148294442 -2.377845484246020 13.000000000000000
5.764671861525160 -7.394702950990479 -2.239760387977416 8.000000000000000
5.780050976072655 -7.347259984539409 -2.402058582463698 24.000000000000000
5.649381470390701 -7.116623235696423 -2.499987744600356 12.000000000000000
5.438179640896037 -6.787334750735908 -2.552329362522903 0.000000000000000
3.871288972389527 -4.742739218903473 -2.023919562070123 2.000000000000000
3.779509285294562 -4.587112095079791 -2.076855360766579 23.000000000000000
3.741763144879844 -4.498894794833538 -2.155655397469312 33.000000000000000
3.741126347879695 -4.455921119739788 -2.255291693741022 37.000000000000000
3.775389107755642 -4.454017615303514 -2.376674182046426 12.000000000000000
7.368119654711996 -9.944034479539631 -1.864737789495809 32.000000000000000
7.112720925776761 -9.348171408559313 -2.394375983051022 10.000000000000000
5.764609646167514 -7.441910888771631 -2.256022595386553 15.000000000000000
5.770381660730775 -7.382097078018897 -2.415018472021861 15.000000000000000
5.609189480778888 -7.111609848738246 -2.499362864421387 13.000000000000000
6.017808136063972 -7.559482613694116 -2.843482345782828 1.000000000000000
3.850349365125065 -4.747981026013504 -2.026101168031045 4.000000000000000
3.761321279065532 -4.595083902977028 -2.080127438463860 18.000000000000000
3.745221022866685 -4.532837495135161 -2.171296325372061 12.000000000000000
3.730217902693791 -4.472464143122721 -2.262751176533620 14.000000000000000
3.752379975881986 -4.456451022082820 -2.376752575338226 12.000000000000000
7.109150715529260 -9.402797891754572 -2.411719699862644 9.000000000000000
5.750060189346368 -7.470697399957208 -2.266694548713305 10.000000000000000
5.784291596643104 -7.447535499018653 -2.437988046701821 17.000000000000000
5.566704584726815 -7.103401852508190 -2.497594480327957 15.000000000000000
5.978322970565783 -7.558693250812356 -2.843961110797625 1.000000000000000
3.819886295331451 -4.741327149555565 -2.023200818412807 10.000000000000000
3.764546538599338 -4.629351565543413 -2.095296981652123 8.000000000000000
3.743721205627545 -4.561048399723276 -2.184182462597021 47.000000000000000
3.738256703502283 -4.511953288848368 -2.281810320331346 34.000000000000000
3.729394293747555 -4.458799415290161 -2.376789005353922 14.000000000000000
7.114708492861091 -9.470021736224089 -2.432298373360804 6.000000000000000
5.883444610033612 -7.762443236622095 -2.174845860948853 0.000000000000000
5.768445864824888 -7.542714468949919 -2.290483517617671 10.000000000000000
5.757612714645092 -7.461014499714629 -2.443942401777353 14.000000000000000
5.533797065813873 -7.107185014564341 -2.500023040522189 15.000000000000000
5.882022789712466 -7.485371961023164 -2.817125930169154 1.000000000000000
3.798992142369474 -4.746397740719253 -2.025297802573776 18.000000000000000
3.760460638384890 -4.654880646111546 -2.106503728364623 40.000000000000000
3.718364690425465 -4.560233829878680 -2.183164548499990 36.000000000000000
3.717641842637492 -4.517011811738110 -2.283449894893539 25.000000000000000
3.722989561566414 -4.480991105640978 -2.387400979231173 9.000000000000000
7.119900403746574 -9.537364814991815 -2.452915535946047 4.000000000000000
5.849233717310169 -7.766747238585537 -2.178393502608241 9.000000000000000
5.767599073601043 -7.590144151511844 -2.306810934053098 18.000000000000000
5.827472752433795 -7.600369139744288 -2.491137543224859 4.000000000000000
5.493842194943541 -7.101705659355338 -2.499174796795590 13.000000000000000
5.595122841880571 -7.166737488561111 -2.697912184323100 16.000000000000000
3.720818198933288 -4.722539048701669 -1.895666865241564 8.000000000000000
3.792268998967415 -4.769214368102231 -2.034960970278771 17.000000000000000
3.742071347455507 -4.662783376467397 -2.109728232425171 38.000000000000000
3.690692716599378 -4.556407558085558 -2.180704802640901 36.000000000000000
3.694673060302233 -4.519115363055448 -2.283596136113637 21.000000000000000
3.728243085492988 -4.517462697079413 -2.405609751387312 10.000000000000000
7.129393082170916 -9.611117760621017 -2.475190835343561 0.000000000000000
5.815045787502160 -7.770929449500365 -2.181880377138345 18.000000000000000
5.764154266268263 -7.634539019719315 -2.322213502467982 12.000000000000000
6.159165544749770 -8.085025709605231 -2.651613672349292 40.000000000000000
5.458670068957719 -7.102176643656248 -2.500401567862406 17.000000000000000
3.677336874432761 -4.741070977863455 -1.785228135224726 0.000000000000000
3.693147631770408 -4.718220345564412 -1.894126009707555 23.000000000000000
3.778374303062467 -4.783111684542248 -2.040812151853431 10.000000000000000
3.718963999711754 -4.664731171374632 -2.110254455664959 33.000000000000000
3.670134691273278 -4.561229845502897 -2.182383477853059 35.000000000000000
3.671728748321335 -4.521134286203305 -2.283700673220458 20.000000000000000
3.728587296615391 -4.548292211596553 -2.420800431561525 16.000000000000000
6.205059629953067 -8.641051446791742 -1.641085275854075 15.000000000000000
5.778553153919906 -7.771858744598735 -2.184426492543636 15.000000000000000
5.774466303310891 -7.697640323337008 -2.343307142579308 38.000000000000000
6.513434993906675 -8.605595497678674 -2.824044388901222 40.000000000000000
5.437571860723405 -7.120884487150267 -2.508033568382147 26.000000000000000
3.394808197617887 -4.405503646351656 -1.659286269264186 2.000000000000000
3.670223483196430 -4.719810450580191 -1.894949311719836 13.000000000000000
3.773786598072109 -4.808910664983168 -2.051735101913128 11.000000000000000
3.693540383638406 -4.663638726595404 -2.109402110132597 31.000000000000000
3.644902275417285 -4.560127555385804 -2.181226279245001 33.000000000000000
3.648809271785059 -4.523068726531529 -2.283763602741719 20.000000000000000
3.712408540012066 -4.559101204710319 -2.425328645205512 6.000000000000000
6.164770438893027 -8.639326411227533 -1.644762778037337 28.000000000000000
6.219374430684633 -8.640897828690036 -1.838663211435416 5.000000000000000
5.746740885604762 -7.778929155949006 -2.188672287128675 5.000000000000000
5.775132683773156 -7.748411451893901 -2.360649583689737 43.000000000000000
5.824939540858434 -7.746043610328069 -2.543479453866223 5.000000000000000
5.442004455957572 -7.173290741458614 -2.527526743645272 27.000000000000000
3.380116302574636 -4.415251980284586 -1.663363980511247 1.000000000000000
3.407276726301717 -4.410584430877890 -1.770964225640995 8.000000000000000
3.666500979773013 -4.703174951337287 -2.006534311303207 18.000000000000000
3.670492333179375 -4.665410255333685 -2.109841980220013 26.000000000000000
3.622044746954717 -4.561861199029886 -2.181424821497027 35.000000000000000
3.623587706750215 -4.522014518155465 -2.282319177740029 20.000000000000000
3.686894605792299 -4.558369198066191 -2.423719129746893 5.000000000000000
6.140543172184427 -8.660019322103373 -1.652673861152113 26.000000000000000
6.176530886404259 -8.636112130727646 -1.841252148618705 27.000000000000000
6.226498444744491 -8.632014019336287 -2.034194456677192 0.000000000000000
5.733398127064867 -7.811047882807682 -2.199948383270537 6.000000000000000
5.759337299919932 -7.777404759065572 -2.371350897571937 0.000000000000000
5.797326262926443 -7.759619272805826 -2.549426002511884 4.000000000000000
5.789132329993940 -7.680863748322628 -2.707460608304801 20.000000000000000
3.383129704633561 -4.408292363996240 -1.770202201772013 3.000000000000000
3.657442896086411 -4.722729865121554 -2.014782887299771 31.000000000000000
3.645149140609464 -4.664128383562325 -2.108897855364829 28.000000000000000
3.596893750178681 -4.560570396357728 -2.180176371257849 36.000000000000000
3.596095066478523 -4.517951592459037 -2.279359050488903 20.000000000000000
3.661426023080719 -4.557538666229794 -2.422062093202334 5.000000000000000
6.127618193507209 -8.696805330086731 -1.663639481731093 9.000000000000000
6.149746122696412 -8.653646967189450 -1.848565063402763 30.000000000000000
6.190295797424487 -8.636949242797272 -2.038564621917177 22.000000000000000
5.726793528069491 -7.852617431152743 -2.213878805810622 0.000000000000000
6.495784782820573 -8.751350343334277 -2.876913489053808 36.000000000000000
3.428735388671585 -4.579037140696027 -1.614722421531783 0.000000000000000
4.865281568937463 -6.381594251275837 -2.562823846275938 4.000000000000000
3.655219351496411 -4.751290885001088 -2.026867143784159 1.000000000000000
3.622161936740976 -4.665724343626684 -2.109251823115062 26.000000000000000
3.574098039477915 -4.562129403823387 -2.180289546590128 35.000000000000000
3.573282996573405 -4.519613336636103 -2.279289344006254 20.000000000000000
3.636003225920259 -4.556609840715116 -2.420357680301741 5.000000000000000
6.131993238215760 -8.683982827953590 -1.858592254983145 18.000000000000000
6.156391790964906 -8.644957462531945 -2.043627800543227 31.000000000000000
6.202455266754129 -8.634107730931820 -2.237907137165738 15.000000000000000
6.501623541838353 -8.816633450674091 -2.900015502832348 5.000000000000000
3.413622073125475 -4.588872063393449 -1.618818559220792 17.000000000000000
3.308255367651082 -4.407499513953688 -1.661604783607042 3.000000000000000
4.869072543978613 -6.429001356329820 -2.582072447043837 3.000000000000000
4.602851164715363 -6.023019555489513 -2.569243583171775 5.000000000000000
3.596900804171810 -4.664253859741726 -2.108216435006754 27.000000000000000
3.551328686618700 -4.563604699058841 -2.180361600819269 35.000000000000000
3.552793852072030 -4.524115720772778 -2.280652711338532 20.000000000000000
3.610626647094040 -4.555582954537493 -2.418606036464368 5.000000000000000
6.114101438919758 -8.714296476851482 -1.868599611509423 0.000000000000000
6.131562155682247 -8.665676121543047 -2.051669292923180 21.000000000000000
6.166015732750198 -8.639040055235279 -2.241950246441138 29.000000000000000
6.214068710536086 -8.631992767219247 -2.438400075338543 6.000000000000000
3.454609123326604 -4.715462461575899 -1.551899989850234 0.000000000000000
3.389327529184824 -4.586286769866976 -1.618522957653993 14.000000000000000
3.343908184106082 -4.484535333746045 -1.691022441202842 15.000000000000000
3.576265530754425 -4.668663860595050 -2.109835683249171 25.000000000000000
3.526297733924260 -4.562035995042377 -2.178978630381292 36.000000000000000
3.527738283357388 -4.522685562916934 -2.279026525321153 21.000000000000000
3.587580346602156 -4.557359171025780 -2.418346675508118 5.000000000000000
6.122461879945781 -8.708819944603727 -2.065006465143175 1.000000000000000
6.140914763454103 -8.659805141743252 -2.250076615368591 25.000000000000000
6.175104656333035 -8.633879740650480 -2.441283905513501 22.000000000000000
6.226333999437173 -8.629954838043131 -2.639306806869678 1.000000000000000
3.436929540669837 -4.722233295575397 -1.554980396863619 14.000000000000000
3.367358390299056 -4.586708529084969 -1.619277104297393 19.000000000000000
3.290215245881255 -4.441853213823478 -1.675290918800848 6.000000000000000
3.369091271607530 -4.507985644172097 -1.810810159988133 2.000000000000000
4.721358795247323 -6.261132076463528 -2.670515352440475 2.000000000000000
3.553357051285126 -4.670007719091078 -2.110065773788108 25.000000000000000
3.505870494056948 -4.566304760663436 -2.180382744300490 35.000000000000000
3.505006360181192 -4.524096349644396 -2.278833612667596 21.000000000000000
3.562287185888289 -4.556143497805676 -2.416503762186011 6.000000000000000
6.127001211431700 -8.696499929929702 -2.262326484804343 7.000000000000000
6.147470197506736 -8.651511942085442 -2.448594553354936 28.000000000000000
6.184859528867166 -8.628833838212227 -2.640897423359087 21.000000000000000
3.423765735503229 -4.735212216450727 -1.560095334769589 21.000000000000000
3.343151274015006 -4.583941670738213 -1.618894165262696 21.000000000000000
3.252716658516564 -4.420485608318709 -1.667584278546669 8.000000000000000
3.276743791191052 -4.413762164981493 -1.773084791505690 5.000000000000000
4.731805868937002 -6.317167847099891 -2.694253813259002 5.000000000000000
3.528206591336764 -4.668265747200105 -2.108898566163399 24.000000000000000
3.483182371986571 -4.567529833989775 -2.180332034139605 35.000000000000000
3.482301871257714 -4.525423790543355 -2.278599831786888 21.000000000000000
3.537041511840532 -4.554830443558380 -2.414614042440450 6.000000000000000
6.126518501440793 -8.678619034430783 -2.458568426283755 14.000000000000000
6.152452029608191 -8.640204156929499 -2.646286105081658 28.000000000000000
3.419564856078932 -4.760714630574192 -1.569329921114963 25.000000000000000
3.318993590648704 -4.581081097686664 -1.618466410417829 22.000000000000000
3.292163764607384 -4.503977823149244 -1.699430938751537 25.000000000000000
3.268643803869270 -4.432389278726061 -1.780684409226213 3.000000000000000
3.409030141999065 -4.581873437681857 -1.954033083652188 0.000000000000000
3.505362729483956 -4.669435742193987 -2.109043855462962 24.000000000000000
3.460522043012315 -4.568671808993929 -2.180240604045801 35.000000000000000
3.461880471183477 -4.529618932780246 -2.279810502440326 22.000000000000000
3.511843752244239 -4.553420247194030 -2.412677664394180 6.000000000000000
6.133471366538779 -8.670479171628855 -2.657446881914884 19.000000000000000
3.395033128330439 -4.757936736967927 -1.569232954200818 23.000000000000000
3.303869763820118 -4.590610017810028 -1.622405697751771 18.000000000000000
3.286130770190617 -4.525828322352293 -1.708018313075201 31.000000000000000
3.354890621798197 -4.579940430309268 -1.840075696972566 20.000000000000000
4.657245278717950 -6.301810900983618 -2.687359630213903 11.000000000000000
3.484794824571534 -4.673537529806270 -2.110509888186209 24.000000000000000
3.437889863744491 -4.569730842185182 -2.180108555724781 36.000000000000000
3.436976626772742 -4.527829257480882 -2.278010070679666 22.000000000000000
3.488936580754897 -4.554840424438626 -2.412245062876094 6.000000000000000
3.843686096646548 -4.973099212443830 -2.768354278923959 0.000000000000000
6.495799044380749 -9.243532141184639 -2.835068311330196 44.000000000000000
3.375017789645731 -4.761366836812783 -1.571170507893483 26.000000000000000
3.282006671745800 -4.590715737132197 -1.623004999210671 15.000000000000000
3.286695311364122 -4.556995512999372 -1.720116805557312 19.000000000000000
3.332738962641064 -4.580378649734867 -1.840358234678010 25.000000000000000
4.635782672282569 -6.315252785125540 -2.692908701632643 13.000000000000000
3.459758469698105 -4.671525709862184 -2.109211908142198 24.000000000000000
3.413049591218754 -4.567713831887485 -2.178508397474115 37.000000000000000
3.414356584291680 -4.528907597856072 -2.277654294528824 23.000000000000000
3.466057373782814 -4.556176972564103 -2.411771480949713 6.000000000000000
3.825824152369716 -4.984286835507134 -2.772972826504946 27.000000000000000
5.565371248190390 -8.315212463853179 -1.619376593259419 0.000000000000000
6.503645356058948 -9.316195974690089 -2.859326082100648 43.000000000000000
3.352787464615020 -4.761570977229482 -1.572031184781734 27.000000000000000
3.257948137442620 -4.587607594811474 -1.622456930017635 18.000000000000000
3.287083078689073 -4.588211261197277 -1.732229273629344 22.000000000000000
3.310616890145998 -4.580735670227785 -1.840601131745509 25.000000000000000
3.348746922349642 -4.592920948934188 -1.958345017328475 0.000000000000000
3.439226263574652 -4.675474153247824 -2.110601845505180 24.000000000000000
3.394937564876567 -4.574600453197323 -2.181153278473751 37.000000000000000
3.391765402214548 -4.529903221069517 -2.277258058298267 23.000000000000000
3.438763642177337 -4.551549494105526 -2.408145721493403 6.000000000000000
3.646026673256731 -4.783039704183873 -2.659473009094301 36.000000000000000
3.872057210951649 -4.986735407086250 -3.050866587517331 12.000000000000000
5.533243967920012 -8.321140391462672 -1.623948822175518 50.000000000000000
6.506658804819869 -9.382619541479970 -2.881669262337071 40.000000000000000
3.328373395565551 -4.758530105130240 -1.571807169553772 28.000000000000000
3.231725545647981 -4.581266575181506 -1.620753702673842 41.000000000000000
3.265127253173818 -4.588325348616653 -1.732593003513366 13.000000000000000
3.292959715439892 -4.587189686965414 -1.843287033613638 13.000000000000000
3.330887402520672 -4.599528089852455 -1.961018730758919 0.000000000000000
3.414267872514475 -4.673283362700891 -2.109217273449686 26.000000000000000
3.367950020296140 -4.569405686100581 -2.178036807911864 37.000000000000000
3.369203434838385 -4.530816287298976 -2.276821465424890 23.000000000000000
3.418173305371265 -4.555653076918475 -2.409143477921253 6.000000000000000
3.567046748406234 -4.712013607018384 -2.618473078333652 28.000000000000000
3.595975528995804 -4.706314746080468 -2.744876227753973 7.000000000000000
3.627321248038377 -4.704382451538278 -2.875991361806917 25.000000000000000
5.503300173248490 -8.330254583099901 -1.629110734071272 0.000000000000000
5.540449986835868 -8.317171344106150 -1.808980590318745 44.000000000000000
6.507100291207954 -9.445956604270735 -2.903062801662322 10.000000000000000
3.299604280276782 -4.749055075113362 -1.569443049976379 29.000000000000000
3.221007686418613 -4.596844784911209 -1.626795471922279 77.000000000000000
3.240995612651374 -4.585237678281948 -1.731738684801523 20.000000000000000
3.268669967946658 -4.584302173287544 -1.842212318011874 14.000000000000000
3.363781862881905 -4.676658847904034 -1.993752642447820 2.000000000000000
3.391566085555881 -4.674037968672971 -2.109159205633986 28.000000000000000
3.345444441794661 -4.570128119989145 -2.177740676423550 35.000000000000000
3.346671035554309 -4.531646957920105 -2.276344619901675 23.000000000000000
3.395390602427398 -4.556733257855170 -2.408544928728612 6.000000000000000
3.690728582658367 -4.909429888236941 -2.726613412575089 37.000000000000000
3.567928898005122 -4.702356324106064 -2.740764926059814 32.000000000000000
3.603493833596561 -4.706412067153729 -2.875110718803944 29.000000000000000
3.563508099694449 -4.565786251833463 -3.054719287591021 18.000000000000000
5.521121333643693 -8.342770634817121 -1.817586684044971 0.000000000000000
5.545315035030487 -8.310939435336616 -1.993266380700667 31.000000000000000
3.259965773136943 -4.723578472572530 -1.561772573528237 31.000000000000000
3.208022689250982 -4.609253974452904 -1.631708375979299 33.000000000000000
3.223503128261507 -4.591440096775261 -1.734384449830156 60.000000000000000
3.244431673549856 -4.581321163301400 -1.841093021645890 15.000000000000000
3.345658690056226 -4.683300868848217 -1.996428035641853 14.000000000000000
3.366697628441777 -4.671662576532138 -2.107685899196936 32.000000000000000
3.325163631721500 -4.573787443043829 -2.178842639598205 32.000000000000000
3.324168556842729 -4.532395395503170 -2.275827626275725 23.000000000000000
3.368257263556257 -4.551811344996028 -2.404778677148060 6.000000000000000
3.719018625464225 -4.981685627808879 -2.765162702108618 32.000000000000000
3.572688686775601 -4.741735871909786 -2.761908845061615 27.000000000000000
3.573161288164196 -4.699763869911492 -2.868943006725533 56.000000000000000
3.524713122195104 -4.548285951345609 -3.040321744654309 20.000000000000000
4.915206587361475 -7.538174318494395 -1.480227059457401 21.000000000000000
5.525725862164627 -8.336545255257624 -2.002090633124920 1.000000000000000
5.553113657377454 -8.307763165816016 -2.180821837968108 34.000000000000000
3.229251509302958 -4.710652219193194 -1.558233088942346 32.000000000000000
3.212456539304685 -4.646906063973963 -1.645552495571191 7.000000000000000
3.214741711428679 -4.610123766401291 -1.741737806692671 33.000000000000000
3.228989968332782 -4.590679350935332 -1.844925711594433 48.000000000000000
3.323151137900196 -4.683723536732560 -1.996446930456721 35.000000000000000
3.341879975682710 -4.669192034602974 -2.106167128252423 38.000000000000000
3.302707789274844 -4.574352179387173 -2.178469049033997 31.000000000000000
3.301696350268600 -4.533061763809721 -2.275270589646276 23.000000000000000
3.347734273843619 -4.555678955299881 -2.405660094022120 6.000000000000000
3.507486318412210 -4.731304672963572 -2.624690423220275 22.000000000000000
3.570687316980703 -4.772486933606988 -2.778009458749865 37.000000000000000
3.560254685430577 -4.715954348373527 -2.876724727694055 20.000000000000000
3.549344269661034 -4.657774157153402 -2.974208996754987 26.000000000000000
3.501183941150314 -4.550224350609383 -3.038944778924518 23.000000000000000
4.889864863376195 -7.548815909071786 -1.485279767876618 78.000000000000000
4.927024147830452 -7.543938048334280 -1.648948686160367 11.000000000000000
5.526764920240410 -8.323614764644438 -2.187302166183975 7.000000000000000
5.558326193019218 -8.302221943631229 -2.368532189075038 12.000000000000000
3.216023567929436 -4.723108847468158 -1.563077485440321 15.000000000000000
3.210151255017372 -4.675133368428566 -1.656055828562600 7.000000000000000
3.210236195697437 -4.635083607516531 -1.751456399447494 7.000000000000000
3.217868137192953 -4.606223839409601 -1.851238124308441 39.000000000000000
3.305025549244489 -4.690239794069906 -1.999057976388941 58.000000000000000
3.321463856244440 -4.672746759089701 -2.107363181105358 36.000000000000000
3.280282567589214 -4.574835103081110 -2.178055567791408 32.000000000000000
3.274911382679994 -4.527641398348509 -2.271660802926742 22.000000000000000
3.322882418118309 -4.553532112381076 -2.403368830802831 7.000000000000000
3.416885391868112 -4.641522163424669 -2.573423833198854 13.000000000000000
3.495015097324047 -4.704362683537165 -2.736579107429563 13.000000000000000
3.517013538919157 -4.648274500215797 -2.965764646377544 26.000000000000000
3.477682948207036 -4.552077780944168 -3.037526162518514 21.000000000000000
2.972510603951476 -4.619253259972717 -0.910661314445419 3.000000000000000
4.897147309390424 -7.548052219273663 -1.652501112026265 40.000000000000000
4.932431442833516 -7.541011092367099 -1.815801687008705 8.000000000000000
3.286880848952528 -4.983415599898975 -1.310926101453721 14.000000000000000
5.531725144616649 -8.318119831370801 -2.375020714724764 11.000000000000000
5.570763150302882 -8.306657353403104 -2.559495562875936 23.000000000000000
3.213549030868754 -4.751512358891927 -1.573193227006706 8.000000000000000
3.209852389710542 -4.706564932927906 -1.667690069648091 6.000000000000000
3.216417120121846 -4.675796557271182 -1.767122934149755 6.000000000000000
3.215333764428526 -4.634233598542197 -1.862554089810150 7.000000000000000
3.293384461727204 -4.705981547989652 -2.005595287498132 46.000000000000000
3.303221884931478 -4.679298411834795 -2.109907000772806 32.000000000000000
3.257888316012604 -4.575236380195003 -2.177602302012168 33.000000000000000
3.254683011089013 -4.531140228324815 -2.272527827901145 22.000000000000000
3.304557453523473 -4.560225977651216 -2.405746260335339 7.000000000000000
3.398075212523649 -4.648537940049616 -2.575857890092470 16.000000000000000
3.424179339771976 -4.641681059471630 -2.698372989640438 12.000000000000000
3.622189261105985 -4.866470823360751 -2.964238634473783 13.000000000000000
3.501919641472593 -4.661433276054103 -2.971789803731747 31.000000000000000
3.454210503995030 -4.553846401250626 -3.036065998608585 22.000000000000000
2.905161276396115 -4.544582060070569 -0.897683606519155 19.000000000000000
2.936566774423413 -4.556368595812504 -0.999112004955430 7.000000000000000
4.902340345512838 -7.545206797149719 -1.819151869691678 52.000000000000000
3.268931074331803 -4.989533736824399 -1.313889919422117 29.000000000000000
3.289746097296151 -4.980237924251560 -1.423129239799133 9.000000000000000
5.543877241651990 -8.322622225963020 -2.566000859976362 36.000000000000000
3.221671280485361 -4.795955642674197 -1.588618152356741 5.000000000000000
3.220138288348966 -4.753929853358985 -1.684967760300240 6.000000000000000
3.213741013392603 -4.703980418289930 -1.778049752729987 6.000000000000000
3.212641896334377 -4.662275574074419 -1.873876868234973 6.000000000000000
3.281669054748511 -4.721704339316328 -2.012118373055464 16.000000000000000
3.282814542564834 -4.682720578158891 -2.111035922482632 27.000000000000000
3.235525382963817 -4.575556177978308 -2.177109358383581 33.000000000000000
3.230163715102111 -4.528540095043236 -2.270337195489587 24.000000000000000
3.275481775499244 -4.551938344333204 -2.400224249473660 7.000000000000000
3.374964237032542 -4.649587269395090 -2.574989441343492 20.000000000000000
3.400924337133289 -4.642920287902180 -2.697358124773357 16.000000000000000
3.422848371427823 -4.631485858518678 -2.819076403461851 10.000000000000000
3.473990044865379 -4.657423741114506 -2.966879381417318 27.000000000000000
3.426518340414957 -4.549888847960329 -3.030806416451925 23.000000000000000
2.891169647056529 -4.552833109097766 -0.901039817456580 25.000000000000000
2.916035115971181 -4.554786761989916 -1.000328323713944 10.000000000000000
3.007963953902352 -4.660672120154359 -1.125116989668185 1.000000000000000
3.248840047106897 -4.992322429317285 -1.315961667393857 25.000000000000000
3.271651733815645 -4.986397864068560 -1.426027795603429 24.000000000000000
3.296054921356147 -4.981784992901794 -1.536900855586458 6.000000000000000
3.334401009261977 -4.997671643918464 -1.656161842636772 15.000000000000000
3.223715205156672 -4.791848692300760 -1.698895637211764 6.000000000000000
3.215194403875455 -4.738513799375063 -1.791371518814581 6.000000000000000
3.216224757228536 -4.699748650374231 -1.888984101123098 6.000000000000000
3.280600275721393 -4.752940384922850 -2.025245547657408 3.000000000000000
3.262417271323808 -4.686073420944770 -2.112130072055954 24.000000000000000
3.215336245338428 -4.578845194633767 -2.178027895365950 33.000000000000000
3.209977259499085 -4.531888601942696 -2.271130047593183 25.000000000000000
3.255049889470869 -4.555495570807807 -2.400952794497660 7.000000000000000
3.358284269926301 -4.659433857497356 -2.578995713446008 20.000000000000000
3.375569523629680 -4.641147428937212 -2.694602184741191 18.000000000000000
3.399496497579142 -4.632820994675342 -2.817870329564957 15.000000000000000
3.431295963485885 -4.633271443822547 -2.949165939519850 10.000000000000000
3.407352699755805 -4.557129853432720 -3.033021443778317 23.000000000000000
2.887673839623248 -4.577728282212195 -0.907682527203281 17.000000000000000
2.901868501285591 -4.563085489354254 -1.003698170811907 11.000000000000000
2.910821567875137 -4.540555300305057 -1.097493218596171 26.000000000000000
3.167279163458620 -4.899930710663666 -1.292902831389860 4.000000000000000
3.266288889101850 -5.012054483283206 -1.434493203026949 0.000000000000000
3.275673938419735 -4.984760759675646 -1.538739879887313 27.000000000000000
3.324448525140975 -5.016890032839205 -1.663247546845220 27.000000000000000
3.374144269574205 -5.049953181616716 -1.790906840563953 11.000000000000000
3.218580907491495 -4.776267970104061 -1.805906204565800 6.000000000000000
3.221719901546256 -4.740429221257461 -1.905374418383210 5.000000000000000
4.363222994350501 -6.365470243742116 -2.712097652667526 16.000000000000000
3.237764527033116 -4.683186814387928 -2.110408995675738 21.000000000000000
3.193026387744529 -4.579008758601129 -2.177458444108927 34.000000000000000
3.187672265962061 -4.532140898589562 -2.270371863846998 26.000000000000000
3.232501712646100 -4.555986006525571 -2.400067537817051 7.000000000000000
3.343694140676595 -4.672200955360237 -2.584617520318218 19.000000000000000
3.358742506708082 -4.651015943087638 -2.698610655647998 18.000000000000000
3.371946419912213 -4.628268535568688 -2.813095750931003 17.000000000000000
3.403583604715196 -4.628998542601962 -2.944134361455473 13.000000000000000
3.383968056445640 -4.558645009151284 -3.031437262008831 23.000000000000000
2.907086511699311 -4.639412285804402 -0.921632060978297 18.000000000000000
2.929676494385623 -4.637837464148359 -1.021694325317651 16.000000000000000
2.898661189773691 -4.552161781453608 -1.101658033317453 26.000000000000000
2.982962364799679 -4.646115800092504 -1.227142820669007 6.000000000000000
3.298829115992689 -5.096495890564086 -1.459791800546323 14.000000000000000
3.255303076669231 -4.987667680891990 -1.540544379111925 37.000000000000000
3.288970576024175 -4.997459934718375 -1.657507390913184 26.000000000000000
3.334133784365232 -5.024504735863157 -1.782371472853812 8.000000000000000
3.223868498540610 -4.817260590125196 -1.821660866062659 2.000000000000000
3.220603146185956 -4.771752819115100 -1.917997499488517 5.000000000000000
4.333056665736073 -6.365619045487422 -2.711901565184104 14.000000000000000
3.215287177361333 -4.683297603398940 -2.110036000899872 24.000000000000000
3.170748867388932 -4.579091322809330 -2.176849622120027 32.000000000000000
3.163280914000064 -4.529278486458973 -2.268055169351670 27.000000000000000
3.207869441502272 -4.553391142487468 -2.397561000223470 7.000000000000000
3.329049755445498 -4.684934384067533 -2.590218821402940 16.000000000000000
3.346099169727716 -4.666719263315439 -2.706003633358257 17.000000000000000
3.359193251906623 -4.643962847988149 -2.820633574722318 18.000000000000000
3.380139949052003 -4.630364868689223 -2.942704726545184 16.000000000000000
3.360613395291281 -4.560076002520740 -3.029811951033147 24.000000000000000
2.886543330514258 -4.637626985883775 -0.922975373921877 37.000000000000000
2.911067738460718 -4.639516403251641 -1.023599612178584 29.000000000000000
2.930440138359250 -4.633289974876240 -1.122657830420452 15.000000000000000
2.936729266839831 -4.605262113249371 -1.217537712580735 16.000000000000000
2.992303501278327 -4.654549726997405 -1.334222843135978 2.000000000000000
3.213881794338752 -4.958015564663258 -1.532273302180392 30.000000000000000
3.276845216830596 -5.013362134287481 -1.663472733598877 42.000000000000000
3.285881333469648 -4.986066580556073 -1.769211100071890 25.000000000000000
3.250031060450273 -4.890106255515999 -1.849458005976823 0.000000000000000
3.223531474225293 -4.809421542099465 -1.933164572680897 5.000000000000000
4.305045214569399 -6.368783967058103 -2.712983686175928 14.000000000000000
3.194953730070622 -4.686424505129452 -2.111018716267096 24.000000000000000
3.148504029031789 -4.579093059133245 -2.176201538223957 33.000000000000000
3.143159772740340 -4.532402566057712 -2.268737451143336 26.000000000000000
3.189606801160042 -4.559731541706520 -2.399761805171561 7.000000000000000
3.318554579325832 -4.703591643524948 -2.599091601886671 13.000000000000000
3.335477944960711 -4.685347538882143 -2.715088455017947 16.000000000000000
3.344271452925008 -4.656720973621280 -2.826386778731200 18.000000000000000
3.362989118610761 -4.640288098004345 -2.946721323034270 17.000000000000000
3.335207170247517 -4.558577444503071 -3.026256567774352 23.000000000000000
2.872255762439030 -4.645829922042093 -0.926288923929324 75.000000000000000
2.892472392766140 -4.641131763154225 -1.025473263486996 53.000000000000000
2.911711106399304 -4.635013636682556 -1.124424750989446 25.000000000000000
2.901224538044738 -4.580676913540159 -1.212200970799519 54.000000000000000
2.960642876340474 -4.636901856108747 -1.330163499570511 4.000000000000000
2.992463223475946 -4.648238032597509 -1.437355574817166 6.000000000000000
3.241566762530799 -4.993689741564990 -1.657621093327477 40.000000000000000
3.284109873885072 -5.017985871699365 -1.781004246956233 28.000000000000000
3.086632161404383 -4.676631934991641 -1.768952131856725 28.000000000000000
3.274578322981137 -4.919784188609065 -1.977545029619880 0.000000000000000
4.281258929936712 -6.378114711451170 -2.716685241688354 14.000000000000000
3.170429526602696 -4.683275375621143 -2.109171489695997 23.000000000000000
3.126292216480963 -4.579014140611123 -2.175514301781058 34.000000000000000
3.120952961941637 -4.532412282178602 -2.267861440587645 28.000000000000000
3.167144730938226 -4.559983398267659 -2.398760025682761 7.000000000000000
3.316326631922331 -4.734179342574071 -2.614547689897359 9.000000000000000
3.320585520082908 -4.698060218636490 -2.720742175561838 11.000000000000000
3.329295201595662 -4.669444463017966 -2.832118971269206 17.000000000000000
3.347881768818222 -4.653050553886422 -2.952543345150390 16.000000000000000
3.316066689907428 -4.565537841947978 -3.028329889861306 24.000000000000000
2.860004115323536 -4.657353749241889 -0.930251855550398 131.000000000000000
2.878028791586542 -4.649368563017229 -1.028794556763411 86.000000000000000
2.892995686245533 -4.636673366779200 -1.126159868386892 43.000000000000000
2.909544133272176 -4.625311676022560 -1.225171349726573 21.000000000000000
2.935367017049307 -4.628965833658657 -1.328870116316817 7.000000000000000
2.964901597443744 -4.637257264311177 -1.434763946462538 10.000000000000000
3.003956465085357 -4.659758922968542 -1.547394046675556 6.000000000000000
3.250819994118465 -5.001727242632550 -1.775688586477654 22.000000000000000
3.025035610139510 -4.615365247752431 -1.745997476294575 13.000000000000000
3.195262011421482 -4.834333405195058 -1.943210026163382 8.000000000000000
2.990253667071701 -4.486220089707589 -1.910657560440454 3.000000000000000
3.150140254219496 -4.686252359806284 -2.110080377368584 23.000000000000000
3.106202678221694 -4.581936070338483 -2.176251540870108 35.000000000000000
3.098779566015015 -4.532341485360296 -2.266946373721668 28.000000000000000
3.142631621046573 -4.557132026669804 -2.396129834941868 7.000000000000000
3.301434486832302 -4.746859532285073 -2.620106660025253 0.000000000000000
3.322250137515670 -4.734410353449059 -2.740075296215684 5.000000000000000
3.320478850437345 -4.690912130810553 -2.843150995781383 15.000000000000000
3.334786007079955 -4.668670441600144 -2.960178135638606 16.000000000000000
3.288672289091564 -4.561007889359421 -3.022796322639416 22.000000000000000
2.843598045354348 -4.662117534641200 -0.932850604141941 110.000000000000000
2.861498879159329 -4.654217177356593 -1.031351846155679 137.000000000000000
2.876357525942602 -4.641598953545046 -1.128672909838312 79.000000000000000
2.896927536505752 -4.636939700918520 -1.229397030369108 32.000000000000000
2.918453108027300 -4.634084856079473 -1.331309506801735 10.000000000000000
2.941586768675824 -4.632697320806969 -1.434143234178253 16.000000000000000
2.970023305289571 -4.639197546822390 -1.541170882022474 10.000000000000000
3.007729933613767 -4.660056605673437 -1.654804241704467 6.000000000000000
3.001315867840622 -4.611311663090113 -1.744675272736213 12.000000000000000
2.962598455454457 -4.513903365006466 -1.814415278573835 5.000000000000000
2.968738459694711 -4.485450387662191 -1.910128471530273 5.000000000000000
3.125703572747090 -4.682929223595759 -2.108149677349520 23.000000000000000
3.084047238188012 -4.581702437542359 -2.175488774147849 36.000000000000000
3.080791937704229 -4.538306667415555 -2.269050380460545 28.000000000000000
3.120246482421313 -4.557215463469315 -2.395046786276538 7.000000000000000
3.331951875952170 -4.782683318694242 -2.766286494458348 0.000000000000000
3.319786762363613 -4.724110883272708 -2.861280869642067 9.000000000000000
3.327780726980037 -4.692963150344132 -2.973305955103225 19.000000000000000
3.267501679446740 -4.564961668849052 -3.022901542682399 20.000000000000000
2.831270943213283 -4.673574037369780 -0.936774553101923 63.000000000000000
2.847010486188818 -4.662368376462600 -1.034626702580401 105.000000000000000
2.859712569160757 -4.646472568214699 -1.131159005008701 118.000000000000000
2.878090233789060 -4.638592109733382 -1.230965412059672 62.000000000000000
2.897410553094610 -4.632561374415118 -1.331827015453992 13.000000000000000
2.922455764418537 -4.634594367297353 -1.435508047916316 23.000000000000000
2.946583776994598 -4.634737469045784 -1.540281999562197 16.000000000000000
2.973723536839812 -4.639683307640054 -1.647971823561062 11.000000000000000
2.979721356471265 -4.610369229058699 -1.744521771012831 12.000000000000000
2.943244961404323 -4.516118064212699 -1.815304582503943 5.000000000000000
2.945188663798296 -4.481453105002151 -1.908220585336137 22.000000000000000
3.105459767844344 -4.685756868392176 -2.108985111520632 23.000000000000000
3.063993301089577 -4.584482089139727 -2.176155560899825 36.000000000000000
3.056599656032953 -4.535023261163484 -2.266530953559945 27.000000000000000
3.097894986295303 -4.557218022029740 -2.393924508745788 8.000000000000000
3.310411612736278 -4.702745007119812 -2.977237033269347 17.000000000000000
3.244302251308162 -4.565974348143977 -3.021072186202766 23.000000000000000
2.818895901749937 -4.685002523664668 -0.940681268205708 37.000000000000000
2.832494719874068 -4.670479615067358 -1.037879485839169 57.000000000000000
2.847145877135992 -4.657977110310982 -1.135246930903784 88.000000000000000
2.863360666325570 -4.646823440909425 -1.234266423246732 99.000000000000000
2.882553861405079 -4.640863746482729 -1.335156516173643 13.000000000000000
2.903338808490080 -4.636426333312256 -1.436840498762498 34.000000000000000
2.925256314941981 -4.633444103808754 -1.540433454834046 23.000000000000000
2.950166399931379 -4.635322500865058 -1.646814964010838 16.000000000000000
2.958161852906187 -4.609348514961696 -1.744330450239014 12.000000000000000
2.923905514752546 -4.518266857167755 -1.816161101945271 6.000000000000000
2.927872706514659 -4.486831617128445 -1.910300357007522 6.000000000000000
3.083170252028021 -4.685388306304120 -2.108378907160212 23.000000000000000
3.043952240369058 -4.587193785132913 -2.176788445391552 35.000000000000000
3.036572311926950 -4.537788222673044 -2.267035650493491 29.000000000000000
3.075577475375073 -4.557139878907874 -2.392763113438734 8.000000000000000
3.288941692352257 -4.706657490126476 -2.977458952688252 12.000000000000000
3.241419152639439 -4.595662712977790 -3.038214953792416 15.000000000000000
2.812538868400145 -4.706553554678922 -0.946612249380721 21.000000000000000
2.824033633674394 -4.688648404799198 -1.043357164181912 36.000000000000000
2.834530766602836 -4.669453016622153 -1.139317277469368 55.000000000000000
2.850639636688486 -4.658341528633998 -1.238429596038625 80.000000000000000
