# This PCD file was generated using the MATLAB® pcwrite function
# from Computer Vision Toolbox®.
# .PCD v.7 - Point Cloud Data file format
VERSION .7
FIELDS x y z intensity
SIZE 8 8 8 8
TYPE F F F F
COUNT 1 1 1 1
WIDTH 630
HEIGHT 1
VIEWPOINT 0 0 0 1 0 0 0
POINTS 630
DATA ascii
-6.781435344978213 -9.220927363053249 -0.932142278397504 27.000000000000000
-6.864655585101243 -9.222082517357721 -1.130664291902498 28.000000000000000
-6.938876599748582 -9.210521165912040 -1.328139821610623 0.000000000000000
-6.967134656169040 -8.922843334915344 -1.881615663031415 9.000000000000000
-4.507733664085776 -5.704843516062242 -1.332952238795685 1.000000000000000
-4.509454074916236 -5.638974782308642 -1.447509361181668 1.000000000000000
-4.516536118420890 -5.581178695509666 -1.563473651773057 5.000000000000000
-4.571702827307009 -5.581986994749795 -1.696672758441426 11.000000000000000
-4.628132220155956 -5.583485886209390 -1.831796252658809 26.000000000000000
-4.688485997483654 -5.588164967326902 -1.970697173423664 8.000000000000000
-4.737759596438589 -5.578567250024003 -2.106342195208009 4.000000000000000
-4.761074139311432 -5.537162493513941 -2.231703510863928 33.000000000000000
-4.782872906278694 -5.494035353590973 -2.356700722594558 64.000000000000000
-4.578512679315902 -5.192997906998729 -2.365132212636393 29.000000000000000
-4.594522140980634 -5.145977883630619 -2.483445573638221 32.000000000000000
-4.557260509719354 -5.038389878148762 -2.571322632872155 61.000000000000000
-4.593289350476039 -5.013112070872737 -2.700788090108788 68.000000000000000
-4.622453922779476 -4.980245970193662 -2.828368753919904 70.000000000000000
-4.652043723609896 -4.948268876204840 -2.958308354854893 60.000000000000000
-6.822722219026247 -9.221331967050396 -0.922801319602449 26.000000000000000
-6.908704625543947 -9.225363560022785 -1.121992683751263 29.000000000000000
-4.515755736757663 -5.680130019906150 -1.322667412050826 1.000000000000000
-4.512496336662037 -5.608259774269806 -1.435409041325457 1.000000000000000
-4.539273727187677 -5.574864275993214 -1.557760679282396 4.000000000000000
-4.611987854138741 -5.596528889876993 -1.697391062203679 4.000000000000000
-4.651291137129973 -5.576800157196643 -1.826180375633158 9.000000000000000
-4.711869971686503 -5.581278918517472 -1.965121625658691 23.000000000000000
-4.773813035609614 -5.586125480268572 -2.106335020773742 14.000000000000000
-4.789719212871775 -5.535790014672419 -2.228614541660381 36.000000000000000
-4.801560594759963 -5.481048150730628 -2.348928058545150 64.000000000000000
-4.603911509055083 -5.189081710041566 -2.361570202916325 47.000000000000000
-4.544478434782029 -5.057922929022273 -2.439530159656125 52.000000000000000
-4.582540257663553 -5.034374067533722 -2.568185845112616 67.000000000000000
-4.616167426313627 -5.006182826876612 -2.696313742153667 67.000000000000000
-4.647945625455502 -4.975888319909155 -2.825512500521052 43.000000000000000
-4.685195264660437 -4.951741519405536 -2.960375864142722 60.000000000000000
-6.861672227712464 -9.218381520796127 -0.913060992751279 27.000000000000000
-6.943232872371520 -9.215753587931411 -1.111695590775121 0.000000000000000
-4.510963833930451 -5.707195217896889 -1.193948086721676 1.000000000000000
-4.513821551231347 -5.643125012497585 -1.309538505338264 1.000000000000000
-4.515377655074015 -5.577574847652844 -1.423333921077072 5.000000000000000
-4.571916779045232 -5.580570652822717 -1.555380388952655 13.000000000000000
-4.632508820282281 -5.586906274566577 -1.690752586635753 30.000000000000000
-4.691903219928407 -5.590841114251902 -1.827324768621055 11.000000000000000
-4.740248972457140 -5.580202417819680 -1.961576064107234 5.000000000000000
-4.794908706386952 -5.576037283044155 -2.099657761521186 11.000000000000000
-4.830962381600219 -5.548744561102372 -2.231273238131180 43.000000000000000
-4.601100782351206 -5.219461677038413 -2.234715953443405 39.000000000000000
-4.548594065617865 -5.094652614909778 -2.316840684988697 37.000000000000000
-4.569645211098565 -5.053998940705153 -2.436212911884991 70.000000000000000
-4.612891384058069 -5.035788372911318 -2.567817077233896 66.000000000000000
-4.644100791902253 -5.004629956424961 -2.694736876562674 55.000000000000000
-4.678513432700929 -4.976824758066254 -2.825666538630442 13.000000000000000
-4.710823511777536 -4.947106232398875 -2.957603382173505 65.000000000000000
-6.905427286725049 -9.221671543562062 -0.903871633812458 27.000000000000000
-4.513846635797626 -5.676230857418922 -1.182664703871603 1.000000000000000
-4.511688521424541 -5.606177423633575 -1.296451071343323 1.000000000000000
-4.547838935012848 -5.583433538740285 -1.420574158448385 4.000000000000000
-4.612092996399380 -5.595198357953529 -1.555445122052826 5.000000000000000
-4.648010500012410 -5.571234292499106 -1.682275497609226 10.000000000000000
-4.712610709692771 -5.580983754030435 -1.820633031705547 26.000000000000000
-4.783725385092602 -5.596645956990673 -1.964160246039155 17.000000000000000
-4.843668758415420 -5.597886771915761 -2.104982814077340 6.000000000000000
-4.867286282309263 -5.555762474329393 -2.231520462571971 49.000000000000000
-4.548061296198986 -5.127162635911528 -2.193115991216502 20.000000000000000
-4.571175252700113 -5.087952457913237 -2.312033000438514 66.000000000000000
-4.597361086407587 -5.052770531764574 -2.434190829519495 68.000000000000000
-4.640755625374293 -5.034329601189820 -2.565980649214019 65.000000000000000
-4.677147334741751 -5.008412411141198 -2.696032998508168 8.000000000000000
-4.706591033364949 -4.974955418950585 -2.824231474950819 10.000000000000000
-4.741545814721063 -4.947681424929870 -2.957953313408632 62.000000000000000
-6.949243680755664 -9.224791279074813 -0.894591595636085 0.000000000000000
-4.517370152083452 -5.713706506737539 -1.056657401398692 1.000000000000000
-4.514102861288822 -5.642214094273789 -1.170767044327045 1.000000000000000
-4.516790071613165 -5.578468180453513 -1.285520987243848 4.000000000000000
-4.570418127385331 -5.577016457261750 -1.414662354167649 13.000000000000000
-4.634915696042024 -5.588574775331020 -1.549569124342990 34.000000000000000
-4.696023057560453 -5.594332530923701 -1.685475296855283 11.000000000000000
-4.743345451034483 -5.582895034908988 -1.817762625135372 5.000000000000000
-4.797098174687984 -5.577727636463300 -1.954315101471289 11.000000000000000
-4.859760041904266 -5.581784136704328 -2.096015788668246 19.000000000000000
-4.903697754458939 -5.562630848339002 -2.231685994494222 55.000000000000000
-4.568029601545605 -5.117648461483982 -2.186956740329756 63.000000000000000
-4.596292328575815 -5.083986619687304 -2.308462882767574 71.000000000000000
-4.627654729909418 -5.054216965980205 -2.433451573700380 66.000000000000000
-4.668651770889099 -5.032765202016880 -2.564088349402586 65.000000000000000
-4.702613521187311 -5.003920695755109 -2.692875738117152 47.000000000000000
-4.737250921018476 -4.975659386321956 -2.824261210054019 63.000000000000000
-4.769767677594554 -4.945491973415126 -2.956657816295422 63.000000000000000
-4.515101771306366 -5.676452706657897 -1.044664857177817 1.000000000000000
-4.516656713234756 -5.611318693578732 -1.159538983340054 1.000000000000000
-4.544135780474458 -5.578256118297816 -1.280918688787384 3.000000000000000
-4.612970364234833 -5.594754476972668 -1.414839482445073 5.000000000000000
-4.652716874941233 -5.575864286795769 -1.541991938005061 9.000000000000000
-4.714033890742732 -5.581474234846748 -1.677809835073945 28.000000000000000
-4.779176072976858 -5.590589059679338 -1.816746000210042 17.000000000000000
-4.848341461447640 -5.602646177958893 -1.959805316303217 6.000000000000000
-4.898615268763082 -5.591703777314737 -2.096805502521705 4.000000000000000
-4.937653526741351 -5.566482865122720 -2.230621026116680 63.000000000000000
-4.593067021720495 -5.113743077004381 -2.183188282391916 70.000000000000000
-4.626525827053760 -5.085539401699982 -2.307390683296068 69.000000000000000
-4.650334144976696 -5.047224540827419 -2.428645049103165 14.000000000000000
-4.696579345325702 -5.031094966333741 -2.562140100148957 65.000000000000000
-4.728091485513935 -4.999336641745363 -2.689670620561714 61.000000000000000
-4.762839548015741 -4.970898231118576 -2.821193048289931 62.000000000000000
-4.795459653463981 -4.940558199205678 -2.953729065479882 62.000000000000000
-4.511426153307446 -5.706542621422073 -0.916858425901661 1.000000000000000
-4.517584616034635 -5.645441178112690 -1.033846768838017 1.000000000000000
-4.516565555296225 -5.577385765417993 -1.147705366557306 4.000000000000000
-4.569015539792039 -5.574893111983446 -1.275564105444491 15.000000000000000
-4.635610907345085 -5.588127011921598 -1.408816529692730 36.000000000000000
-4.698152243550194 -5.596073806306226 -1.543485487718507 13.000000000000000
-4.744623170968338 -5.583421799819402 -1.674576952788918 4.000000000000000
-4.797363294692591 -5.577520613157200 -1.808962472950385 12.000000000000000
-4.866766101045678 -5.589408592594650 -1.951920926354789 21.000000000000000
-4.927390338936809 -5.589904262025411 -2.093178155136911 19.000000000000000
-4.971676179460272 -5.570198283886342 -2.229482236927884 66.000000000000000
-4.623231141992617 -5.115404975543428 -2.181785906979686 64.000000000000000
-4.654248682455602 -5.084174776273360 -2.304985910188178 68.000000000000000
-4.683265403867706 -5.051219216184628 -2.429120331927384 29.000000000000000
-4.724537872333495 -5.029318686669498 -2.560135824678736 64.000000000000000
-4.758719832251800 -5.000059758145289 -2.689321842604463 56.000000000000000
-4.796150075695502 -4.974041203640891 -2.822614843702327 11.000000000000000
-4.828872108341097 -4.943424112234642 -2.955470894436714 62.000000000000000
-4.518772468356908 -5.681644165053932 -0.907453007559196 1.000000000000000
-4.514941843943756 -5.608292243010408 -1.021930654592100 1.000000000000000
-4.541248376063461 -5.574126248154498 -1.142182015501930 3.000000000000000
-4.613956405533147 -5.595755243088545 -1.275705901564578 4.000000000000000
-4.653210049736005 -5.575390810525744 -1.401238574597822 11.000000000000000
-4.718491343065002 -5.586176031462694 -1.536639447278490 31.000000000000000
-4.780330212833640 -5.591177899272719 -1.673053721478839 18.000000000000000
-4.838385349883148 -5.590841269868002 -1.809714093766438 8.000000000000000
-4.900440360170822 -5.593579995798793 -1.950100281269769 4.000000000000000
-4.953637415165932 -5.585114071194471 -2.088415947749324 8.000000000000000
-5.005765073759543 -5.573776740302423 -2.228269480020951 69.000000000000000
-4.643178982417424 -5.105658130240327 -2.175509134512640 64.000000000000000
-4.676860383949243 -5.077122153001125 -2.299996433160575 35.000000000000000
-4.713691639414110 -5.052320906575376 -2.428196982433449 26.000000000000000
-4.755104166726011 -5.030162532501720 -2.559462689745799 63.000000000000000
-4.786818454366679 -4.997969639756255 -2.687460616457352 11.000000000000000
-4.824369050160840 -4.971732351831451 -2.820946771848542 62.000000000000000
-4.857193383712275 -4.940907489874239 -2.954002303608843 62.000000000000000
-4.905824050939577 -4.922025497223703 -3.096485004953609 24.000000000000000
-4.513605786223659 -5.709905709092032 -0.778934913742168 1.000000000000000
-4.511118276463175 -5.638153479914197 -0.895105151751088 1.000000000000000
-4.517088782020905 -5.577359700289394 -1.011173431676633 4.000000000000000
-4.573456301908596 -5.579943698762388 -1.138482223477584 15.000000000000000
-4.636418467489680 -5.589122278587195 -1.269535328110619 37.000000000000000
-4.701075937599224 -5.598705477036026 -1.402682433886007 14.000000000000000
-4.746408864300907 -5.585163962932229 -1.532217478052298 4.000000000000000
-4.800858273474696 -5.581039582695377 -1.666151558051354 12.000000000000000
-4.861667066374729 -5.583468108285641 -1.803739787076980 23.000000000000000
-4.931621682214794 -5.594711875505376 -1.947195576614749 21.000000000000000
-4.995286710228741 -5.597478393400859 -2.090045530131500 10.000000000000000
-5.037348181454517 -5.574372352894073 -2.225846394090813 64.000000000000000
-4.673405321634201 -5.107109089253950 -2.173995273725502 59.000000000000000
-4.712367857511262 -5.083912472745373 -2.301269029244242 17.000000000000000
-4.741583457716399 -5.050550180838106 -2.425887298360411 20.000000000000000
-4.780545873331198 -5.025447173478792 -2.555958892382676 62.000000000000000
-4.822712792023108 -5.003830514781923 -2.689874626259361 48.000000000000000
-4.855206767809763 -4.971968241758200 -2.820726687355962 68.000000000000000
-4.885543617942383 -4.938283687006336 -2.952477228333786 61.000000000000000
-4.515792657449739 -5.678723527895906 -0.768980993682216 1.000000000000000
-4.515678250299660 -5.610214505768492 -0.885256538544276 1.000000000000000
-4.546602480921714 -5.580243191651696 -1.006536538085627 3.000000000000000
-4.620815805386014 -5.603922626559473 -1.138427199354258 3.000000000000000
-4.653821703330126 -5.576360293274330 -1.261956193061746 13.000000000000000
-4.716159992232098 -5.582783787274929 -1.394259700417942 34.000000000000000
-4.779445005802616 -5.589998456814546 -1.529368068621616 23.000000000000000
-4.844340739019694 -5.597391703126815 -1.667127147532908 8.000000000000000
-4.897746514584322 -5.590634812189340 -1.802438757798383 4.000000000000000
-4.952574520004539 -5.584135836293906 -1.940200140609196 9.000000000000000
-5.008731608522509 -5.578116396458765 -2.079813727559607 19.000000000000000
-5.063815240372035 -5.569167257966625 -2.221093258773347 62.000000000000000
-4.706267080493751 -5.111248675651988 -2.173611543654161 50.000000000000000
-4.740192081292869 -5.082223195622970 -2.298692328764386 21.000000000000000
-4.772098679643296 -5.051418446965433 -2.424839348370123 62.000000000000000
-4.808594389311009 -5.023351532987814 -2.553786086404979 59.000000000000000
-4.850898931142183 -5.001505786409376 -2.687888284203263 64.000000000000000
-4.883493402021789 -4.969438248635796 -2.818941589569611 69.000000000000000
-4.921718081374545 -4.943382571544117 -2.955577080508092 26.000000000000000
-4.516157039428065 -5.714606955776162 -0.642601693289887 1.000000000000000
-4.515337426013559 -5.644468351412403 -0.758636249559030 1.000000000000000
-4.517600800595722 -5.579209816280453 -0.874942759485860 5.000000000000000
-4.573652650771741 -5.579944655194431 -1.001286709716908 13.000000000000000
-4.638073443299585 -5.591182035025615 -1.130867890500897 45.000000000000000
-4.701593004964114 -5.599773401161516 -1.262521711225794 12.000000000000000
-4.743903094627106 -5.581798195732901 -1.389549686373357 4.000000000000000
-4.802329495685891 -5.582819895139613 -1.523204987287857 14.000000000000000
-4.864896385674448 -5.587059541586068 -1.660124343362192 24.000000000000000
-4.928768292291813 -5.591817467720395 -1.799178848418331 24.000000000000000
-4.996701740107024 -5.599496950322261 -1.942191963669688 10.000000000000000
-5.050520494523536 -5.590199136030202 -2.081291030568502 4.000000000000000
-5.100651356468530 -5.575192272407692 -2.220802302196507 52.000000000000000
-4.734006121762055 -5.109651468446366 -2.170774956121268 44.000000000000000
-4.762846311270209 -5.074887332374760 -2.293555662922081 53.000000000000000
-4.797456229976227 -5.046689494517909 -2.421099516208464 14.000000000000000
-4.841883872827094 -5.026559755537532 -2.554306478492227 63.000000000000000
-4.879113704403100 -4.999073869458656 -2.685845473440629 65.000000000000000
-4.911808347056952 -4.966800853959500 -2.817099934132412 60.000000000000000
-4.513178986393838 -5.677120238955419 -0.632393255194781 1.000000000000000
-4.514706900575570 -5.610261029445219 -0.748326655534601 1.000000000000000
-4.544445934573871 -5.579028948599477 -0.869454506241719 3.000000000000000
-4.613336440702844 -5.594828322070069 -0.998710634491211 3.000000000000000
-4.655284617953675 -5.578391997542306 -1.123286182412960 15.000000000000000
-4.721559616488045 -5.589839854135179 -1.255524270203996 41.000000000000000
-4.779337544912485 -5.589668899524910 -1.387007651555639 22.000000000000000
-4.845714867543077 -5.599262939424233 -1.523450674509111 8.000000000000000
-4.895713050751977 -5.588408301232734 -1.656571876922288 4.000000000000000
-4.946933150590827 -5.578328077417600 -1.791181806595853 11.000000000000000
-5.015091726065814 -5.585841872660176 -1.934096572765292 22.000000000000000
-5.079459494995516 -5.587832602348311 -2.077364206592862 15.000000000000000
-5.134970272223542 -5.578240455503936 -2.219304783926651 46.000000000000000
-4.766984382476946 -5.113536601181665 -2.170254207597891 37.000000000000000
-4.788100951295562 -5.070236277292240 -2.289627343615603 41.000000000000000
-4.830661384842789 -5.050061610093093 -2.421240244018076 48.000000000000000
-4.867393521414405 -5.021537779627137 -2.550642004568739 65.000000000000000
-4.907356629137330 -4.996534565642041 -2.683746122271293 65.000000000000000
-4.514210133798942 -5.714608254530638 -0.505133017290714 1.000000000000000
-4.522452902805903 -5.655257396531418 -0.623945126496825 1.000000000000000
-4.518908542436606 -5.582287603547623 -0.738871231252110 6.000000000000000
-4.573836945389338 -5.581816389223603 -0.864387293975491 17.000000000000000
-4.635429916239707 -5.588185706330637 -0.992246946678039 48.000000000000000
-4.695328399108435 -5.592805074380714 -1.121145228998968 9.000000000000000
-4.744051072750747 -5.582847132102836 -1.249168250758731 4.000000000000000
-4.804600640916398 -5.585468944723647 -1.381435973483190 18.000000000000000
-4.866080896958378 -5.588914542796875 -1.516372954642211 30.000000000000000
-4.929157495263879 -5.592564666634505 -1.653820678427746 24.000000000000000
-4.993538932745903 -5.596718118366805 -1.793393216976024 11.000000000000000
-5.056806994410065 -5.598010881962387 -1.934921493682920 4.000000000000000
-5.108424035239389 -5.585356235342348 -2.073379753086939 5.000000000000000
-5.169352285775731 -5.581149969074622 -2.217732618744551 33.000000000000000
-4.797415111286676 -5.114499759859441 -2.168478834666356 28.000000000000000
-4.821221746807899 -5.073760683865988 -2.289381879670218 19.000000000000000
-4.858688780114611 -5.047850122610231 -2.418697268707326 63.000000000000000
-4.900787087865104 -5.024496309475991 -2.551028568142039 65.000000000000000
-4.938253952473219 -4.996545415210554 -2.683017296742798 10.000000000000000
-4.516637281283032 -5.614754990108992 -0.613463992725229 1.000000000000000
-4.545587324617690 -5.582107319234854 -0.733082362916780 3.000000000000000
-4.613380596842057 -5.596746140045264 -0.861143491277543 3.000000000000000
-4.654974530077826 -5.578422984186181 -0.985207152750145 18.000000000000000
-4.717632859237748 -5.585895485678150 -1.114687323208049 55.000000000000000
-4.784471060812299 -5.596760561358193 -1.247450154144509 21.000000000000000
-4.847884337730389 -5.601990516111627 -1.380947394140619 7.000000000000000
-4.899330571395071 -5.593243359857161 -1.513252348290737 4.000000000000000
-4.949708557728036 -5.581972134449897 -1.646685241258543 12.000000000000000
-5.014308344894784 -5.585942528773370 -1.786228957205510 24.000000000000000
-5.083002164894544 -5.592790937304239 -1.929709440119144 19.000000000000000
-5.150479272932457 -5.596968141384592 -2.074600415361730 12.000000000000000
-5.214272433381525 -5.595161368541007 -2.220546835908633 24.000000000000000
-4.848883987574927 -5.137582625825249 -2.176059015251657 29.000000000000000
-4.849152107029678 -5.071652059881413 -2.286584620430709 62.000000000000000
-4.884112544859853 -5.042814404130063 -2.414796789512727 62.000000000000000
-4.926342813366351 -5.019266604967442 -2.547255235238962 38.000000000000000
-5.549156728165250 -5.579572485917327 -2.995268014828169 5.000000000000000
-4.518133112572518 -5.583625348811820 -0.604040678416481 7.000000000000000
-4.569772011874898 -5.578744879880657 -0.726837894368620 26.000000000000000
-4.637829835762356 -5.593153637360935 -0.854998715430998 67.000000000000000
-4.699978942142430 -5.598960612339944 -0.983470388412199 7.000000000000000
-4.742488007296422 -5.581922432063032 -1.108789187844634 4.000000000000000
-4.799291436469507 -5.580590475784572 -1.238994612342199 22.000000000000000
-4.865481412964694 -5.588656445446690 -1.373064366612952 34.000000000000000
-4.932643901145494 -5.597436172752980 -1.510058421534958 26.000000000000000
-4.993636801251485 -5.597552437859068 -1.647239570495084 9.000000000000000
-5.050699723354141 -5.592432541154645 -1.784563413595889 4.000000000000000
-5.106587343737766 -5.584614588952400 -1.923462917146384 7.000000000000000
-5.171672868651442 -5.585738294912962 -2.067334380403277 8.000000000000000
-5.238303007754485 -5.586551584266184 -2.214363790185191 21.000000000000000
-4.924250153440975 -5.185386416413897 -2.194066575746227 48.000000000000000
-4.879747889336397 -5.072178069934751 -2.284966118652522 63.000000000000000
-4.914826773677632 -5.043105360008253 -2.413441963793109 59.000000000000000
-5.491249455472457 -5.560043009598092 -2.820454777016081 5.000000000000000
-5.600737746796689 -5.596273652657012 -3.003411709403772 7.000000000000000
-4.544637894885370 -5.583447926417121 -0.597956233649450 2.000000000000000
-4.611683536806177 -5.596795359577327 -0.723326108587662 3.000000000000000
-4.654652995432635 -5.580317680411822 -0.847417298497749 28.000000000000000
-4.719559309970921 -5.589001950656507 -0.976328384932319 80.000000000000000
-4.782771309729022 -5.595899342344419 -1.106410931427486 19.000000000000000
-4.842439043363358 -5.597204129268735 -1.237782713810139 5.000000000000000
-4.893397270505604 -5.587109023458612 -1.368056984557166 5.000000000000000
-4.953013383388229 -5.586821356162342 -1.502844489062474 15.000000000000000
-5.014210831786696 -5.586764374456815 -1.640002914233116 29.000000000000000
-5.076699466328268 -5.587244519121908 -1.779145078998475 20.000000000000000
-5.153788613013290 -5.602041356759223 -1.926006118768534 14.000000000000000
-5.219153500118476 -5.602694515511491 -2.070476975978852 7.000000000000000
-5.288696937087712 -5.605818506466972 -2.219207872235375 8.000000000000000
-4.997339467895594 -5.230058971867286 -2.210696133213127 67.000000000000000
-4.907742615562145 -5.069847911457164 -2.282051834224780 60.000000000000000
-4.956188243439902 -5.054085292524710 -2.417192576414534 6.000000000000000
-5.542618494010578 -5.577192099773275 -2.827904615095510 9.000000000000000
-5.625939569227929 -5.586382757450570 -2.997283378436953 7.000000000000000
-4.571169761147212 -5.583167471786651 -0.591817536709406 18.000000000000000
-4.635949909455065 -5.593204513296294 -0.716960047328659 78.000000000000000
-4.699524378708056 -5.600917232442484 -0.844864941429983 6.000000000000000
-4.736543543911951 -5.575958143371486 -0.968631013335431 5.000000000000000
-4.799960064207818 -5.582700858963966 -1.098622092137727 25.000000000000000
-4.864999593331895 -5.589814056010818 -1.231219629515541 43.000000000000000
-4.931743200420647 -5.597262810068896 -1.365874825935508 27.000000000000000
-4.991626914480713 -5.596631060344229 -1.501094774163841 8.000000000000000
-5.045231783525569 -5.587514877639936 -1.636132556566173 4.000000000000000
-5.102704897083619 -5.581961441694319 -1.773677872872281 8.000000000000000
-5.169527020589727 -5.585097987763858 -1.916709380805762 12.000000000000000
-5.240375640633575 -5.591257718953223 -2.063103551763756 14.000000000000000
-5.307498308050395 -5.591394333404996 -2.210694713977645 16.000000000000000
-5.070773968598255 -5.274378800881019 -2.227124519240716 75.000000000000000
-4.938420560520664 -5.070137601053697 -2.280307670865539 29.000000000000000
-5.481744445359231 -5.555470438315914 -2.655327106925097 7.000000000000000
-5.594158341970116 -5.594112509835691 -2.835227269949621 6.000000000000000
-5.672438573064206 -5.597439191259421 -3.002394233768511 8.000000000000000
-4.901974826721567 -4.580115282924261 -3.036722376726538 34.000000000000000
-4.610401144531423 -5.598171844085376 -0.587238699842818 3.000000000000000
-4.652576309789825 -5.580350495026151 -0.709381444812222 40.000000000000000
-4.718917705411275 -5.590944060387138 -0.837649212485606 115.000000000000000
-4.781820804645914 -5.596031768477350 -0.966640697698877 17.000000000000000
-4.842985223810119 -5.599380291388132 -1.096672455371702 4.000000000000000
-4.890148259793854 -5.585314922023128 -1.225268631386983 5.000000000000000
-4.951915546787969 -5.586636889437026 -1.358589225285189 22.000000000000000
-5.014619634964139 -5.588755545039462 -1.494569293951532 34.000000000000000
-5.078924521769097 -5.591036024895344 -1.633041907145984 19.000000000000000
-5.155084319694589 -5.605254583638121 -1.777252573339762 15.000000000000000
-5.219569482963032 -5.605028899759892 -1.920042042606728 7.000000000000000
-5.282769847938854 -5.602240880522464 -2.063982521803656 4.000000000000000
-5.342186038053916 -5.593605272757936 -2.208747243891076 5.000000000000000
-5.357466547166729 -5.538451712002753 -2.336195374921190 66.000000000000000
-5.043787243978303 -5.146468530705079 -2.312724778252707 5.000000000000000
-5.530386481888564 -5.570152000938397 -2.660672104447715 10.000000000000000
-5.619148186183394 -5.584249688000261 -2.828970322181001 8.000000000000000
-5.695005564272255 -5.584697046079360 -2.994740477306929 8.000000000000000
-4.938032775814857 -4.649222473804944 -2.929693959109938 9.000000000000000
-4.916406673672657 -4.564433061558347 -3.027291899639022 58.000000000000000
-4.634487381639616 -5.594578993246161 -0.580651873114984 116.000000000000000
-4.697298763066379 -5.601006017311911 -0.706011277906267 5.000000000000000
-4.738281901207595 -5.580908425364526 -0.830403379318632 7.000000000000000
-4.796224986962742 -5.579804353350088 -0.958336711584002 34.000000000000000
-4.867962411446390 -5.594968634105286 -1.090542958403329 50.000000000000000
-4.933566184839006 -5.601458207187648 -1.223800087000830 27.000000000000000
-4.993013987275346 -5.599448640390801 -1.356968034442355 7.000000000000000
-5.042857903077819 -5.586625785238704 -1.489557150656394 4.000000000000000
-5.099487586272850 -5.579985727607455 -1.625672057072461 11.000000000000000
-5.173254327916048 -5.591129093364558 -1.768930501752481 15.000000000000000
-5.240595697250134 -5.593579542266490 -1.912596309287762 19.000000000000000
-5.311979744799083 -5.599021931885532 -2.059603990360543 13.000000000000000
-5.384930366145885 -5.603998237191698 -2.210006495309978 16.000000000000000
-5.360221670729135 -5.507390867055454 -2.320657983874381 43.000000000000000
-5.040038437050558 -5.111043303875637 -2.294895400440065 7.000000000000000
-5.573822674173467 -5.579256642603846 -2.663338527643573 6.000000000000000
-5.670932997765750 -5.600782769163599 -2.836080271693958 8.000000000000000
-5.744365536796765 -5.598030162223104 -3.001069623068080 8.000000000000000
-4.905806837076538 -4.717301391215734 -2.673101356426126 2.000000000000000
-4.929043958982390 -4.676969241498909 -2.797067815497561 2.000000000000000
-4.914934437345499 -4.598252380489757 -2.898116374805463 20.000000000000000
-4.928090694725372 -4.546242710078687 -3.016206777662568 56.000000000000000
-4.648370539850251 -5.578642529536408 -0.572760728314983 83.000000000000000
-4.716498539905109 -5.591022267346681 -0.698724215342912 175.000000000000000
-4.780849794304339 -5.598014552155274 -0.827147095840840 11.000000000000000
-4.844293810942391 -5.602553317547490 -0.956680614051963 3.000000000000000
-4.887732301588063 -5.584507848171333 -1.083210525117546 6.000000000000000
-4.950937182321248 -5.587858195938498 -1.215795130271498 29.000000000000000
-5.013197880562442 -5.588635616751764 -1.349586215659406 43.000000000000000
-5.079035242276633 -5.593103906950626 -1.486805196979614 20.000000000000000
-5.151786885575526 -5.603423015868161 -1.628311515297663 13.000000000000000
-5.220582681996913 -5.608330751174777 -1.770491074775944 6.000000000000000
-5.277564963511475 -5.599012545626364 -1.910903077038367 4.000000000000000
-5.333203610517102 -5.587302223086354 -2.052086040267716 5.000000000000000
-5.395687736011515 -5.581002687727540 -2.198087089956376 10.000000000000000
-5.349411691257077 -5.462679421588684 -2.299387765122185 12.000000000000000
-5.022668396225243 -5.062155973254906 -2.271042730553483 21.000000000000000
-5.585118767783430 -5.556089617701510 -2.650596255528706 8.000000000000000
-5.690598381107495 -5.585394804799806 -2.827022274311272 9.000000000000000
-5.766950544623385 -5.585072308167972 -2.993304650115542 8.000000000000000
-4.925468182911152 -4.706600501557723 -2.666745375521723 5.000000000000000
-4.935306462316903 -4.653496272495107 -2.783154067759661 5.000000000000000
-4.918430731103395 -4.572477516376198 -2.882421292172931 60.000000000000000
-4.939689548327549 -4.528032359776116 -3.005116655799556 58.000000000000000
-4.695490203239129 -5.602406475332072 -0.568891410062250 4.000000000000000
-4.733092433871415 -5.577940118742010 -0.691031145577057 14.000000000000000
-4.800236622474927 -5.587789800472879 -0.819803338601254 50.000000000000000
-4.866494856209046 -5.595144935153125 -0.949819440273377 62.000000000000000
-4.931014848543989 -5.600724287249595 -1.081008798137738 22.000000000000000
-4.991904542823749 -5.600738162453232 -1.213515995352190 4.000000000000000
-5.038626167194638 -5.583604462519183 -1.343580125410215 6.000000000000000
-5.102052689883351 -5.584938407669620 -1.480130174069425 13.000000000000000
-5.167082732252694 -5.586409401010864 -1.619162142082585 18.000000000000000
-5.238751317041635 -5.594021099491285 -1.762075076902467 22.000000000000000
-5.314611593598356 -5.604290929744256 -1.909126183356201 14.000000000000000
-5.381178527936380 -5.603406212974434 -2.054763359337507 15.000000000000000
-5.347279686930333 -5.497284085190339 -2.162288518319252 10.000000000000000
-5.515841059262854 -5.598222697496301 -2.353936285923491 7.000000000000000
-5.026557313083412 -5.034994577573625 -2.256955290228822 34.000000000000000
-5.625971229266329 -5.562241977535713 -2.651838590639916 6.000000000000000
-5.748005820683327 -5.606820072515612 -2.836591926912755 7.000000000000000
-5.821916451776314 -5.603244152005606 -3.002223143197600 7.000000000000000
-4.945099724821307 -4.695836356819439 -2.660358927202302 5.000000000000000
-4.917131042436027 -4.607249551366682 -2.755625860479519 34.000000000000000
-4.929890390102464 -4.554213037245828 -2.871467282236641 59.000000000000000
-4.951203224482256 -4.509802300853134 -2.994021682803298 58.000000000000000
-4.714501412446980 -5.592410349957765 -0.561532643504088 255.000000000000000
-4.780665214166890 -5.601161867714129 -0.687780373171394 7.000000000000000
-4.835190745993867 -5.595552674984079 -0.815058716494578 3.000000000000000
-4.883457714931468 -5.581686077572419 -0.941911502164906 12.000000000000000
-4.950805147082464 -5.590071273687331 -1.073576988723903 38.000000000000000
-5.014531475195362 -5.592854439967300 -1.206696854066132 46.000000000000000
-5.082589452440295 -5.598892102049686 -1.342420086093878 18.000000000000000
-5.151624509752107 -5.605602702937647 -1.481053424876873 11.000000000000000
-5.214298280142891 -5.603737621590536 -1.619936453713456 5.000000000000000
-5.275585109089548 -5.599525856693408 -1.759879523426130 5.000000000000000
-5.332966240959764 -5.589741984495648 -1.900576654478888 5.000000000000000
-5.397050351862055 -5.585914045542497 -2.045100431586846 13.000000000000000
-5.368389970507204 -5.485439392336382 -2.154791822325749 13.000000000000000
-5.545606648068960 -5.594075362167608 -2.349673966166947 15.000000000000000
-5.038413011387614 -5.015929555417634 -2.246504177999201 36.000000000000000
-5.493715564300805 -5.398037299815456 -2.571902526994390 9.000000000000000
-5.767688421894079 -5.591216823606406 -2.827422978503512 10.000000000000000
-5.841824970017709 -5.587462379170497 -2.992949244646820 10.000000000000000
-4.986392974700060 -4.705478736875890 -2.665537649081468 3.000000000000000
-4.917643966245762 -4.578813154244819 -2.738755907298287 61.000000000000000
-4.935843907238594 -4.530953008873762 -2.857370426590406 61.000000000000000
-4.965340574503530 -4.494004544394511 -2.984550239843590 61.000000000000000
-4.733483046753169 -5.582352759423233 -0.554144309237350 40.000000000000000
-4.797271509484065 -5.587898544495457 -0.679994059325539 68.000000000000000
-4.865005573509557 -5.597164324183856 -0.809365367312203 71.000000000000000
-4.934456589569866 -5.606908515415207 -0.940478104697262 18.000000000000000
-4.989002828494530 -5.600051629597251 -1.070069401075808 3.000000000000000
-5.034499198469362 -5.581958592159300 -1.199208112059918 9.000000000000000
-5.097465444211083 -5.581986952778480 -1.333508044251974 19.000000000000000
-5.169372982579613 -5.591436852279671 -1.472736532426880 24.000000000000000
-5.237589287059527 -5.595135272856518 -1.613178148412657 28.000000000000000
-5.309812207410562 -5.602045239017672 -1.756712686250431 17.000000000000000
-5.380862699737608 -5.605973220727305 -1.902467044408604 16.000000000000000
-5.391274346535893 -5.546187468490309 -2.027308926815305 6.000000000000000
-5.513796283333178 -5.599797075709243 -2.196798410591977 6.000000000000000
-5.575391315585843 -5.589814725403445 -2.345352641662389 5.000000000000000
-5.058318736278235 -5.004895205699667 -2.239650763440824 19.000000000000000
-5.403819057449351 -5.277029721709110 -2.512627491401358 2.000000000000000
-5.819934155850404 -5.606983435980312 -2.834113471653570 6.000000000000000
-5.888876422553608 -5.597477877238014 -2.997494936396597 5.000000000000000
-5.006037792443387 -4.694529508006850 -2.659055907475714 6.000000000000000
-4.926158616973398 -4.557967032918370 -2.726432432180935 61.000000000000000
-4.952554352867631 -4.517626726168875 -2.849545603231602 62.000000000000000
-4.976693029616266 -4.475728635101175 -2.973441721961982 60.000000000000000
-4.999835167609165 -4.431086825666595 -3.097678782595539 47.000000000000000
-4.778319587915417 -5.602583612999933 -0.549704261479273 5.000000000000000
-4.826846947090400 -5.589662160231355 -0.674004068119646 3.000000000000000
-4.879156152076534 -5.580691964679587 -0.801029611821197 23.000000000000000
-4.946176763882445 -5.587314192559134 -0.931480291824068 73.000000000000000
-5.014079816628185 -5.595119135368216 -1.063667924456831 52.000000000000000
-5.080981181769831 -5.600257879511922 -1.197947375081840 13.000000000000000
-5.146922752817985 -5.602765406549988 -1.333559888303218 7.000000000000000
-5.211146063958692 -5.603107107031079 -1.471193884987853 4.000000000000000
-5.268917140685955 -5.595002739240080 -1.608838249322078 5.000000000000000
-5.333327668265628 -5.593130745937528 -1.749937267950090 7.000000000000000
-5.399212221976558 -5.591238033594064 -1.893822756688206 16.000000000000000
-5.328449756207300 -5.448431335350929 -1.988364951295523 14.000000000000000
-5.537971823460976 -5.590215432288788 -2.190110386065635 16.000000000000000
-5.616062599618943 -5.596270362783630 -2.345511224400960 12.000000000000000
-5.506585024834224 -5.344310802073348 -2.543013844852914 3.000000000000000
-5.836885807346603 -5.588567314564115 -2.823522523831081 12.000000000000000
-5.914220197019432 -5.586664364900911 -2.990886947899187 9.000000000000000
-5.039301097865993 -4.696237005742219 -2.659747813410882 7.000000000000000
-4.937299206183830 -4.539626656348688 -2.715614547314278 67.000000000000000
-4.961029805022962 -4.496831969061811 -2.837017715083485 64.000000000000000
-4.990687409539138 -4.459870948895618 -2.963948430635125 58.000000000000000
-5.011159212338838 -4.412823568605234 -3.086423091695915 49.000000000000000
-4.794732902754243 -5.589303517966554 -0.541921189189509 97.000000000000000
-4.861688079107098 -5.597321388818800 -0.668669044998723 87.000000000000000
-4.930011312632742 -5.605999505459445 -0.798637591214960 12.000000000000000
-4.981570787034461 -5.594382507298386 -0.926898514293058 3.000000000000000
-5.028552090880138 -5.578324988018259 -1.054992984505624 13.000000000000000
-5.098311221802683 -5.586241617947601 -1.189732436958409 23.000000000000000
-5.169801917042857 -5.594376077009412 -1.326622948514298 31.000000000000000
-5.239610113090940 -5.600249213728575 -1.465796236496608 31.000000000000000
-5.308363575021335 -5.603273653759296 -1.606877878518979 16.000000000000000
-5.378437712971121 -5.606662698012556 -1.750153467100686 13.000000000000000
-5.379585598220399 -5.537415023052693 -1.871958774623525 6.000000000000000
-5.427941779855162 -5.516648846988341 -2.009987446111290 6.000000000000000
-5.578456454475731 -5.596931597349205 -2.189790008222730 5.000000000000000
-5.656825301330851 -5.602553079064878 -2.345575943448385 5.000000000000000
-5.736996475077206 -5.607131479053567 -2.504828142120382 6.000000000000000
-5.361085449657251 -5.171114836350110 -2.458997793970764 1.000000000000000
-5.883865147381449 -5.598754310134916 -2.827380607943609 5.000000000000000
-5.304238760756103 -4.979370760807694 -2.665036959463410 4.000000000000000
-5.072624893528418 -4.697807309285744 -2.660365985043648 7.000000000000000
-4.951093227560185 -4.523770246544577 -2.706289453936089 41.000000000000000
-4.974877802879133 -4.480965877073699 -2.827606700890634 66.000000000000000
-5.001878511620464 -4.441550243894690 -2.952826914322693 59.000000000000000
-5.030600016576503 -4.401718235611620 -3.080185067086820 36.000000000000000
-4.821522846271657 -5.588058589249504 -0.535274365157982 4.000000000000000
-4.878255984011938 -5.583828468849683 -0.660767875214523 50.000000000000000
-4.952059477431476 -5.598296406041332 -0.791479805229294 100.000000000000000
-5.014391729164952 -5.598342601205323 -0.921748179283115 62.000000000000000
-5.077551475115180 -5.599649077953032 -1.053482425736386 7.000000000000000
-5.142317521006323 -5.601288327598665 -1.187668128838326 4.000000000000000
-5.200716382583751 -5.594567267117128 -1.321692173551227 4.000000000000000
-5.262708031869571 -5.591558160332900 -1.458848008159194 7.000000000000000
-5.326284256963577 -5.588691122280948 -1.598337747086038 8.000000000000000
-5.380309000948379 -5.575057001376255 -1.736264520664825 21.000000000000000
-5.335188938252712 -5.458720007621918 -1.841748862232325 22.000000000000000
-5.538826518833943 -5.595378026091438 -2.035330326849910 16.000000000000000
-5.613571625317729 -5.598029542668119 -2.187248236218889 12.000000000000000
-5.689472617581736 -5.600584626757328 -2.342168476501443 13.000000000000000
-5.764425981452906 -5.599487016691400 -2.499238734946137 16.000000000000000
-5.475018873194577 -5.248564553785781 -2.494192146348526 1.000000000000000
-5.914494682935574 -5.593156484559860 -2.823262153033752 11.000000000000000
-5.341158402273784 -4.982923540319253 -2.666210027952112 5.000000000000000
-5.108756650187633 -4.701769272827790 -2.662342426183394 6.000000000000000
-5.008781245507555 -4.547796021459018 -2.720831818002228 7.000000000000000
-4.983164766586373 -4.460149487710809 -2.815079298407982 63.000000000000000
-5.015729687275813 -4.425633577626074 -2.943312273743424 58.000000000000000
-5.039037539188134 -4.381010717919660 -3.067238133586282 42.000000000000000
-4.861410391025107 -5.601775346026204 -0.529998096870279 83.000000000000000
-4.928967248384091 -5.609199175564235 -0.657405866422311 8.000000000000000
-4.976738013674870 -5.593488012932138 -0.784700320140108 3.000000000000000
-5.023349180458045 -5.575615571536782 -0.912180908388260 32.000000000000000
-5.097343917827246 -5.588545475248932 -1.045820469518673 24.000000000000000
-5.167680644572799 -5.595810640269100 -1.181204484396659 34.000000000000000
-5.234361893490981 -5.597513654977096 -1.317373314711691 33.000000000000000
-5.310110855660684 -5.608474277790575 -1.458540015205634 15.000000000000000
-5.376688620800540 -5.607993554725943 -1.599453583292206 10.000000000000000
-5.314028572816651 -5.473459564236974 -1.700645973138148 41.000000000000000
-5.383037332547185 -5.474609702080219 -1.843467842489370 7.000000000000000
-5.573736573512262 -5.596692891730040 -2.032443181186190 5.000000000000000
-5.646001284155473 -5.596268864138712 -2.183570539182631 5.000000000000000
-5.724899429156532 -5.601172197938608 -2.339814636906686 5.000000000000000
-5.802848821506686 -5.602358158670312 -2.498332367143863 6.000000000000000
-5.399641709336315 -5.144516974735474 -2.443137021833642 1.000000000000000
-5.958913646670282 -5.600388442514842 -2.825615232913502 6.000000000000000
-5.367126736003033 -4.976098053203026 -2.661830716741862 5.000000000000000
-5.150480219114972 -4.710621966839431 -2.667091711590583 4.000000000000000
-5.256900866353628 -4.743171178018922 -2.837904941561833 2.000000000000000
-4.996860710029532 -4.444232807356272 -2.805651760033904 65.000000000000000
-5.024004924204863 -4.404854189622660 -2.930571631905452 59.000000000000000
-5.050123715572239 -4.362677175523554 -3.055961112249412 47.000000000000000
-4.875169048235385 -5.585253707030446 -0.521815848006127 106.000000000000000
-4.942912904809704 -5.592530455855282 -0.649060178871570 205.000000000000000
-5.014686345700022 -5.603411390076495 -0.779936951176667 76.000000000000000
-5.074871077753975 -5.599967333787992 -0.910271061104117 5.000000000000000
-5.135857040645283 -5.597818592963252 -1.041932559395842 3.000000000000000
-5.190355344490359 -5.587342317089078 -1.174083995967085 4.000000000000000
-5.259958584583598 -5.591704895161127 -1.310959974177862 10.000000000000000
-5.325123090121823 -5.591015041659076 -1.449258734316741 10.000000000000000
-5.397331991932229 -5.596039429878437 -1.591617437737687 22.000000000000000
-5.350820635966860 -5.478433405796612 -1.698181951371212 35.000000000000000
-5.370839275325936 -5.429434242803966 -1.824618667471122 9.000000000000000
-5.614185755247099 -5.603339526575418 -2.031464608477871 12.000000000000000
-5.689460164050557 -5.605210856149453 -2.184045397830854 15.000000000000000
-5.763132407532490 -5.604293085043574 -2.338501201663481 15.000000000000000
-5.838583873852352 -5.602422945443126 -2.496160950011761 16.000000000000000
-5.436801563628094 -5.148124559701095 -2.443231113819058 1.000000000000000
-5.992381651523588 -5.597102519235222 -2.822656467169565 11.000000000000000
-5.393096856856307 -4.969176851802599 -2.657402436229001 1.000000000000000
-5.244876119425386 -4.767062794890440 -2.698785430791534 2.000000000000000
-5.373739783139850 -4.818215860366094 -2.883002023241864 2.000000000000000
-5.004959284997973 -4.423396048238151 -2.793125481596502 66.000000000000000
-5.037703643941314 -4.388886927636622 -2.921040487949589 58.000000000000000
-5.066646752051397 -4.349065786223937 -3.048002210796999 52.000000000000000
-4.920453014711657 -5.604684738526113 -0.516940143292683 5.000000000000000
-4.964734770255024 -5.584764376536559 -0.641728540419538 5.000000000000000
-5.028767102904292 -5.586552337312224 -0.771408067898510 69.000000000000000
-5.097141298291779 -5.591790204796064 -0.903013228471865 37.000000000000000
-5.166397602465821 -5.598186103215815 -1.036335933467885 40.000000000000000
-5.237310813849861 -5.604796248608249 -1.172362764129852 30.000000000000000
-5.307241020496655 -5.608717325622487 -1.309849881329817 14.000000000000000
-5.372708545359658 -5.607591263940571 -1.448766062273932 6.000000000000000
-5.434316340638526 -5.600897519069968 -1.588536713691242 4.000000000000000
-5.335670826194793 -5.430313694864043 -1.679263531988293 49.000000000000000
-5.372114119538214 -5.398164280625703 -1.810468526662348 9.000000000000000
-5.481367798665628 -5.437833236347989 -1.968146526410236 6.000000000000000
-5.716480471394454 -5.597761941889079 -2.178113004897599 6.000000000000000
-5.795910294699616 -5.601914062606367 -2.334876161805597 5.000000000000000
-5.866069164590441 -5.594425775621867 -2.490388081664961 6.000000000000000
-5.457413313254359 -5.135933272902766 -2.435822108571221 17.000000000000000
-6.036973653445965 -5.603981736619295 -2.824818897422742 6.000000000000000
-6.126627193023609 -5.610060900047207 -2.999313243971892 6.000000000000000
-5.384132828611489 -4.863143442543439 -2.752916551789171 2.000000000000000
-5.510600299735475 -4.909977953803117 -2.938117906028049 37.000000000000000
-5.015728877083778 -4.404993442421429 -2.782143167382315 44.000000000000000
-5.048562679838542 -4.370487255281972 -2.909898970610378 62.000000000000000
-5.077580140366636 -4.330681700258996 -3.036708733019383 55.000000000000000
-4.986974019518969 -4.192379567259806 -3.093054750997027 29.000000000000000
-4.942107614282642 -5.596984850714670 -0.509498684708811 255.000000000000000
-5.007795208446814 -5.600690923621407 -0.637062264085637 81.000000000000000
-5.074831256987517 -5.605060329265179 -0.767715063288595 3.000000000000000
-5.124764995246783 -5.589390673439975 -0.896655810863596 3.000000000000000
-5.186187822542631 -5.586809151727634 -1.028534574762991 5.000000000000000
-5.251907702883242 -5.587457233395847 -1.163324178966509 13.000000000000000
-5.330192180932401 -5.599801826838065 -1.302639940454834 13.000000000000000
-5.393144752796355 -5.595634025425098 -1.440862772400632 25.000000000000000
-5.463157299712787 -5.597182398481225 -1.582991319220308 26.000000000000000
-5.353211410083744 -5.415667767898928 -1.670714286372707 13.000000000000000
-5.422800932736047 -5.416449169434210 -1.812921520323622 6.000000000000000
-5.480015769979212 -5.403772855944491 -1.952502517831065 8.000000000000000
-5.577501395415916 -5.428647066992785 -2.109351845037747 6.000000000000000
-5.831492994197042 -5.602067726163390 -2.332291287577380 14.000000000000000
-5.907431088690241 -5.599484921091793 -2.490415738554845 12.000000000000000
-5.480768660530074 -5.126275181068294 -2.429613479077402 13.000000000000000
-6.067758506016705 -5.597835661090336 -2.820411073600306 9.000000000000000
-6.146549105936311 -5.593427224141038 -2.989603648738644 9.000000000000000
-5.490719039567947 -4.928521674605214 -2.789663515815596 49.000000000000000
-5.525698307823637 -4.892593128533819 -2.927932835557988 44.000000000000000
-5.026413359650176 -4.386573964686783 -2.771157445953281 55.000000000000000
-5.062117804514948 -4.354462966080095 -2.900347498188744 60.000000000000000
-5.091207145250046 -4.314635319099099 -3.027063902090191 55.000000000000000
-5.005849358543053 -4.181269331822636 -3.086926460791313 30.000000000000000
-4.958447128413552 -5.583240351012994 -0.501483058086411 14.000000000000000
-5.021661296329448 -5.583820606530112 -0.628618532208951 133.000000000000000
-5.096920560518989 -5.596873820099510 -0.760307991305828 49.000000000000000
-5.165874958593716 -5.601485576254329 -0.892568905569250 41.000000000000000
-5.235707610414809 -5.607243980954884 -1.026538239078150 27.000000000000000
-5.304478708048308 -5.610321413598048 -1.162610541834779 12.000000000000000
-5.366767881602751 -5.605053744974616 -1.298691272375063 4.000000000000000
-5.435451218143896 -5.606205162484771 -1.438726426846728 4.000000000000000
-5.453552312987998 -5.554182582516279 -1.566340642892232 6.000000000000000
-5.378965646940357 -5.409284894828648 -1.664701022890936 59.000000000000000
-5.446019162815282 -5.407069047688929 -1.806082941554198 7.000000000000000
-5.514489516263453 -5.405058343585218 -1.949627061122275 7.000000000000000
-5.581771550346970 -5.399972006028200 -2.095248122263555 7.000000000000000
-5.672482298780027 -5.416225260983992 -2.252342889594327 7.000000000000000
-5.932168707046833 -5.588625323384901 -2.483352859735259 7.000000000000000
-5.375844222757505 -4.997305371666585 -2.366892882020024 27.000000000000000
-6.112511260515418 -5.604367950421332 -2.822386572807203 5.000000000000000
-6.202716457997719 -5.609570355487084 -2.997413046032321 6.000000000000000
-5.505647584947029 -4.911140336130044 -2.779568540116150 57.000000000000000
-5.540724165841997 -4.875172004684700 -2.917733648363582 45.000000000000000
-5.037012735612084 -4.368137903975573 -2.760168464629206 62.000000000000000
-5.072815196875590 -4.336021713607416 -2.889194641673189 61.000000000000000
-5.057371141035093 -4.258646652470267 -2.989391548664910 20.000000000000000
-5.019126197722311 -4.165477285425408 -3.077355227454663 19.000000000000000
-5.067549417716104 -5.602394493647020 -0.624114441876434 3.000000000000000
-5.113616779605337 -5.582739121689476 -0.752071359976257 5.000000000000000
-5.182772391701230 -5.587180533918502 -0.884233010705695 14.000000000000000
