# This PCD file was generated using the MATLAB® pcwrite function
# from Computer Vision Toolbox®.
# .PCD v.7 - Point Cloud Data file format
VERSION .7
FIELDS x y z intensity
SIZE 8 8 8 8
TYPE F F F F
COUNT 1 1 1 1
WIDTH 637
HEIGHT 1
VIEWPOINT 0 0 0 1 0 0 0
POINTS 637
DATA ascii
1.796682437022151 -4.584947540462115 -2.235319277353139 60.000000000000000
1.804434720163604 -4.574717263804327 -2.335190205726022 20.000000000000000
1.980345138340877 -4.988967227455218 -2.663175385968310 56.000000000000000
2.002382689956896 -5.010152883333508 -2.794030717187253 71.000000000000000
2.012337161696514 -5.002657441488557 -2.911408880726716 71.000000000000000
2.026101558893825 -5.002327786449024 -3.035208920316363 72.000000000000000
1.957117895831281 -5.474415938287950 -1.178593940437418 1.000000000000000
1.816160359908829 -5.049667396784472 -1.186775770290146 24.000000000000000
1.817051663539783 -5.022265265175905 -1.279546348607547 75.000000000000000
1.828339727215076 -5.022159516437050 -1.380394013804709 74.000000000000000
1.837475377423940 -5.016789275560630 -1.480353201766591 77.000000000000000
1.849148846647380 -5.016867189303997 -1.582235174627233 78.000000000000000
1.860174668361806 -5.015031674045566 -1.684895104006408 79.000000000000000
1.871683587504439 -5.015035961121021 -1.789120134851061 73.000000000000000
1.788920609054940 -4.762281344780875 -1.799237462829893 36.000000000000000
1.778401334864451 -4.703952408325985 -1.877643318726034 13.000000000000000
1.784576332114681 -4.689946026907228 -1.973159288945835 15.000000000000000
1.820508769846445 -4.753589688191250 -2.104090514981231 15.000000000000000
1.791026615531249 -4.646634723836789 -2.159674374921571 38.000000000000000
1.780675363875600 -4.590327174899730 -2.237086425658063 61.000000000000000
1.786999755300556 -4.576770194096627 -2.335252976656807 20.000000000000000
1.958667629382020 -4.984927509499008 -2.659796767170574 53.000000000000000
1.980470519438422 -5.006293044188967 -2.790495023708246 72.000000000000000
1.994197581388469 -5.008752181975568 -2.913410644921065 69.000000000000000
2.009083251924506 -5.011717349389779 -3.039192277014064 73.000000000000000
1.936207670408151 -5.468976120862801 -1.178049254694012 2.000000000000000
1.796419681640186 -5.043885592839866 -1.185896476830167 24.000000000000000
1.797250512968496 -5.016553522347139 -1.278468361384431 75.000000000000000
1.809703977463144 -5.020195294828773 -1.380128514209137 75.000000000000000
1.818710367364761 -5.014906713160578 -1.479965965127879 76.000000000000000
1.832866422072659 -5.022281425337403 -1.584003145056685 78.000000000000000
1.841120701906712 -5.013332159719604 -1.684272904648090 78.000000000000000
1.855111048954934 -5.020548109544182 -1.790920343230729 83.000000000000000
1.763839842548500 -4.742825913796503 -1.791618084653883 33.000000000000000
1.769139053191920 -4.726765618144504 -1.886366295711995 11.000000000000000
1.776522267996046 -4.716145873781442 -1.983681609666349 12.000000000000000
1.809458627879195 -4.772837364484256 -2.111979868790544 47.000000000000000
1.773647133887071 -4.648557398232549 -2.159830076601306 38.000000000000000
1.763345603770466 -4.592263203193668 -2.237173876625776 62.000000000000000
1.768268796513054 -4.575401243823612 -2.333570851998202 21.000000000000000
1.938340198724049 -4.984153171682232 -2.658164486110738 50.000000000000000
1.962493421016269 -5.012278311103448 -2.792450841914649 67.000000000000000
1.973458522810033 -5.008249821514475 -2.911579499867498 71.000000000000000
1.986880569042847 -5.008106356173942 -3.035297733272659 74.000000000000000
1.915347920229477 -5.463466482089832 -1.177472013915227 3.000000000000000
1.779328624632504 -5.045402679191521 -1.186718774761077 25.000000000000000
1.781402540275445 -5.021771447613934 -1.280162691781654 76.000000000000000
1.791097412583033 -5.018171317790324 -1.379834295828624 77.000000000000000
1.801277013954552 -5.016591311288383 -1.480620388386189 77.000000000000000
1.812657032246700 -5.016830536729621 -1.582334303863682 79.000000000000000
1.815579124163950 -4.993647505766576 -1.677599783038645 68.000000000000000
1.834611650263447 -5.015328166948998 -1.788884420672736 82.000000000000000
1.639912964687091 -4.454381615295462 -1.682398850917636 9.000000000000000
1.757138429536067 -4.742547798036370 -1.892275065308398 7.000000000000000
1.767008842733735 -4.738861269325882 -1.992729188771990 9.000000000000000
1.793102501640766 -4.778231129296620 -2.113732881333488 45.000000000000000
1.756274000204868 -4.650427621572983 -2.159959391450549 38.000000000000000
1.743435560880242 -4.587340761217277 -2.233920586218923 64.000000000000000
1.749567895446127 -4.573971848645493 -2.331859709978870 22.000000000000000
1.915468280629094 -4.976629408843105 -2.652937427257145 49.000000000000000
1.943214249590381 -5.014903488199338 -2.792536729254425 39.000000000000000
1.954025290244528 -5.010958660653661 -2.911620591063479 69.000000000000000
1.967275846774279 -5.010907565768952 -3.035297532371091 73.000000000000000
1.898394836958969 -5.468995572005553 -1.179257595435021 4.000000000000000
1.760956522410469 -5.043181847573297 -1.186647790410962 25.000000000000000
1.761671509765232 -5.015937448619026 -1.279026584251765 78.000000000000000
1.773810309003668 -5.019738445627437 -1.380515456328600 74.000000000000000
1.783849774034225 -5.018223497508505 -1.481248430457075 77.000000000000000
1.795083321363312 -5.018532373808753 -1.582911457535365 83.000000000000000
1.661022433770918 -4.614999000499907 -1.550330513114736 7.000000000000000
1.750895335059413 -4.835311757944351 -1.724500428864054 38.000000000000000
1.658619799788759 -4.551319301876291 -1.718741682777547 3.000000000000000
1.665084550644658 -4.540263762431493 -1.811185911704235 4.000000000000000
1.759936667847331 -4.768552632790174 -2.004700654331298 6.000000000000000
1.774155781119293 -4.776651765000707 -2.112397969189662 42.000000000000000
1.738907411312552 -4.652245440271467 -2.160062355200800 38.000000000000000
1.727424058680303 -4.592571374242501 -2.235611391539419 63.000000000000000
1.732175646018939 -4.575859171656764 -2.331840554691412 22.000000000000000
1.892672493998448 -4.969025358171509 -2.647674039663911 47.000000000000000
1.922668834034060 -5.014156870399817 -2.790748901935897 45.000000000000000
1.933330308379529 -5.010328160725353 -2.909726729530386 52.000000000000000
1.946413817421247 -5.010402927715787 -3.033301790671136 72.000000000000000
1.877602399491993 -5.463358120199684 -1.178619225988651 6.000000000000000
1.742613903033353 -5.040902222157602 -1.186548596392671 25.000000000000000
1.745824637035313 -5.021056060148139 -1.280670284487841 77.000000000000000
1.755251172767352 -5.017599142524367 -1.380165267436322 75.000000000000000
1.766428843964716 -5.019803317060067 -1.481850126444044 78.000000000000000
1.778795545845256 -5.023795654363044 -1.584602041297458 80.000000000000000
1.634390394055154 -4.587551781408860 -1.541038835562760 22.000000000000000
1.649195355180297 -4.601308133037676 -1.640869935519895 8.000000000000000
1.656233699570558 -4.591683076370428 -1.733705989659212 6.000000000000000
1.612748007798572 -4.443104381299469 -1.772052854804052 13.000000000000000
1.767999939566314 -4.840189641047973 -2.034291142483151 8.000000000000000
1.757788575367522 -4.781946946654434 -2.114099979586999 41.000000000000000
1.721547563739278 -4.654010901335445 -2.160139003868543 37.000000000000000
1.710126028576590 -4.594346715647076 -2.235618756140629 65.000000000000000
1.714790132604918 -4.577694039525031 -2.331795034221021 23.000000000000000
1.864902649938501 -4.947941381953072 -2.635237785667298 43.000000000000000
1.903410818054521 -5.016662748451860 -2.790775183709438 72.000000000000000
1.915172085670654 -5.016201835921452 -2.911614504629031 64.000000000000000
1.926829477752745 -5.013083003318647 -3.033241000234037 73.000000000000000
1.859385856005632 -5.465071776311991 -1.179550218619076 7.000000000000000
1.723036844704819 -5.034869983081554 -1.185551468833812 25.000000000000000
1.727430163805823 -5.018777132262637 -1.280414435193310 77.000000000000000
1.739255415853691 -5.022716890260847 -1.381799420578838 74.000000000000000
1.747747018060763 -5.017692170255153 -1.481351290349403 77.000000000000000
1.757418818362463 -5.014541708702866 -1.581703685443271 80.000000000000000
1.615562919145996 -4.581572058980006 -1.538950916258925 39.000000000000000
1.626385419323570 -4.584734523446694 -1.634779439963601 26.000000000000000
1.632054185933516 -4.571739132652342 -1.725892359665604 13.000000000000000
1.607927648443476 -4.476088233592983 -1.784825706465893 9.000000000000000
1.679480531262707 -4.646038378299769 -1.952182504909618 20.000000000000000
1.737615821809000 -4.776782167802414 -2.111174880762817 40.000000000000000
1.701673655704814 -4.648836886607391 -2.156993827343675 36.000000000000000
1.694092694384314 -4.599484518676672 -2.237260848736086 64.000000000000000
1.698666105784618 -4.582861183164476 -2.333446557541615 23.000000000000000
1.843558463444928 -4.943516319438136 -2.631682843982039 41.000000000000000
1.884157767124876 -5.019110996656273 -2.790772350412530 72.000000000000000
1.892025642148247 -5.008869799526106 -2.905843474939557 70.000000000000000
1.907249728471779 -5.015704527155640 -3.033150601192554 73.000000000000000
1.839924002423302 -5.463017224993264 -1.179651840473924 8.000000000000000
1.706018026037682 -5.036167158553517 -1.186265925474340 25.000000000000000
1.710319646162108 -5.020119854373681 -1.281069613906709 78.000000000000000
1.720732921801222 -5.020466398401824 -1.381394713450013 73.000000000000000
1.729095302581187 -5.015521332253740 -1.480823824868894 79.000000000000000
1.692150868024552 -4.878452606018702 -1.538788357985948 48.000000000000000
1.600559529893951 -4.586328033173123 -1.540461087920112 40.000000000000000
1.608724772820799 -4.582382525577886 -1.633753651745300 35.000000000000000
1.613045651727045 -4.565913077090455 -1.723404043716633 23.000000000000000
1.625478164468808 -4.572599054358145 -1.822913773308577 18.000000000000000
1.638651416830104 -4.580996662028197 -1.924347971809467 19.000000000000000
1.721250176240417 -4.781975046958618 -2.112824763452341 40.000000000000000
1.685600284356375 -4.653937580382703 -2.158614527718948 36.000000000000000
1.673059690547348 -4.590904201409849 -2.232230697159905 64.000000000000000
1.678797466655447 -4.577818134476272 -2.329900468606208 24.000000000000000
1.827222765300450 -4.952450060613242 -2.635241044591495 35.000000000000000
1.863674856437689 -5.018176159490965 -2.788892264286748 75.000000000000000
1.873877236505013 -5.014627416213055 -2.907672605207247 72.000000000000000
1.883997499154104 -5.008491694468329 -3.027122126644851 74.000000000000000
1.818012347021541 -5.453466234433765 -1.178117623995173 10.000000000000000
1.689006226995893 -5.037413265314212 -1.186954742020737 26.000000000000000
1.694458426793655 -5.025095313572445 -1.282639360607738 79.000000000000000
1.703484151212350 -5.021822332194950 -1.381970408668873 74.000000000000000
1.712961891027537 -5.020583007182554 -1.482420934781056 77.000000000000000
1.662628592171920 -4.843541920282771 -1.527777415383506 35.000000000000000
1.583051697827628 -4.583835035393246 -1.539528398668392 43.000000000000000
1.592339902241710 -4.583554499871441 -1.633977289449623 42.000000000000000
1.553058992836895 -4.442642682363120 -1.676588727629374 16.000000000000000
1.600155869108542 -4.549174981789740 -1.813177371250757 13.000000000000000
1.620617952741055 -4.578870188035085 -1.922945982698665 34.000000000000000
1.703628746896275 -4.783643444156577 -2.112913744554289 39.000000000000000
1.668273755305714 -4.655542511299016 -2.158611267191434 38.000000000000000
1.657040989566284 -4.595937879548924 -2.233820531337405 64.000000000000000
1.660214572399991 -4.576099958562336 -2.328049128097707 24.000000000000000
1.798576578441681 -4.927729043045320 -2.620897703041588 33.000000000000000
1.844444313255864 -5.020505525526346 -2.788830120939161 75.000000000000000
1.854491767965561 -5.017038265477819 -2.907564500622347 71.000000000000000
1.866891029960493 -5.017509724552807 -3.030910431911683 73.000000000000000
1.803542230057433 -5.466165532106511 -1.181374538412866 13.000000000000000
1.670772225554409 -5.034903491938684 -1.186744705983391 29.000000000000000
1.677350514302340 -5.026338998089359 -1.283244142186407 79.000000000000000
1.686242542057247 -5.023126533319288 -1.382520133531538 74.000000000000000
1.696812139123100 -5.025599854047552 -1.483994161552430 77.000000000000000
1.643210861458090 -4.837539300863425 -1.525875347919338 34.000000000000000
1.565575848611166 -4.581285636387875 -1.538568874009731 43.000000000000000
1.574731166489155 -4.581092469932447 -1.632898507322466 46.000000000000000
1.541942467879020 -4.457929746496413 -1.682064148911560 20.000000000000000
1.559011910060097 -4.479685419785264 -1.785083864711706 7.000000000000000
1.602616321730099 -4.576685694489963 -1.921516322901063 33.000000000000000
1.683560364384788 -4.778293464100236 -2.109900488271788 39.000000000000000
1.650954762751749 -4.657095311644794 -2.158581856127629 38.000000000000000
1.641006036267125 -4.600927049015076 -2.235386650800320 65.000000000000000
1.644100611192818 -4.581113987538066 -2.329623105452571 25.000000000000000
1.778631973311912 -4.926447628765909 -2.619029985421951 31.000000000000000
1.824008230103245 -5.019444459144737 -2.786888461721571 75.000000000000000
1.833905237441962 -5.016091148411481 -2.905515646302895 77.000000000000000
1.844934467656075 -5.013419987366650 -3.026786553479972 72.000000000000000
1.781711847045415 -5.456484625449150 -1.179778973509476 15.000000000000000
1.652568830293183 -5.032335609651942 -1.186506878603087 25.000000000000000
1.659031021078708 -5.023840110132915 -1.282880594177899 79.000000000000000
1.669008287588130 -5.024379050074526 -1.383043924513730 74.000000000000000
1.678205180542253 -5.023265255689844 -1.483385837528588 79.000000000000000
1.625068982091397 -4.835103944012491 -1.525089064297323 34.000000000000000
1.548132201602853 -4.578679986791878 -1.537582604256381 48.000000000000000
1.558374962154882 -4.582162002128750 -1.633071603934195 39.000000000000000
1.528300440213783 -4.466068975658592 -1.684835205324890 27.000000000000000
1.576844038809449 -4.579887142861125 -1.824602048646901 34.000000000000000
1.585863835690242 -4.577956729372288 -1.921533782852855 38.000000000000000
1.663547115553399 -4.772875899546827 -2.106856103738227 36.000000000000000
1.633643501579396 -4.658596031417636 -2.158526331969862 38.000000000000000
1.623745044761760 -4.602442120983777 -2.235263419064068 64.000000000000000
1.626763677671832 -4.582683622145082 -2.329445160618909 25.000000000000000
1.750296956636511 -4.901521606684677 -2.604601025645241 29.000000000000000
1.803601896607446 -5.018318601905611 -2.784915547789940 78.000000000000000
1.813348281999426 -5.015078806665306 -2.903435305135318 72.000000000000000
1.826601057206748 -5.019066436368245 -3.028547619756532 72.000000000000000
1.762366386555983 -5.454184578194410 -1.179762394096319 16.000000000000000
1.636808659059554 -5.037133689843619 -1.187992257664197 28.000000000000000
1.641949760945393 -5.024977719754924 -1.283432857027576 80.000000000000000
1.650573254798641 -5.021903574405918 -1.382529717551305 78.000000000000000
1.659629206956490 -5.020871418285823 -1.482749168422452 80.000000000000000
1.608167845591157 -4.836246868591887 -1.525422042072902 34.000000000000000
1.534348276266568 -4.586861883053039 -1.540210840408850 51.000000000000000
1.539610487488044 -4.575998576008521 -1.630660166676310 44.000000000000000
1.508580750645800 -4.456334535364951 -1.680857705962825 9.000000000000000
1.556611367152384 -4.570411366483317 -1.820412313947607 46.000000000000000
1.569119781585757 -4.579177318574025 -1.921526007134298 38.000000000000000
1.647198908565425 -4.777861111016501 -2.108401043316247 36.000000000000000
1.616340166361663 -4.660044721202103 -2.158444732441012 38.000000000000000
1.602898102683624 -4.593605724728670 -2.230113924926984 66.000000000000000
1.608239837967518 -4.580797862060030 -2.327511884077174 26.000000000000000
1.724542006030221 -4.883226009898384 -2.593708273050222 21.000000000000000
1.785600030089479 -5.023808695036624 -2.786617075993553 77.000000000000000
1.794003752065574 -5.017308773021355 -2.903237367790926 73.000000000000000
1.804715411576236 -5.014841749548883 -3.024359190010461 73.000000000000000
1.744243667737630 -5.455555079482832 -1.180523952440715 19.000000000000000
1.616254756887829 -5.027026101212005 -1.185948202313529 23.000000000000000
1.624876293639993 -5.026064173616546 -1.283959482637589 78.000000000000000
1.633366009062861 -5.023049336958387 -1.383000664829910 76.000000000000000
1.642281445327318 -5.022078896537271 -1.483165267692247 80.000000000000000
1.590077577728079 -4.833699230200765 -1.524581597935292 33.000000000000000
1.518131445910565 -4.587773011930449 -1.540389465018543 42.000000000000000
1.524492221020721 -4.580557844246257 -1.632062898163362 48.000000000000000
1.517644092437784 -4.532246251968760 -1.709174163215619 26.000000000000000
1.542432705397156 -4.578596756731643 -1.823252338149520 52.000000000000000
1.549997900133842 -4.573306242613732 -1.918539163230957 46.000000000000000
1.629643390541598 -4.779307240112630 -2.108380592841596 43.000000000000000
1.599044951357480 -4.661441432168568 -2.158337095543791 38.000000000000000
1.586875218862524 -4.598442997982161 -2.231603242977759 66.000000000000000
1.589748077162498 -4.578852791512140 -2.325550292902655 27.000000000000000
1.689505723071294 -4.837823279428738 -2.568435385351698 14.000000000000000
1.765229980567644 -5.022560924664338 -2.784584147362056 79.000000000000000
1.774665345640501 -5.019481032584416 -2.903010346951585 73.000000000000000
1.786381689456570 -5.020375407924862 -3.026062660137355 71.000000000000000
1.724946235856333 -5.453136587476178 -1.180449847191202 21.000000000000000
1.601693329659712 -5.035441581227368 -1.188260308084894 23.000000000000000
1.607810809931306 -5.027099521813523 -1.284460508248614 78.000000000000000
1.614981834350290 -5.020460206370947 -1.382431550191316 79.000000000000000
1.626126800137822 -5.026898376732793 -1.484637443915092 78.000000000000000
1.573204875630774 -4.834737222909491 -1.524862749464678 32.000000000000000
1.501923742226348 -4.588635320106216 -1.540543725965126 39.000000000000000
1.509359290126615 -4.585075089951584 -1.633443281174450 42.000000000000000
1.508456329575051 -4.554632901674390 -1.717292820910308 54.000000000000000
1.521118289673624 -4.565445860659788 -1.817591604900506 32.000000000000000
1.534476448092128 -4.577943165392885 -1.919956875735270 48.000000000000000
1.601482260189276 -4.749225747016726 -2.094453001184910 12.000000000000000
1.580581147198149 -4.659316881089845 -2.156597653414512 38.000000000000000
1.569662756335049 -4.599795349216615 -2.231399914112182 68.000000000000000
1.573630336273843 -4.583669498939164 -2.327023310853044 27.000000000000000
1.662981461969013 -4.815921969409505 -2.555658083880996 12.000000000000000
1.746053662980538 -5.024596232007338 -2.784375210220401 77.000000000000000
1.754174641204734 -5.018281046491596 -2.900838269634735 74.000000000000000
1.765722034069982 -5.019296934054159 -3.023786365832464 73.000000000000000
1.706848825719212 -5.454395775962635 -1.181156130789625 22.000000000000000
1.584750943203541 -5.036375418877981 -1.188793963703182 21.000000000000000
1.591925757832395 -5.031789108909752 -1.285882865974566 79.000000000000000
1.598975541428767 -5.025186402496467 -1.383865180600045 77.000000000000000
1.606436356152602 -5.020670749057880 -1.482836290082538 81.000000000000000
1.556340779466098 -4.835724623151033 -1.525118601034575 30.000000000000000
1.486898906409622 -4.593074019169836 -1.541890624053766 40.000000000000000
1.495384694902745 -4.593152741279370 -1.636084505619568 39.000000000000000
1.485069523918684 -4.534069729194509 -1.709211572605909 27.000000000000000
1.470636278256899 -4.463375778983478 -1.776536403414893 8.000000000000000
1.518940095283370 -4.582536941334544 -1.921351651375873 40.000000000000000
1.578214216777639 -4.733030967134847 -2.086653241461914 18.000000000000000
1.564479657442169 -4.664079125251020 -2.158043863049893 39.000000000000000
1.552458888690626 -4.601096019193212 -2.231170728808052 69.000000000000000
1.554020560307915 -4.578199345387742 -2.323275027204382 28.000000000000000
1.636632795365469 -4.793916073525518 -2.542838133489408 12.000000000000000
1.726884055715782 -5.026574365582162 -2.784137497572076 76.000000000000000
1.736007760245426 -5.023652614819962 -2.902469200866774 74.000000000000000
1.745092721119522 -5.018153264343189 -3.021478646334847 71.000000000000000
1.686442043078581 -5.448117444652766 -1.180214194376234 22.000000000000000
1.566657300783992 -5.033532815226071 -1.188422609992978 23.000000000000000
1.573704554830345 -5.029017104462978 -1.285385909804923 77.000000000000000
1.582954078004250 -5.029868099441011 -1.385275167306262 76.000000000000000
1.590286290738718 -5.025390025312423 -1.484257594549848 81.000000000000000
1.539485477838796 -4.836661483767982 -1.525349191155503 31.000000000000000
1.467213066646707 -4.582956438094833 -1.538343298352579 39.000000000000000
1.479050032624985 -4.593983335846636 -1.636136947494143 40.000000000000000
1.445592693397837 -4.463266445129783 -1.682192142584590 12.000000000000000
1.473008964849642 -4.521124501591352 -1.799092501952841 14.000000000000000
1.501074308370667 -4.580025034684135 -1.919763163105314 36.000000000000000
1.558540577959467 -4.727261682764219 -2.083450083280848 30.000000000000000
1.547209965459180 -4.665320212626304 -2.157858344851267 38.000000000000000
1.535263808552380 -4.602345061118501 -2.230915726007456 69.000000000000000
1.537908066467261 -4.582915845708442 -2.324697212595527 28.000000000000000
1.612746128524688 -4.778579666040225 -2.533567109874047 11.000000000000000
1.706582130512938 -5.025140806248169 -2.782013894500427 75.000000000000000
1.715554383075063 -5.022330383756599 -2.900237003264946 74.000000000000000
1.727884224309879 -5.026807476795847 -3.025074990576334 69.000000000000000
1.669529057011066 -5.453007477468640 -1.181676004015837 19.000000000000000
1.549743516529423 -5.034362013909771 -1.188904599148884 22.000000000000000
1.555515333779560 -5.026187339060769 -1.284861424061712 78.000000000000000
1.564618383416788 -5.027117862515361 -1.384626776663380 76.000000000000000
1.572971259652872 -5.026390136824168 -1.484569839631258 81.000000000000000
1.524939218185907 -4.844855332276356 -1.527859021687514 32.000000000000000
1.453357214265737 -4.590929868280704 -1.540860717998177 37.000000000000000
1.460426892115623 -4.587546051298970 -1.633594356012755 40.000000000000000
1.461719015732263 -4.564381514263665 -1.719960148170541 32.000000000000000
1.477302627574641 -4.586056592219135 -1.824490580826460 32.000000000000000
1.486677940351652 -4.588060156710006 -1.922591142204165 38.000000000000000
1.540067052240281 -4.724934231049605 -2.081762231106040 50.000000000000000
1.528808265850812 -4.663029658820103 -2.156037960526276 39.000000000000000
1.515801729646711 -4.596640665916571 -2.227290664651137 69.000000000000000
1.521780446060795 -4.587587548219747 -2.326095604528357 28.000000000000000
1.586725919806730 -4.756373819706686 -2.520665178603123 10.000000000000000
1.688565820436387 -5.030359302003623 -2.783575894923583 75.000000000000000
1.695132028681989 -5.020943670226274 -2.897973786242930 73.000000000000000
1.706162243624566 -5.022253169067532 -3.020728306918898 72.000000000000000
1.650330351468007 -5.450353434486407 -1.181487693632780 19.000000000000000
1.532838491853011 -5.035140690743088 -1.189361333790957 21.000000000000000
1.539632515567884 -5.030730879919051 -1.286209365086029 81.000000000000000
1.547452773530771 -5.028006620326722 -1.384969075337992 78.000000000000000
1.555664893173673 -5.027338536034663 -1.484856216691638 81.000000000000000
1.505802011011618 -4.838383800334408 -1.525734742442123 31.000000000000000
1.439463670582944 -4.598868382410063 -1.543358008480510 18.000000000000000
1.445272567949989 -4.591884524895183 -1.634882171399327 25.000000000000000
1.451051391515051 -4.583094090965867 -1.726662217266594 40.000000000000000
1.460745070142387 -4.586910431819602 -1.824384973222270 32.000000000000000
1.468843066665027 -4.585444482059718 -1.920951573428690 41.000000000000000
1.525020510770844 -4.733081567610307 -2.084685903457832 51.000000000000000
1.512697456346252 -4.667647136553433 -2.157409700123766 37.000000000000000
1.499774822592365 -4.601234096584139 -2.228655260454067 69.000000000000000
1.503392313357422 -4.585365466609794 -2.323998943579830 29.000000000000000
1.559763690155491 -4.730671982513246 -2.505924145846543 8.000000000000000
1.668302440369436 -5.028804701252465 -2.781392860442138 75.000000000000000
1.676962085456187 -5.026149774797942 -2.899520064638461 74.000000000000000
1.686707441894613 -5.024216252122531 -3.020309430731421 72.000000000000000
1.631162698886639 -5.447639139645960 -1.181270525306662 19.000000000000000
1.517067000940149 -5.039604706403853 -1.190675488053145 21.000000000000000
1.522609800473651 -5.031511471262080 -1.286582958871944 82.000000000000000
1.531422109699091 -5.032544534144600 -1.386305101258771 78.000000000000000
1.538367383455214 -5.028235275854026 -1.485116764493064 80.000000000000000
1.488974221411382 -4.839169364801444 -1.525889781976257 28.000000000000000
1.427784577300587 -4.614049519467986 -1.548277182134977 15.000000000000000
1.435730262607698 -4.614261819911686 -1.642584083186527 18.000000000000000
1.440274134292737 -4.601791476957119 -1.733349826403236 16.000000000000000
1.447566389479312 -4.598416879532035 -1.828510254301212 18.000000000000000
1.453284660440562 -4.589855011969387 -1.922251457231249 39.000000000000000
1.509935089148591 -4.741190733297203 -2.087587712421819 35.000000000000000
1.495455024202206 -4.668733081847755 -2.157146652652235 38.000000000000000
1.483733214537998 -4.605782959333944 -2.229996206181928 68.000000000000000
1.485037567648150 -4.583084828097458 -2.321874432680752 29.000000000000000
1.526361718700739 -4.684479599843486 -2.480348117167252 6.000000000000000
1.649173841912155 -5.030551204216812 -2.781039413763402 75.000000000000000
1.655479900472575 -5.021309381033164 -2.895275876160964 73.000000000000000
1.667259884002536 -5.026121486607157 -3.019861467197081 70.000000000000000
1.553834452426782 -4.620384470155320 -3.007927831979867 26.000000000000000
1.614249814263178 -5.452374898065739 -1.182653587528452 21.000000000000000
1.501281241288690 -5.044024859786695 -1.191966378891831 20.000000000000000
1.506709813680967 -5.035963341463593 -1.287883054004637 79.000000000000000
1.513148445244166 -5.029630456315328 -1.385576867431190 77.000000000000000
1.521078922330771 -5.029080409768662 -1.485351522072174 81.000000000000000
1.472155977543637 -4.839904606676646 -1.526019716796843 28.000000000000000
1.414906270414552 -4.625566631548495 -1.551957983660220 11.000000000000000
1.421601832408721 -4.622152242627766 -1.645120322670433 17.000000000000000
1.426050173444898 -4.609686133433880 -1.735960441382574 15.000000000000000
1.433214730991698 -4.606323090363809 -1.831197182733089 15.000000000000000
1.439930845811956 -4.601312121961642 -1.926496798743283 25.000000000000000
1.498132716531345 -4.759815497128836 -2.095113074979623 23.000000000000000
1.478222063110082 -4.669767422820950 -2.156857841605412 39.000000000000000
1.464371484835254 -4.599903679519943 -2.226288007769947 70.000000000000000
1.467815097937267 -4.584177058764700 -2.321459784739514 29.000000000000000
1.499875174062207 -4.658541374973332 -2.465515507940166 6.000000000000000
1.630053022359019 -5.032240810675158 -2.780657398471385 74.000000000000000
1.637312979149150 -5.026404237462488 -2.896765549700022 74.000000000000000
1.646737827409756 -5.024667563094344 -3.017401930165311 70.000000000000000
1.533408259656894 -4.615526220188037 -3.003037265831504 26.000000000000000
1.591821389564342 -5.438272074264368 -1.179934536320458 24.000000000000000
1.483279024192595 -5.040916450324650 -1.191464929083767 18.000000000000000
1.490795612769487 -5.040370988033048 -1.289159704591330 79.000000000000000
1.497112546462401 -5.034072617530448 -1.386863693610516 76.000000000000000
1.503799701310695 -5.029873991840083 -1.485560528739432 81.000000000000000
1.454244930431482 -4.836922468308448 -1.524968431767442 30.000000000000000
1.415192852198741 -4.680800748591730 -1.570296004920314 5.000000000000000
1.416246093808420 -4.658989729543999 -1.657949848993002 5.000000000000000
1.417290423172457 -4.635539887972921 -1.745325701236199 7.000000000000000
1.419924227565099 -4.617767077560440 -1.835283739745050 15.000000000000000
1.427612297756847 -4.616287526240647 -1.932208219206307 22.000000000000000
1.486219460746604 -4.778421848398714 -2.102622256432163 29.000000000000000
1.462091508766723 -4.674243670945924 -2.158156279006278 40.000000000000000
1.447247350104110 -4.600888703434512 -2.225902568897689 69.000000000000000
1.450602323441007 -4.585217744456444 -2.321019417227977 30.000000000000000
1.476839219719696 -4.642707829204078 -2.456042738175556 5.000000000000000
1.608782201307725 -5.027130271140517 -2.776522477081387 77.000000000000000
1.616980976105155 -5.024771129055983 -2.894382079739902 72.000000000000000
1.626247555941152 -5.023149199758475 -3.014911442109242 70.000000000000000
1.571458892743959 -4.822556960081590 -3.013878118833697 15.000000000000000
1.514099834402324 -4.613833309332621 -3.000217972940572 26.000000000000000
1.573848359103713 -5.439136216152075 -1.180446764868895 25.000000000000000
1.465309740620448 -5.037751245812576 -1.190936500975878 15.000000000000000
1.472687210896408 -5.037277258278111 -1.288505414073340 80.000000000000000
1.479971859900734 -5.034759959485265 -1.387104698379285 76.000000000000000
1.487620542476571 -5.034306917552361 -1.486833878241331 82.000000000000000
1.438548874604912 -4.841224345884418 -1.526204431977882 33.000000000000000
1.415131870854242 -4.736084352766625 -1.588638030380649 5.000000000000000
1.416108036767189 -4.713974471141308 -1.677224705765871 5.000000000000000
1.417080263109705 -4.690208871085973 -1.765527760611928 4.000000000000000
1.417441906324198 -4.664955366303586 -1.853565718444156 5.000000000000000
1.480324631877553 -4.844333160326925 -2.027069613016172 68.000000000000000
1.472029012781434 -4.789960098401925 -2.107014200532864 41.000000000000000
1.442704642790772 -4.668184748035570 -2.154589165450812 36.000000000000000
1.431210892151583 -4.605290336887996 -2.227168672362451 82.000000000000000
1.432324923173403 -4.582769005456667 -2.318813825446540 32.000000000000000
1.457145558039000 -4.637009667614152 -2.451938858360888 5.000000000000000
1.588634819814623 -5.025324638869724 -2.774218391410715 75.000000000000000
1.595618859252086 -5.019732155871393 -2.890043864599601 72.000000000000000
1.606847147188604 -5.024874562361894 -3.014374541774828 71.000000000000000
1.542091726067976 -4.791436633663306 -2.992795364534958 15.000000000000000
1.494824330538821 -4.612079365661248 -2.997369537723187 26.000000000000000
1.556960687304041 -5.443711728147449 -1.181749566964015 27.000000000000000
1.449529041550316 -5.042026836832304 -1.192153905485801 14.000000000000000
1.454612040463697 -5.034126449457706 -1.287824018493357 74.000000000000000
1.462840822781726 -5.035396241693638 -1.387320228476782 75.000000000000000
1.470348502987600 -5.035000777364768 -1.486992418171088 81.000000000000000
1.426075291049700 -4.856503368849665 -1.530891339256111 26.000000000000000
1.426584283176986 -4.831587941624551 -1.620456492887313 3.000000000000000
1.419930543806429 -4.783524855580244 -1.701667184502180 3.000000000000000
1.418673261588246 -4.752137181847909 -1.788446918908462 3.000000000000000
1.417882252026619 -4.722920829429321 -1.876114271128115 3.000000000000000
1.516479979082720 -5.022979512731041 -2.101206626613744 77.000000000000000
1.456704898737613 -4.797938049173562 -2.109834428168817 36.000000000000000
1.424444719790577 -4.665561288876923 -2.152607511831603 36.000000000000000
1.413029143916421 -4.602705119854734 -2.225055104509965 69.000000000000000
1.415144204520419 -4.583703488740518 -2.318321204604804 31.000000000000000
1.438568598315723 -4.634656305620632 -2.449607584228715 6.000000000000000
1.569574874844187 -5.026834014907788 -2.773748095776527 71.000000000000000
1.576413859957372 -5.021313566374033 -2.889523388083646 71.000000000000000
1.586409103246514 -5.023231050735498 -3.011823362692995 71.000000000000000
1.524428477951877 -4.796232045881274 -2.994162984486792 16.000000000000000
1.478692835559854 -4.619984004888511 -3.000805107406722 26.000000000000000
1.536863314922446 -5.436936853794363 -1.180573080795192 29.000000000000000
1.432668764443138 -5.042506659169860 -1.192460818482770 15.000000000000000
1.438703312064846 -5.038388528126326 -1.289026694641609 8.000000000000000
1.445719624248748 -5.035981519924507 -1.387510323940302 17.000000000000000
1.453086265939596 -5.035643217928368 -1.487125309269448 51.000000000000000
1.457255639412948 -5.022506590783806 -1.583075976361337 70.000000000000000
1.466216704404158 -5.025899045325326 -1.685392346584082 45.000000000000000
1.452072548294564 -4.951227707405579 -1.761003550226018 8.000000000000000
1.434769478798443 -4.864648184988773 -1.830382085520368 7.000000000000000
1.429640136872874 -4.820362590023704 -1.914323269393670 3.000000000000000
1.499441807122175 -5.027551873487520 -2.102498615087846 73.000000000000000
1.440283441468256 -4.802345732646615 -2.111080072466034 47.000000000000000
1.408332244325408 -4.669886577656216 -2.153829993620588 39.000000000000000
1.396988988460923 -4.607010994799882 -2.226272099252904 70.000000000000000
1.399024082903070 -4.588031099768539 -2.319544404191029 30.000000000000000
1.418979394234831 -4.628830564340798 -2.445444966741512 6.000000000000000
1.472319633575745 -4.774674488350433 -2.633374722078673 9.000000000000000
1.517767870026112 -4.895592747344439 -2.815786984994590 28.000000000000000
1.547397584740198 -4.961861855113174 -2.973488127689948 52.000000000000000
1.505720767472422 -4.797698961065521 -2.993458476310150 23.000000000000000
1.458422804276925 -4.614875118734600 -2.995796148346772 26.000000000000000
1.517875092690162 -5.433867256229338 -1.180185512819692 29.000000000000000
1.414764324108029 -5.039181330371633 -1.191854616496964 28.000000000000000
1.421726345668280 -5.038868310157294 -1.289249530124135 9.000000000000000
1.429663555369376 -5.040235581569649 -1.388699895847863 6.000000000000000
1.437943990819708 -5.043635080713221 -1.489418091693673 7.000000000000000
1.444122810762358 -5.037865848743147 -1.587763520648879 6.000000000000000
1.451872525122770 -5.037577469959234 -1.689065837956816 22.000000000000000
1.461000929383488 -5.042821560367600 -1.793245938133490 64.000000000000000
1.465915890979257 -5.031486156229553 -1.892728628262607 68.000000000000000
1.456521181414502 -4.971733011308640 -1.973918162527215 48.000000000000000
1.483438209221046 -5.035638100236025 -2.105254379611729 73.000000000000000
1.420707132651085 -4.796104694686828 -2.107642047606115 49.000000000000000
1.391161604529772 -4.670660534578714 -2.153412074084066 41.000000000000000
1.379893716784138 -4.607794660132419 -2.225785636676368 70.000000000000000
1.381851999240309 -4.588866176513031 -2.319001566676969 31.000000000000000
1.401517505290760 -4.629773377790308 -2.444861376983916 6.000000000000000
1.437695959988412 -4.721674198378536 -2.602925871207131 12.000000000000000
1.445686280945659 -4.722646005257806 -2.714977326997039 11.000000000000000
1.454711325854714 -4.724472588648157 -2.829768491863284 10.000000000000000
1.465662726322646 -4.730176403882859 -2.949738964860841 8.000000000000000
1.440236146167995 -4.616191685163177 -2.994968809370391 26.000000000000000
1.501002789552467 -5.438286351195020 -1.181409407513609 29.000000000000000
1.412530521980398 -5.092170616570948 -1.204556323384348 3.000000000000000
1.407888258015835 -5.050520979186837 -1.292319036358583 4.000000000000000
1.411507497858858 -5.036999290359942 -1.387814372458240 8.000000000000000
1.420678124740402 -5.044181087840038 -1.489501533722266 12.000000000000000
1.429861692941852 -5.049515441387079 -1.591271612972125 7.000000000000000
1.441636188284033 -5.063868709313803 -1.697628579949822 5.000000000000000
1.451636319738860 -5.072659282400282 -1.803512073675493 5.000000000000000
1.453312832686927 -5.050342530221726 -1.899385726433976 9.000000000000000
1.457468037600743 -5.037151163786498 -1.999359665627113 36.000000000000000
1.465322030749367 -5.036554333394370 -2.105007314231224 69.000000000000000
1.403259250036135 -4.796873916940114 -2.107282634619200 50.000000000000000
1.372969283224802 -4.667873584944989 -2.151351096937452 42.000000000000000
1.361779838849143 -4.605046534032183 -2.223593058520867 74.000000000000000
1.365716647215157 -4.593100861279084 -2.320176397957001 31.000000000000000
1.385088230947113 -4.634084106061714 -2.446057049710412 6.000000000000000
1.417728824770996 -4.715948665487644 -2.598556746330310 14.000000000000000
1.423542405704596 -4.710350648287202 -2.706580830003253 14.000000000000000
1.430401944306852 -4.705750109677084 -2.817106704226394 13.000000000000000
1.440192272299410 -4.708465316332670 -2.934625118086015 15.000000000000000
1.423059903760033 -4.620703558808840 -2.996221475779420 27.000000000000000
1.482056634908537 -5.435104490989509 -1.180967104939526 29.000000000000000
1.416161636653308 -5.167761870335523 -1.222595382936533 2.000000000000000
1.414610807525794 -5.137025329286390 -1.314530725963181 2.000000000000000
1.410918922326672 -5.097046475591120 -1.404353595176334 1.000000000000000
1.408578462163881 -5.063208755082056 -1.495031711499273 1.000000000000000
1.411415261903491 -5.046387185739651 -1.590112992861998 5.000000000000000
1.415786138575118 -5.035182087053781 -1.687752043409009 8.000000000000000
1.427679026567531 -5.051505730794498 -1.795640957666517 10.000000000000000
1.438542949566934 -5.061940716645646 -1.903304064887223 6.000000000000000
1.451830140285588 -5.081068793219778 -2.016250272740575 5.000000000000000
1.455415345775969 -5.065957372997603 -2.116658230856141 6.000000000000000
1.384799175231749 -4.794050527007228 -2.105342439789592 50.000000000000000
1.356852393124826 -4.672054826194827 -2.152499775679676 41.000000000000000
1.346752664417593 -4.612692865430730 -2.226418152568955 73.000000000000000
1.347539967068825 -4.590382619468963 -2.317839391336123 31.000000000000000
1.367635218049670 -4.634925978870220 -2.445422474899619 6.000000000000000
1.399833116346252 -4.716939268003083 -2.597892836194535 16.000000000000000
1.404510981556385 -4.708050610704438 -2.703936454455444 16.000000000000000
1.411234579679122 -4.703555979612290 -2.814352164845646 16.000000000000000
1.418872660771742 -4.699810990142905 -2.927666823504085 15.000000000000000
1.402903384429467 -4.615409896996291 -2.991125135574410 29.000000000000000
1.465179936445548 -5.439423633628093 -1.182139707380468 28.000000000000000
1.419331948432190 -5.243423312085071 -1.240642087969979 1.000000000000000
1.417741971868611 -5.212376844578817 -1.333878304531821 1.000000000000000
1.419136259230137 -5.190700747388059 -1.430140562603321 1.000000000000000
1.420832080974425 -5.171247195954667 -1.526831567660583 1.000000000000000
1.417459766121925 -5.131743016778313 -1.616823249824360 6.000000000000000
1.383009496073279 -4.980720217180431 -1.669231814920044 6.000000000000000
1.404893670013513 -5.033907549047160 -1.789028944316437 2.000000000000000
1.260101132084702 -4.490467873939338 -1.688029445844349 3.000000000000000
1.420545726807837 -5.035094991395142 -1.997465460446199 8.000000000000000
1.430132625367632 -5.041796138619885 -2.105924113176136 10.000000000000000
1.368395340611473 -4.798256557003828 -2.106486222352900 51.000000000000000
1.338706138356657 -4.669159346769292 -2.150386214056249 41.000000000000000
1.328672891451871 -4.609839711052689 -2.224174045780273 73.000000000000000
1.332404012537945 -4.597978358177567 -2.320709926962760 30.000000000000000
1.351190914511140 -4.639142112042566 -2.446568939722689 5.000000000000000
1.380953611519772 -4.714482482721365 -2.595333898161060 17.000000000000000
1.386503778192234 -4.709051944631835 -2.703193122183060 17.000000000000000
1.392101626708625 -4.701301618778754 -2.811568983714159 17.000000000000000
1.400578113765673 -4.700959489716963 -2.926825041453728 17.000000000000000
1.386711550281352 -4.623072498827603 -2.994433460088934 28.000000000000000
1.447283125773693 -5.439912831244718 -1.182465197081842 29.000000000000000
1.428083738876842 -5.341755665510812 -1.264044004273061 1.000000000000000
1.425446918805408 -5.306548040505090 -1.358031286635091 1.000000000000000
1.424754577243878 -5.276990228049958 -1.453886009179488 1.000000000000000
1.422331185322714 -5.242282686644295 -1.547691904924222 4.000000000000000
1.418936116305831 -5.202417447644403 -1.638892613409440 7.000000000000000
1.266065145238732 -4.617774189236944 -1.547341134084114 7.000000000000000
1.275681164805632 -4.629520922546494 -1.644977079920690 7.000000000000000
1.238112338774871 -4.468885395107023 -1.679513370584637 7.000000000000000
1.285316867269000 -4.614633846775940 -1.830163656863424 4.000000000000000
1.312962237074530 -4.688753459846676 -1.957862394754053 4.000000000000000
1.352976710963694 -4.805963766870687 -2.109162462001442 48.000000000000000
1.323583125128055 -4.676763695749348 -2.153105906591025 42.000000000000000
1.311621574506667 -4.610419613362079 -2.223586255132668 74.000000000000000
1.314261699155327 -4.595154720617016 -2.318321220134194 30.000000000000000
1.333747506778678 -4.639883145951348 -2.445883476390130 5.000000000000000
1.365055181943329 -4.722158071843468 -2.598354766919490 16.000000000000000
1.370462084223547 -4.716728328812253 -2.706283715334668 16.000000000000000
1.374949456214324 -4.705647692529354 -2.812738485293131 17.000000000000000
1.382293774668666 -4.702053652582633 -2.925956146073720 22.000000000000000
1.366623765048058 -4.617658432822322 -2.989279860198902 29.000000000000000
1.434369862264615 -5.459278678419216 -1.186879694654990 15.000000000000000
1.432251108854861 -5.425109561696219 -1.283892131285286 2.000000000000000
1.430578776968447 -5.393309220038128 -1.380276791060105 2.000000000000000
1.427844742046034 -5.355894648087015 -1.475583922115023 2.000000000000000
1.425377875575872 -5.320810642354235 -1.570750145640208 8.000000000000000
1.387130509433662 -5.151209396368857 -1.622555609080782 6.000000000000000
1.242995195105465 -4.592165059006644 -1.538500248873313 32.000000000000000
1.249468838350242 -4.593182001917112 -1.631726300350771 14.000000000000000
1.257947653250359 -4.599570683899806 -1.728207518063553 8.000000000000000
1.224244812656307 -4.452797154806479 -1.765490905338072 10.000000000000000
1.274325164317448 -4.610468355154952 -1.924581232814583 12.000000000000000
1.334561555748440 -4.802981729729921 -2.107144028726769 50.000000000000000
1.306455360696406 -4.677285157800586 -2.152561716449953 43.000000000000000
1.293600972846142 -4.607455583622261 -2.221289168028235 71.000000000000000
1.298110081058931 -4.599200413419918 -2.319398580376222 30.000000000000000
1.316315256908982 -4.640572276785173 -2.445172200144914 5.000000000000000
1.348149022957762 -4.726392483658810 -2.599482314290971 14.000000000000000
1.352451761464438 -4.717628768049977 -2.705488687793574 14.000000000000000
1.358744482177586 -4.713279317442431 -2.815874199590843 15.000000000000000
1.365932914932424 -4.709689740766680 -2.929162647860528 16.000000000000000
1.348499572001485 -4.618701866222716 -2.988316913458577 30.000000000000000
1.351794882511946 -4.605128822122960 -3.097157265504433 27.000000000000000
2.492767400295653 -9.608424735551624 -2.089263216845351 1.000000000000000
1.430008250386173 -5.485901549097813 -1.298390002053966 1.000000000000000
1.432224530750533 -5.468884290521914 -1.399647637942863 3.000000000000000
1.430445343463354 -5.434869882602260 -1.497288041275593 3.000000000000000
1.426949829370828 -5.395691132844253 -1.592716981577226 6.000000000000000
1.287838551294204 -4.844687297136025 -1.525803676352005 31.000000000000000
1.227964686769363 -4.595879933129376 -1.539477303602150 50.000000000000000
1.233321308465717 -4.593276547189010 -1.631414451060124 52.000000000000000
1.239685799504175 -4.592468118818831 -1.725113241541066 42.000000000000000
1.229825986146021 -4.532215729996142 -1.796477837485201 18.000000000000000
1.251857211199502 -4.589277445103990 -1.915142306625699 25.000000000000000
1.317156218106836 -4.803494780541810 -2.106656448121071 49.000000000000000
1.288367537446610 -4.674230600134931 -2.150370522774157 44.000000000000000
1.276584927736889 -4.607930958565339 -2.220650175820166 75.000000000000000
1.279049740924691 -4.592802345722823 -2.315210222282938 30.000000000000000
1.299855788080992 -4.644644953706689 -2.446244506217506 5.000000000000000
1.336018103838020 -4.747596306447202 -2.609939642448833 12.000000000000000
1.337311853627850 -4.728586756501977 -2.710462745064125 13.000000000000000
1.344399164002335 -4.727541778905438 -2.822970707700211 13.000000000000000
1.349534082591374 -4.717283633260312 -2.932345287188850 16.000000000000000
1.331326256791558 -4.622956287634565 -2.989438335306050 29.000000000000000
1.334504212264299 -4.609410886441447 -3.098285620694758 26.000000000000000
1.421865275617187 -5.472765290254518 -1.507661505703267 0.000000000000000
1.425139604333016 -5.459470324295895 -1.611392219881309 3.000000000000000
1.271149344827381 -4.844823169711325 -1.525635538840533 34.000000000000000
1.211952141909587 -4.595873318967717 -1.539199935590376 49.000000000000000
1.218155201272944 -4.596980079952313 -1.632377422697733 52.000000000000000
1.222452467545884 -4.588938535010526 -1.723356343443345 41.000000000000000
1.229089002704467 -4.590065747665431 -1.818895449315193 36.000000000000000
1.236297450791853 -4.593080703928005 -1.916132109320699 45.000000000000000
1.298800307621862 -4.800400291781175 -2.104584234377081 51.000000000000000
1.272234701949912 -4.678175267178537 -2.151397460422749 43.000000000000000
1.262449930007318 -4.618853095861354 -2.225042977804363 74.000000000000000
1.263862445123414 -4.600218382067793 -2.317985883712894 30.000000000000000
1.280535747792616 -4.638356706611546 -2.441862252637706 5.000000000000000
1.321861103671309 -4.761970263720338 -2.616636472658004 8.000000000000000
1.327755977838174 -4.759749089644885 -2.727010940011000 10.000000000000000
1.330904040337268 -4.745113501721996 -2.832039599156330 11.000000000000000
1.335894128165954 -4.734747427937429 -2.941662399387739 11.000000000000000
1.313211475595136 -4.623895127826764 -2.988422571729968 30.000000000000000
1.315355236131662 -4.607183125699148 -3.095047697379484 28.000000000000000
2.516048261190024 -9.812126952555142 -2.702946875967708 18.000000000000000
1.255431165013037 -4.848613546062636 -1.526609075975877 32.000000000000000
1.195952132981695 -4.595819012805766 -1.538898988611523 47.000000000000000
1.201063402719529 -4.593321351566305 -1.630719370061223 53.000000000000000
1.180405157167682 -4.490811280500411 -1.686077610272489 12.000000000000000
1.214618585792825 -4.597400601314522 -1.821283449131271 37.000000000000000
1.220725729331623 -4.596840639873079 -1.917099065087414 46.000000000000000
1.283330148815784 -4.807924671034061 -2.107163991435520 51.000000000000000
1.254194905938257 -4.675013062579078 -2.149154252871003 47.000000000000000
1.244476985545319 -4.615734027009180 -2.222669661546147 76.000000000000000
1.246756458065271 -4.600650989635428 -2.317241637343654 30.000000000000000
1.265024421670690 -4.645770173765562 -2.444694808176891 4.000000000000000
1.397219114021671 -5.103599512714479 -2.803068811362474 8.000000000000000
1.328208984652921 -4.828049779683215 -2.764813957210884 6.000000000000000
1.320995925358564 -4.776029615003000 -2.849064211596570 8.000000000000000
1.324903719537982 -4.762107427856681 -2.957120724540450 12.000000000000000
