# This PCD file was generated using the MATLAB® pcwrite function
# from Computer Vision Toolbox®.
# .PCD v.7 - Point Cloud Data file format
VERSION .7
FIELDS x y z intensity
SIZE 8 8 8 8
TYPE F F F F
COUNT 1 1 1 1
WIDTH 629
HEIGHT 1
VIEWPOINT 0 0 0 1 0 0 0
POINTS 629
DATA ascii
-1.510579814215165 -5.176572763492683 -2.782421076895336 23.000000000000000
-1.524075381300212 -5.155343135298784 -2.891097955698201 21.000000000000000
-1.539657285195408 -5.141965073079830 -3.006119530453146 21.000000000000000
-1.495944451613632 -4.934503646198237 -3.004970542841094 3.000000000000000
-1.500636460234622 -4.882358010707688 -3.094423123862181 3.000000000000000
-1.381753356959265 -4.319429250458839 -3.076310876815345 13.000000000000000
-1.323461455658256 -4.079394513897354 -3.017702134964799 57.000000000000000
-1.323489387151762 -4.024350779383286 -3.090713938004257 32.000000000000000
-1.318281346779612 -5.532761775971658 -1.051350284671988 7.000000000000000
-1.333831053453180 -5.525351380352991 -1.153857376141119 23.000000000000000
-1.312847924983398 -5.368293578316442 -1.222069712771424 45.000000000000000
-1.326160310171900 -5.354167720343287 -1.321276221748781 43.000000000000000
-1.340282724528008 -5.342059876230620 -1.421049786988013 42.000000000000000
-1.355401892123253 -5.335908334552978 -1.522469032879411 40.000000000000000
-1.368382742286218 -5.320358077091921 -1.622129033750399 40.000000000000000
-1.381250898870708 -5.303032507346461 -1.721490104646429 38.000000000000000
-1.395197384768886 -5.291336523591844 -1.823459912264877 38.000000000000000
-1.408974413938838 -5.277690976131178 -1.925625368894283 28.000000000000000
-1.424300359538687 -5.269555580048439 -2.030302557403283 31.000000000000000
-1.439379366115864 -5.259342674333091 -2.135471300284491 28.000000000000000
-1.452185701758008 -5.240153803787890 -2.237486268171698 25.000000000000000
-1.467798617169969 -5.229528223553547 -2.344495207606707 26.000000000000000
-1.482928349209753 -5.216950281109450 -2.451664184904219 15.000000000000000
-1.499196520290677 -5.205582336123527 -2.560934660507185 24.000000000000000
-1.513388677869081 -5.188622531342184 -2.669201179556518 23.000000000000000
-1.530011864472951 -5.176211629555088 -2.781201334069623 22.000000000000000
-1.544616916514844 -5.158304550112341 -2.891815476393074 21.000000000000000
-1.561343298960167 -5.148173122736333 -3.008889596034960 21.000000000000000
-1.518068832537543 -4.944031386168855 -3.010029347407659 3.000000000000000
-1.521735335821160 -4.888471702773426 -3.097647813889878 3.000000000000000
-1.341199762539079 -4.082408793981042 -3.019706216801790 54.000000000000000
-1.343220950013488 -4.033428066501354 -3.097549920792884 40.000000000000000
-1.335232208035384 -5.529234288090834 -1.048512822060661 26.000000000000000
-1.349975699851688 -5.517989650780284 -1.150205122441917 11.000000000000000
-1.331462114977906 -5.372393520875372 -1.220991602442412 43.000000000000000
-1.344891430687418 -5.358211282801904 -1.320317722564504 43.000000000000000
-1.358182511058772 -5.342288345030785 -1.419210874113612 42.000000000000000
-1.373435757971923 -5.336091612858698 -1.520676335681974 39.000000000000000
-1.387489278207432 -5.324213516173807 -1.621517788077446 39.000000000000000
-1.400463366066846 -5.306823999820910 -1.720995466359375 38.000000000000000
-1.414533960635182 -5.295059353511371 -1.823078746791118 36.000000000000000
-1.426459348301364 -5.274058743265821 -1.922701771004801 27.000000000000000
-1.441911810484555 -5.265898236456299 -2.027358402964702 31.000000000000000
-1.458107527084580 -5.259250933517538 -2.133963930752860 28.000000000000000
-1.472010431458571 -5.243578080261885 -2.237547363939864 24.000000000000000
-1.487755339604208 -5.232869234452606 -2.344661942498016 26.000000000000000
-1.502002341566067 -5.216703992591555 -2.450290680635541 16.000000000000000
-1.517385813407582 -5.201805597710005 -2.557894215346341 24.000000000000000
-1.532701339573207 -5.188264984897887 -2.667912489223181 22.000000000000000
-1.550473253655389 -5.179200845275389 -2.781782035673888 23.000000000000000
-1.564168899243946 -5.157830308090730 -2.890608615426631 21.000000000000000
-1.581036212970321 -5.147636908855421 -3.007720523563631 21.000000000000000
-1.534114231824751 -4.933674139965933 -3.002986680680446 3.000000000000000
-1.540833460787903 -4.887989068451130 -3.096698098429782 3.000000000000000
-1.357939747321063 -4.082262138486077 -3.019382631487551 53.000000000000000
-1.360968455094922 -4.036311913331627 -3.099641108666247 58.000000000000000
-1.349363753022092 -5.514194950045678 -1.043482397992831 9.000000000000000
-1.366082722431214 -5.510584707825065 -1.146533110450571 17.000000000000000
-1.348206860984519 -5.368858484451683 -1.218162893017783 42.000000000000000
-1.362697146050914 -5.358426439103873 -1.318400009427066 43.000000000000000
-1.378024845020696 -5.349967436565876 -1.419335039442917 41.000000000000000
-1.391479435722211 -5.336221679350506 -1.518855874924234 40.000000000000000
-1.404670488144598 -5.320589770473158 -1.618617099277035 40.000000000000000
-1.418723742134127 -5.306868759315348 -1.719273949929946 39.000000000000000
-1.433904380519429 -5.298723000220631 -1.822665299625817 36.000000000000000
-1.446921445731402 -5.281296466353846 -1.923731260951210 25.000000000000000
-1.460511166829720 -5.265805344525778 -2.025780147283867 31.000000000000000
-1.476845291991276 -5.259104061596307 -2.132427830625087 27.000000000000000
-1.491868948971233 -5.246941859199191 -2.237575510519993 25.000000000000000
-1.506729099545032 -5.232618611482901 -2.343214434776931 26.000000000000000
-1.521085723333520 -5.216401624612583 -2.448887974777562 25.000000000000000
-1.537610275327102 -5.204917428223283 -2.558239474049691 24.000000000000000
-1.553051710962224 -5.191288646142756 -2.668361402716396 22.000000000000000
-1.568903625508875 -5.175318238735004 -2.778672802199266 22.000000000000000
-1.584764973109416 -5.160669465564918 -2.891260390762378 20.000000000000000
-1.600737968305484 -5.147042927677134 -3.006521421422775 20.000000000000000
-1.555291085715387 -4.939774912131289 -3.005966975229863 2.000000000000000
-1.558899507760709 -4.884187724252294 -3.093652630623972 3.000000000000000
-1.375736123112812 -4.085170377349678 -3.021329030011001 51.000000000000000
-1.367198178437286 -5.514398194788715 -1.041324968580283 16.000000000000000
-1.388838273846353 -5.529758633300147 -1.148370021614104 4.000000000000000
-1.366864130630828 -5.372848923794259 -1.217026248886071 44.000000000000000
-1.380512493311575 -5.358588982645292 -1.316454849542189 42.000000000000000
-1.394989642065631 -5.346335887041925 -1.416443603345093 39.000000000000000
-1.409532727078844 -5.336298468424180 -1.517007629244965 40.000000000000000
-1.424811906736408 -5.328040801919440 -1.619072649235918 40.000000000000000
-1.436993700493710 -5.306859639642176 -1.717524343314613 38.000000000000000
-1.450297414666172 -5.291341811254066 -1.818444182670219 36.000000000000000
-1.463404320237157 -5.273920685898971 -1.919429184512453 24.000000000000000
-1.480134482100691 -5.269269200414616 -2.025561652593777 30.000000000000000
-1.496611946111212 -5.262486793216230 -2.132315509952024 27.000000000000000
-1.509712561239316 -5.243130819412490 -2.234538698023179 25.000000000000000
-1.524683314776038 -5.228783949108696 -2.340158798711495 27.000000000000000
-1.540178286019301 -5.216043111996121 -2.447456046811152 25.000000000000000
-1.557868068713838 -5.207967616815265 -2.558551227293555 24.000000000000000
-1.573435311701642 -5.194250333377993 -2.668776647472203 21.000000000000000
-1.587318624041476 -5.171383626421750 -2.775537961215467 22.000000000000000
-1.603299572412747 -5.156709608100542 -2.888105347598086 19.000000000000000
-1.620448350601694 -5.146391115498452 -3.005292270204489 20.000000000000000
-1.574423332411533 -4.939214851666903 -3.004897971550990 2.000000000000000
-1.580110722644865 -4.890115633951037 -3.096775611950334 3.000000000000000
-1.394624532854013 -4.091125805996445 -3.025539299343449 50.000000000000000
-1.389834231440757 -5.533630188399370 -1.042735703402657 4.000000000000000
-1.405918795317258 -5.526050401747359 -1.145432363049657 22.000000000000000
-1.384579374133500 -5.372998101430837 -1.215002616764546 42.000000000000000
-1.398337276248568 -5.358698848632231 -1.314482221835403 41.000000000000000
-1.412930225409561 -5.346403065882963 -1.414519860320577 39.000000000000000
-1.427595433415956 -5.336321915051404 -1.515131577597148 40.000000000000000
-1.442000137867373 -5.324312346005000 -1.616118078782989 39.000000000000000
-1.456282945305287 -5.310479293579258 -1.716937289384472 38.000000000000000
-1.469698764556647 -5.294894407390270 -1.817972154915447 35.000000000000000
-1.484954772000625 -5.284673644414887 -1.921715326769097 22.000000000000000
-1.498764646511425 -5.269064000414051 -2.023924181857649 29.000000000000000
-1.513317239921391 -5.255062479535483 -2.127818899139464 27.000000000000000
-1.529613753689470 -5.246378338993170 -2.234504886695771 23.000000000000000
-1.545745086780067 -5.235475338098454 -2.341809153380813 27.000000000000000
-1.560324914514311 -5.219124119654668 -2.447634283299855 24.000000000000000
-1.576060337286133 -5.204026533758861 -2.555426705888325 24.000000000000000
-1.592799157647141 -5.193717152111671 -2.667395168935340 21.000000000000000
-1.608887247900974 -5.177595857130179 -2.777849341445650 19.000000000000000
-1.624996475918962 -5.162794175366127 -2.890577581739772 19.000000000000000
-1.641228742028746 -5.149011947366714 -3.005977408799604 20.000000000000000
-1.594627548489580 -4.941893140580233 -3.005803581188256 2.000000000000000
-1.599248083290366 -4.889462020566821 -3.095736215753323 3.000000000000000
-1.410363489788833 -4.087724084263602 -3.022840160776279 54.000000000000000
-1.406774878230150 -5.529901317990753 -1.039796064266776 27.000000000000000
-1.421027344093541 -5.514697961598710 -1.140899504635484 8.000000000000000
-1.402303847624530 -5.373094844279696 -1.212951653328518 43.000000000000000
-1.416171298314031 -5.358755972841081 -1.312482105543377 39.000000000000000
-1.430880040492219 -5.346417178415296 -1.412568463497189 40.000000000000000
-1.446676195525092 -5.340015815182183 -1.514283685081896 39.000000000000000
-1.460189083602290 -5.324237910310876 -1.614262219881637 38.000000000000000
-1.474583447929894 -5.310359585533881 -1.715129361715790 40.000000000000000
-1.488105594685278 -5.294730838875727 -1.816213391351552 35.000000000000000
-1.504519911523005 -5.288092291974323 -1.921321354535091 18.000000000000000
-1.518442471684579 -5.272410121969236 -2.023642252459847 30.000000000000000
-1.533114157171239 -5.258332005966674 -2.127646938781812 27.000000000000000
-1.548499634341379 -5.246013124025157 -2.232926148577338 24.000000000000000
-1.562652086581484 -5.228008496788196 -2.337122507232550 27.000000000000000
-1.579447312176427 -5.218650467773062 -2.446141754533178 24.000000000000000
-1.596359867500155 -5.206958254470255 -2.555675431199933 23.000000000000000
-1.611106705696855 -5.189696907765105 -2.664223186670353 18.000000000000000
-1.628375726340761 -5.176946325954095 -2.776478926996314 19.000000000000000
-1.643535839337747 -5.158721784388299 -2.887364801352606 19.000000000000000
-1.662041477414000 -5.151569521011098 -3.006628277247619 20.000000000000000
-1.615939698165649 -4.947801780845042 -3.008677521662789 2.000000000000000
-1.618394078645712 -4.888752121569867 -3.094667558890715 3.000000000000000
-1.427170204701581 -4.087374439941208 -3.022408872824347 60.000000000000000
-1.422718967824186 -5.522313511818977 -1.036117858052275 8.000000000000000
-1.437064577598397 -5.507103203925765 -1.137134864966560 22.000000000000000
-1.420037355351721 -5.373139088871651 -1.210873338151110 42.000000000000000
-1.434014362635238 -5.358760291619857 -1.310454480214449 40.000000000000000
-1.448838889261512 -5.346378160860412 -1.410589392430811 38.000000000000000
-1.463748294888202 -5.336208523740624 -1.511295973782036 39.000000000000000
-1.480441767328111 -5.331509413553972 -1.614619319448336 37.000000000000000
-1.492892919089179 -5.310185770715546 -1.713293265212799 39.000000000000000
-1.507561065747343 -5.298166778055197 -1.815678502641628 35.000000000000000
-1.520981947263423 -5.280563077106404 -1.916942227819951 28.000000000000000
-1.537102584805146 -5.272092219493446 -2.021945417893865 29.000000000000000
-1.553999695642933 -5.265117651834943 -2.128888221179723 26.000000000000000
-1.568454707452684 -5.249141302499325 -2.232828120806707 23.000000000000000
-1.583779708299986 -5.234577250925323 -2.338706232016391 26.000000000000000
-1.598578252834892 -5.218120445207482 -2.444619927283382 23.000000000000000
-1.616692025765366 -5.209827902818391 -2.555890474343845 20.000000000000000
-1.631552271367231 -5.192479749511301 -2.664543344873842 18.000000000000000
-1.648952995482847 -5.179633677893433 -2.776898446382273 19.000000000000000
-1.665309592590045 -5.164677764666555 -2.889766694386667 19.000000000000000
-1.680714843874706 -5.147413267627978 -3.003364491004495 20.000000000000000
-1.631872541369085 -4.937196940173135 -3.001515347731980 2.000000000000000
-1.637548499263314 -4.887985874136906 -3.093569622103004 3.000000000000000
-1.443987156854719 -4.086975118570385 -3.021951599715853 51.000000000000000
-1.438624870170009 -5.514683202716910 -1.032420290676377 22.000000000000000
-1.460078215736187 -5.526014825355481 -1.138822090532170 4.000000000000000
-1.437779701241139 -5.373130772307204 -1.208767651115932 43.000000000000000
-1.452884411057412 -5.362469604261062 -1.309316856793100 38.000000000000000
-1.466806573341860 -5.346285950016086 -1.408582626991298 39.000000000000000
-1.482870690895028 -5.339790075402864 -1.510388183452705 37.000000000000000
-1.496593761615620 -5.323927585932874 -1.610466445610140 39.000000000000000
-1.511211156887855 -5.309957785725917 -1.711428979860511 37.000000000000000
-1.528100943382504 -5.305194038032932 -1.816361122038604 34.000000000000000
-1.540576692639200 -5.283869489904427 -1.916489151483511 28.000000000000000
-1.555771331649687 -5.271719177611958 -2.020219907835595 29.000000000000000
-1.571738741040118 -5.261114586293243 -2.125759779421488 27.000000000000000
-1.586297315676897 -5.245115465881352 -2.229681720750412 24.000000000000000
-1.603886899802449 -5.237561539659377 -2.338681665153037 24.000000000000000
-1.620961612520330 -5.227996958465203 -2.447967984474896 20.000000000000000
-1.635970987981820 -5.209178659214690 -2.554376758206200 20.000000000000000
-1.650941114841051 -5.191775403182397 -2.663072961493479 18.000000000000000
-1.668469771229639 -5.178866615190841 -2.775466303984731 19.000000000000000
-1.684948408499217 -5.163850101271822 -2.888374108783512 19.000000000000000
-1.701567421694410 -5.149849271297485 -3.003950863836658 19.000000000000000
-1.654336750043297 -4.946271193121794 -3.006321872579462 2.000000000000000
-1.656711135374909 -4.887163216053284 -3.092442386460980 3.000000000000000
-1.464129169362665 -4.095799562172177 -3.028324903627680 52.000000000000000
-1.462652776138065 -4.037223536606271 -3.099853056505737 37.000000000000000
-1.458513161133279 -5.522233776760400 -1.031547126217503 3.000000000000000
-1.479161945130601 -5.529686050343632 -1.137342571397244 26.000000000000000
-1.454508546561557 -5.369296609061003 -1.205787216678544 42.000000000000000
-1.469726828942448 -5.358610261145033 -1.306316622200738 40.000000000000000
-1.484782894036345 -5.346140483257690 -1.406548147363000 38.000000000000000
-1.500980948575070 -5.339596791325317 -1.508398587271637 37.000000000000000
-1.515860312758962 -5.327386013562872 -1.609642747536542 37.000000000000000
-1.530595730863842 -5.313347542559121 -1.710718738028649 38.000000000000000
-1.545506266243638 -5.301210394890568 -1.813263006324742 33.000000000000000
-1.559134573780271 -5.283491777135259 -1.914690058935677 28.000000000000000
-1.575523215422346 -5.274889084409958 -2.019843495134686 29.000000000000000
-1.593781242935505 -5.271346936878833 -2.128374689927764 26.000000000000000
-1.607377901714090 -5.251670171308538 -2.231026824775839 21.000000000000000
-1.621847980760410 -5.233454626109849 -2.335486631037053 20.000000000000000
-1.639051783431324 -5.223860832050535 -2.444750142366065 19.000000000000000
-1.656355603208377 -5.211926429407558 -2.554526376877558 19.000000000000000
-1.672540025339575 -5.197857666761887 -2.665081901128321 18.000000000000000
-1.687994327738392 -5.178042023021525 -2.774004318191695 20.000000000000000
-1.704594882805242 -5.162964576574092 -2.886951517874051 19.000000000000000
-1.722451622441140 -5.152221594791425 -3.004502795224994 19.000000000000000
-1.674658654789231 -4.948704844090900 -3.007095401880489 2.000000000000000
-1.678108862311656 -4.892777486492599 -3.095393854407260 3.000000000000000
-1.481001709846823 -4.095292547294583 -3.027809255469083 52.000000000000000
-1.478456129649447 -5.529720494208665 -1.030638020175196 25.000000000000000
-1.495200574066606 -5.521936249184606 -1.133498700154495 9.000000000000000
-1.474324009419773 -5.376726702551008 -1.205319327532485 41.000000000000000
-1.489679303134766 -5.365960627495564 -1.306032969713754 41.000000000000000
-1.503817071080526 -5.349674898049600 -1.405466720312076 38.000000000000000
-1.519099612540245 -5.339349814791703 -1.506381068144406 36.000000000000000
-1.533032814888443 -5.323401571421963 -1.606558463877799 37.000000000000000
-1.550012547016124 -5.316677463776747 -1.709975979439783 36.000000000000000
-1.565047222066595 -5.304468978607064 -1.812632353152996 32.000000000000000
-1.578782091877468 -5.286680143373085 -1.914173494757397 28.000000000000000
-1.594220625119743 -5.274402791932737 -2.018058420089708 28.000000000000000
-1.611536763628894 -5.267232607542847 -2.125188442823338 25.000000000000000
-1.625224814133211 -5.247535266202235 -2.227824484444299 18.000000000000000
-1.643096755488162 -5.239832861369269 -2.336965690167276 19.000000000000000
-1.658231206945539 -5.223155736884770 -2.443135979138217 19.000000000000000
-1.675662416262312 -5.211160569151791 -2.552951427121858 19.000000000000000
-1.689742311870753 -5.190195112606968 -2.660043159902565 18.000000000000000
-1.707526450841938 -5.177159840774504 -2.772512471161642 19.000000000000000
-1.726488084348288 -5.168725053849185 -2.889246305235178 19.000000000000000
-1.777022934705021 -5.254038378822273 -3.063032191047784 20.000000000000000
-1.693889124331724 -4.947795242342871 -3.005841957641809 2.000000000000000
-1.697311289398036 -4.891836268636317 -3.094203662937573 3.000000000000000
-1.497883895634190 -4.094735557023601 -3.027267506059938 55.000000000000000
-1.494339708874061 -5.521941606851400 -1.026865972269779 8.000000000000000
-1.510163104132854 -5.510359177592169 -1.128860103308456 25.000000000000000
-1.492103424944766 -5.376557570059791 -1.203129280294036 39.000000000000000
-1.507580123994657 -5.365747557246936 -1.303890839616113 40.000000000000000
-1.521821891488614 -5.349419952772827 -1.403374611236064 39.000000000000000
-1.537226482109519 -5.339049084283589 -1.504335606941404 36.000000000000000
-1.553414783560726 -5.330435290365990 -1.606786272481759 36.000000000000000
-1.567298087531691 -5.312614585248371 -1.706844742038883 37.000000000000000
-1.583532609478399 -5.304024351707294 -1.810725310811817 32.000000000000000
-1.597368308016899 -5.286189685275223 -1.912315115202796 29.000000000000000
-1.612926039646107 -5.273861139761480 -2.016244595565050 25.000000000000000
-1.629276157068082 -5.263068145920027 -2.121977590694914 18.000000000000000
-1.646381541723013 -5.253964039583098 -2.229100645964963 16.000000000000000
-1.663288165446971 -5.242634345933252 -2.336842654849718 19.000000000000000
-1.678535843818878 -5.225873232178645 -2.443118986503515 19.000000000000000
-1.693855037779104 -5.206889401484803 -2.549658383332085 19.000000000000000
-1.711404606882627 -5.196151593546627 -2.661984013555258 18.000000000000000
-1.729323528578169 -5.182986309126650 -2.774612955514995 19.000000000000000
-1.784650216299047 -5.281588625140001 -2.951391061898696 19.000000000000000
-1.808535131892393 -5.286025330429659 -3.080833796680205 19.000000000000000
-1.714262447594947 -4.950107102992230 -3.006550170822306 2.000000000000000
-1.716521278999027 -4.890838389413500 -3.092984084566667 3.000000000000000
-1.514775539050839 -4.094128526653445 -3.026699633848020 49.000000000000000
-1.510184475582821 -5.514120502071747 -1.023074747191359 28.000000000000000
-1.531356496395324 -5.521435957982496 -1.128845535423582 4.000000000000000
-1.509890880356720 -5.376335597400161 -1.200911767593044 40.000000000000000
-1.524423690659086 -5.361734460905021 -1.300812047184711 39.000000000000000
-1.539834739628852 -5.349111533798573 -1.401254714038534 38.000000000000000
-1.556441468339569 -5.342401965630898 -1.503305422479439 35.000000000000000
-1.571678459914402 -5.330031475998969 -1.604757702427798 36.000000000000000
-1.585661284827911 -5.312166459758280 -1.704865330053104 35.000000000000000
-1.602025889601430 -5.303524911846774 -1.808789804943464 32.000000000000000
-1.618173000752188 -5.292874839285766 -1.913041576989988 24.000000000000000
-1.633860680779694 -5.280443459876868 -2.017144551797348 20.000000000000000
-1.649230954470755 -5.265979410988772 -2.121613089575440 19.000000000000000
-1.663111228347415 -5.246184656183113 -2.224343407698915 7.000000000000000
-1.680135161676317 -5.234854864459194 -2.332000082878817 19.000000000000000
-1.697742450235393 -5.225051843421850 -2.441443795425697 19.000000000000000
-1.715432325339006 -5.212903088370638 -2.551399092348720 20.000000000000000
-1.733122311928162 -5.202039267921691 -2.663886353975624 18.000000000000000
-1.788823292312624 -5.300293159907248 -2.836368743291370 19.000000000000000
-1.810469607329510 -5.297157621372854 -2.959145980729510 18.000000000000000
-1.831126938011463 -5.291405571416407 -3.083125883851026 19.000000000000000
-1.733519860156560 -4.949081084362636 -3.005235650468484 2.000000000000000
-1.735738619849971 -4.889783789112204 -3.091735101734431 3.000000000000000
-1.533981458042560 -4.099631619855236 -3.030659576373557 53.000000000000000
-1.530197022696317 -5.521436524999875 -1.022074249811937 3.000000000000000
-1.553687902100610 -5.536221207697412 -1.129561260980394 15.000000000000000
-1.527686177889527 -5.376060724567640 -1.198666770894460 38.000000000000000
-1.544482706035534 -5.368905818637776 -1.300430498471404 38.000000000000000
-1.557855415424154 -5.348749580853041 -1.399107010188304 37.000000000000000
-1.573504033762123 -5.338286118197662 -1.500160783380394 34.000000000000000
-1.589949900451782 -5.329573426580188 -1.602700971717333 35.000000000000000
-1.605137690126309 -5.315324514102454 -1.704031192648035 34.000000000000000
-1.618303912606489 -5.295696290552586 -1.804347318192955 23.000000000000000
-1.634564107632142 -5.285043435033161 -1.908512527560042 21.000000000000000
-1.652605443712627 -5.279785134467430 -2.015268761547239 20.000000000000000
-1.668089410522193 -5.265269049638695 -2.119781958933646 18.000000000000000
-1.683198415480032 -5.248957466361254 -2.224055891936160 5.000000000000000
-1.701490854865558 -5.241043904399968 -2.333376022624904 19.000000000000000
-1.718097895096461 -5.227647134556910 -2.441361312756480 19.000000000000000
-1.738210689710258 -5.222290579229484 -2.554785451709782 19.000000000000000
-1.792820188445712 -5.320404899431932 -2.723359593957834 18.000000000000000
-1.814585769902063 -5.316017692443532 -2.843738802579500 19.000000000000000
-1.834104079811590 -5.305951597742387 -2.963113880166183 18.000000000000000
-1.851457158420531 -5.290097631280790 -3.081523883089462 18.000000000000000
-1.753943667584563 -4.951270644154355 -3.005878344057744 2.000000000000000
-1.757286016459775 -4.895143186145891 -3.094547308328698 3.000000000000000
-1.545093394304747 -4.083532290837702 -3.018661033067744 46.000000000000000
-1.551326561331718 -5.532479896629086 -1.021737781185434 12.000000000000000
-1.568614456659710 -5.524496886243295 -1.124849696735657 15.000000000000000
-1.545489119468358 -5.375732892135326 -1.196394271976960 38.000000000000000
-1.562418772212746 -5.368530152879202 -1.298203211313241 37.000000000000000
-1.578077015242149 -5.355777783772417 -1.398875714570186 36.000000000000000
-1.592758095379788 -5.341525443348226 -1.499070241071343 34.000000000000000
-1.608228902258746 -5.329061082331537 -1.600616062245739 34.000000000000000
-1.623528062065194 -5.314764399937193 -1.701992950880553 25.000000000000000
-1.639035308092404 -5.302361352315515 -1.804833329783453 20.000000000000000
-1.655431712456061 -5.291606631378499 -1.909172884823658 20.000000000000000
-1.671357567756052 -5.279071200823185 -2.013364134314464 20.000000000000000
-1.686955162136175 -5.264502766673465 -2.117921835344626 18.000000000000000
-1.701027432042058 -5.244609546278642 -2.220745906789728 13.000000000000000
-1.719453616291187 -5.236663368273931 -2.330041207532838 19.000000000000000
-1.744252429107413 -5.247532620056881 -2.449344578656064 17.000000000000000
-1.795803127935706 -5.334790679111737 -2.608584968092638 19.000000000000000
-1.816205556310581 -5.329465082326594 -2.726854472370714 18.000000000000000
-1.835815180943572 -5.318155992504749 -2.843838156576945 18.000000000000000
-1.854313548196433 -5.304647092171249 -2.961442974715917 18.000000000000000
-1.875302938311198 -5.298646067016699 -3.085665689288108 18.000000000000000
-1.775569570773700 -4.956666974873460 -3.008471572001520 3.000000000000000
-1.775367917766986 -4.890736665821615 -3.091191941978335 3.000000000000000
-1.566681520761227 -4.095080941215286 -3.027111675739866 5.000000000000000
-1.567158377935421 -5.524507162951545 -1.017869945014532 13.000000000000000
-1.584562009915873 -5.516509132544448 -1.120889926480317 30.000000000000000
-1.564391959197323 -5.379108401870973 -1.194928700349885 38.000000000000000
-1.580362260644664 -5.368101093655118 -1.295948214022771 35.000000000000000
-1.593919448122213 -5.347864834875409 -1.394728109991617 38.000000000000000
-1.612043193470966 -5.344704928119315 -1.497947253317366 33.000000000000000
-1.625392753304729 -5.324817024244259 -1.597399779586496 22.000000000000000
-1.641925755808563 -5.314149621137562 -1.699926356221343 21.000000000000000
-1.658686344667878 -5.305328413070047 -1.804047127844496 20.000000000000000
-1.672930842906456 -5.287282944915243 -1.905895447095846 19.000000000000000
-1.691263464289442 -5.281882537233007 -2.012795259640855 20.000000000000000
-1.708131616758674 -5.270788782049457 -2.118890274377371 19.000000000000000
-1.723466246889131 -5.254316817075019 -2.223380057848079 18.000000000000000
-1.751335651746660 -5.274201872942822 -2.345344758957101 18.000000000000000
-1.797366761387905 -5.347080978531514 -2.494478248869777 18.000000000000000
-1.819099275818739 -5.343939208384091 -2.611817673921931 20.000000000000000
-1.837322596880253 -5.331639379713550 -2.726822913150193 17.000000000000000
-1.857074595325708 -5.320229058069610 -2.843902374742777 19.000000000000000
-1.875708567147738 -5.306620379041022 -2.961603876934774 17.000000000000000
-1.797250022327693 -4.961994447651970 -3.011026313188596 3.000000000000000
-1.796988678832959 -4.895967664224538 -3.093934116786246 3.000000000000000
-1.584808949515446 -4.097341670322545 -3.028707286974791 49.000000000000000
-1.581864302782640 -5.512706272799259 -1.013287164342710 31.000000000000000
-1.604851737247693 -5.523560490121825 -1.119968934130861 4.000000000000000
-1.584429537179253 -5.386178416969795 -1.194263414110425 34.000000000000000
-1.598312971284302 -5.367618582601292 -1.293665489041760 35.000000000000000
-1.613082599577676 -5.351057936677945 -1.393464561894455 36.000000000000000
-1.630231683843419 -5.344128612525719 -1.495757343213453 22.000000000000000
-1.644808776482550 -5.327873273197072 -1.596361636208502 21.000000000000000
-1.661471687371051 -5.317131995470649 -1.698998285698576 21.000000000000000
-1.678368254693529 -5.308234467299365 -1.803227895140278 19.000000000000000
-1.693872367978141 -5.293720693908454 -1.906487245141052 20.000000000000000
-1.707724502402915 -5.273898323323809 -2.008105948184762 20.000000000000000
-1.728199026791539 -5.273455646604603 -2.118394124588436 18.000000000000000
-1.760007695313976 -5.306230545786924 -2.243850776543169 18.000000000000000
-1.799914911395944 -5.360540578180009 -2.382311277188618 19.000000000000000
-1.818210306209037 -5.349388611348699 -2.494219069602363 18.000000000000000
-1.837746124905390 -5.339276689177232 -2.608297072191709 18.000000000000000
-1.857284294859444 -5.330347040369387 -2.725017335228123 18.000000000000000
-1.878363757441808 -5.322236731856808 -2.843931392421986 18.000000000000000
-1.944799837357674 -5.441908015195748 -3.036144717690814 6.000000000000000
-1.814204228420738 -4.954198261625431 -3.005622498266852 3.000000000000000
-1.815071813537174 -4.891450104858897 -3.090521992055513 3.000000000000000
-1.600568855887859 -4.093409069615999 -3.025735865264401 71.000000000000000
-1.603095581494472 -5.523569029972713 -1.012852273393904 4.000000000000000
-1.627408769440527 -5.538080938110356 -1.120535684432582 17.000000000000000
-1.603405024328878 -5.389432952711719 -1.192731644663611 32.000000000000000
-1.616270703781818 -5.367082561938691 -1.291355019129228 34.000000000000000
-1.633408241930040 -5.357904338615913 -1.393134097434915 23.000000000000000
-1.648427146188482 -5.343498119471647 -1.493539350305803 19.000000000000000
-1.664255422956155 -5.330869089167999 -1.595290770146363 20.000000000000000
-1.679895272146871 -5.316404706586261 -1.696872673598715 21.000000000000000
-1.696921697767409 -5.307454046019224 -1.801145274829419 19.000000000000000
-1.714868360870478 -5.300090955277817 -1.907041260871846 21.000000000000000
-1.729997023159331 -5.283745021219516 -2.010197216841630 20.000000000000000
-1.770635679285318 -5.343474652609571 -2.144925156773740 29.000000000000000
-1.801637126778086 -5.372078452767467 -2.270174610184490 18.000000000000000
-1.820651487783377 -5.362875745582770 -2.381916853601783 18.000000000000000
-1.839083782277358 -5.351631890837512 -2.493925208729269 18.000000000000000
-1.859956264396116 -5.344853251429158 -2.609775931995083 20.000000000000000
-1.879646140495954 -5.335792783606086 -2.726654682378369 18.000000000000000
-1.941710782841217 -5.441970424988519 -2.906843843302977 5.000000000000000
-1.994415838487888 -5.520252411086108 -3.078880118011527 8.000000000000000
-1.840773441186925 -4.972441780282636 -3.016019873926642 3.000000000000000
-1.837974144671114 -4.899775607594380 -3.095230207713733 3.000000000000000
-1.619948346829149 -4.098628571662253 -3.029540424744213 72.000000000000000
-1.626621829522380 -5.541921088776482 -1.013759374553827 13.000000000000000
-1.644471662827112 -5.533701388881367 -1.117256411416404 15.000000000000000
-1.625793010153912 -5.403870663137440 -1.193651098192936 29.000000000000000
-1.636506606003026 -5.373951616551814 -1.290808332584126 23.000000000000000
-1.651500279693136 -5.357264789441607 -1.390840322245035 22.000000000000000
-1.667780364570972 -5.346503179874651 -1.492323156404725 19.000000000000000
-1.683732453758436 -5.333804314454636 -1.594187115512389 19.000000000000000
-1.699490384527210 -5.319268377191309 -1.695880999454886 22.000000000000000
-1.715481776153764 -5.306618391303140 -1.799034053254024 19.000000000000000
-1.732387861917545 -5.295600805058949 -1.903677601207663 19.000000000000000
-1.773631190332018 -5.357811319424020 -2.036686099067129 20.000000000000000
-1.799304388575063 -5.370774281049002 -2.154271881466471 132.000000000000000
-1.821067906680657 -5.370924217392901 -2.268159767362119 17.000000000000000
-1.841417845176323 -5.365146770365265 -2.381487865160212 19.000000000000000
-1.859986936621488 -5.353810660080105 -2.493596601619844 18.000000000000000
-1.879808331893216 -5.343503746325394 -2.607869695431755 19.000000000000000
-1.943173904074226 -5.456615091704119 -2.787222796891518 5.000000000000000
-1.990158282847987 -5.517712571020291 -2.946220289254725 8.000000000000000
-2.010573925823770 -5.505193001807149 -3.069511117694667 7.000000000000000
-1.858958872441640 -4.967788424192324 -3.012532171285686 3.000000000000000
-1.857290663731487 -4.898364225013395 -3.093793029522948 3.000000000000000
-1.639383124884725 -4.103785503972648 -3.033309662271091 69.000000000000000
-1.642422033031930 -5.533748386837821 -1.009791392605959 18.000000000000000
-1.658126706526438 -5.517989396052577 -1.111680192391271 25.000000000000000
-1.651698065813579 -5.429464167318062 -1.197001401501628 27.000000000000000
-1.655648528182246 -5.377028617278562 -1.289331299587260 21.000000000000000
-1.670754334879497 -5.360278227134884 -1.389479499735448 22.000000000000000
-1.686000933464187 -5.345761104027272 -1.490046667399048 19.000000000000000
-1.699730206842779 -5.325682887967050 -1.589768222339705 20.000000000000000
-1.717938992359702 -5.318428214612774 -1.693696237387602 21.000000000000000
-1.734048282888196 -5.305727446436601 -1.796894214121092 19.000000000000000
-1.779609531874776 -5.380922925827021 -1.932563680805785 19.000000000000000
-1.805828573073196 -5.396004080604793 -2.049494358803863 18.000000000000000
-1.814974450329669 -5.359005742015286 -2.147936032962269 44.000000000000000
-1.844117987664962 -5.380254888891868 -2.270564286279001 17.000000000000000
-1.863422960828408 -5.370838790618486 -2.382570367113057 19.000000000000000
-1.880919515504499 -5.355924762915651 -2.493233184076701 17.000000000000000
-1.944721943664024 -5.468798900145391 -2.667740458065625 6.000000000000000
-1.988029265919782 -5.522876112806520 -2.819879976246790 7.000000000000000
-2.009766805733677 -5.512627897486039 -2.942425368710258 8.000000000000000
-2.030323243770760 -5.500072157437115 -3.065689121354155 6.000000000000000
-1.880818945707631 -4.972847129126822 -3.014938726376105 4.000000000000000
-1.875379996066890 -4.893678144114359 -3.090294499262098 3.000000000000000
-1.656402530471659 -4.102760649434478 -3.032520685914453 67.000000000000000
-1.655916858339510 -5.517985387008098 -1.004430498855996 32.000000000000000
-1.679688157007814 -5.528556064787141 -1.111382712531112 4.000000000000000
-1.674320137674749 -5.443737092331303 -1.197822418454899 30.000000000000000
-1.673661159800223 -5.376322518432996 -1.286930650799197 22.000000000000000
-1.688871063102545 -5.359527575576021 -1.387127499134488 22.000000000000000
-1.704227852360858 -5.344964647230172 -1.487742029754197 19.000000000000000
-1.720413503288307 -5.332167959215987 -1.589697528592677 21.000000000000000
-1.736393871897419 -5.317533033475342 -1.691483005984872 21.000000000000000
-1.782488444428830 -5.395183015490353 -1.825310706384561 19.000000000000000
-1.806996248472576 -5.404986704089230 -1.939402817009577 19.000000000000000
-1.826231258334183 -5.398414791579546 -2.048690588922182 18.000000000000000
-1.840270699428788 -5.375509427747133 -2.152923162824341 17.000000000000000
-1.862379379159788 -5.375464687892372 -2.267002081450864 18.000000000000000
-1.883038892447714 -5.369495767277585 -2.380525936577333 18.000000000000000
-1.945997066952237 -5.482256947024373 -2.550658382107705 7.000000000000000
-1.984701321788300 -5.521956205832871 -2.692377448307651 6.000000000000000
-2.008705093117557 -5.521165326986381 -2.817817112760685 8.000000000000000
-2.028118955103514 -5.504131637409485 -2.936812629708915 8.000000000000000
-2.057489414456988 -5.514828622030501 -3.072946888416818 4.000000000000000
-1.906460591248451 -4.987589872885142 -3.023218694357090 4.000000000000000
-1.898430646880481 -4.901798123135891 -3.094888728049267 3.000000000000000
-1.674676597957346 -4.104741428046725 -3.033964419885463 68.000000000000000
-1.673902002239216 -5.517277861763390 -1.001798923434813 5.000000000000000
-1.702478328664256 -5.542805375402759 -1.111796793858853 14.000000000000000
-1.697041253223185 -5.457931438011736 -1.198597264648068 31.000000000000000
-1.692850686014362 -5.379282698234569 -1.285391071750118 21.000000000000000
-1.708172822888078 -5.362423571900500 -1.385703807699347 21.000000000000000
-1.723647185028051 -5.347794273079337 -1.486432236721446 20.000000000000000
-1.739956679132164 -5.334926736286047 -1.588499755493744 20.000000000000000
-1.786062905152583 -5.411132129974755 -1.719282516281945 20.000000000000000
-1.807395932276139 -5.412167326099540 -1.829160675909097 20.000000000000000
-1.826067048681933 -5.403832398387769 -1.937175919696701 19.000000000000000
-1.844226973032535 -5.393637023376199 -2.045150980246884 18.000000000000000
-1.864468059184385 -5.388388566358390 -2.156442328053170 17.000000000000000
-1.885535664324935 -5.384654553419256 -2.269328226348049 17.000000000000000
-1.943351998992544 -5.482901375617945 -2.429319146028067 8.000000000000000
-1.979790916993025 -5.518618634259593 -2.566179318480043 5.000000000000000
-2.005201234025777 -5.520262009423591 -2.690255630674547 9.000000000000000
-2.025649962396420 -5.509234870648989 -2.810540405307955 8.000000000000000
-2.055167425738218 -5.519057434038371 -2.943696297509363 4.000000000000000
-2.081024425959705 -5.519534302050014 -3.074602808014777 8.000000000000000
-1.928462367068005 -4.992498768401816 -3.025540108197015 4.000000000000000
-1.917787675132023 -4.900208411357069 -3.093358039150518 3.000000000000000
-1.691722957527594 -4.103611871866111 -3.033120347110152 68.000000000000000
-1.699982485848585 -5.542893333763248 -1.003916848315145 10.000000000000000
-1.717211583892578 -5.530710225887266 -1.106907752891433 11.000000000000000
-1.717513133588975 -5.464576384906564 -1.197688427543192 31.000000000000000
-1.710887134736912 -5.378465741407622 -1.282932375730022 21.000000000000000
-1.728694504147688 -5.368956720810996 -1.385201444335091 21.000000000000000
-1.743095931696517 -5.350563095216205 -1.485089605718603 20.000000000000000
-1.786042755233554 -5.418054321861415 -1.611186718489381 19.000000000000000
-1.808472903229907 -5.420944273284715 -1.720410690569213 21.000000000000000
-1.827553743106937 -5.414624553664119 -1.828083219909166 19.000000000000000
-1.847591970627125 -5.409791285974537 -1.937487587642343 18.000000000000000
-1.865894170387051 -5.399486350552525 -2.045631954950007 19.000000000000000
-1.886295165306773 -5.394119684085068 -2.157087708718934 17.000000000000000
-1.944736138756084 -5.495404231137929 -2.314415193306383 10.000000000000000
-1.977066188199713 -5.519569914060312 -2.444066539862959 4.000000000000000
-2.003857047530154 -5.527282484929884 -2.568805415918272 10.000000000000000
-2.023198144228677 -5.511677146404934 -2.684775652263556 10.000000000000000
-2.048811898887886 -5.514176940404409 -2.811871702778718 4.000000000000000
-2.077296776873619 -5.520490312644519 -2.943380506966179 10.000000000000000
-2.098294184435541 -5.507585766877970 -3.066984925956957 7.000000000000000
-1.956849537486855 -5.013562124361492 -3.037652829538847 5.000000000000000
-1.937149840102439 -4.898561180631601 -3.091797673943141 3.000000000000000
-1.711317548594791 -4.108531670701264 -3.036758758728820 73.000000000000000
-1.715724951795801 -5.534526309216860 -0.999853200410793 14.000000000000000
-1.733057453269951 -5.522328453070960 -1.102753063957828 28.000000000000000
-1.738036974159875 -5.471154482726263 -1.196742287461054 30.000000000000000
-1.727735336530693 -5.373881000304391 -1.279561487960096 22.000000000000000
-1.744459690968107 -5.360645085646293 -1.380855043921588 21.000000000000000
-1.787978141343175 -5.430428605756747 -1.505099107652994 18.000000000000000
-1.810770938215597 -5.435231129610469 -1.614210388092925 19.000000000000000
-1.829735070202345 -5.427050994131291 -1.720345046777005 21.000000000000000
-1.848970604623631 -5.420625379306694 -1.828188228945225 19.000000000000000
-1.867933180618161 -5.412098606753769 -1.936478841485139 18.000000000000000
-1.885130171815402 -5.398153336128733 -2.043381705642257 18.000000000000000
-1.945589921920299 -5.505658265040386 -2.200001573707314 12.000000000000000
-1.975902860363814 -5.525354772909294 -2.325426094266292 4.000000000000000
-1.999734359686719 -5.524854705399036 -2.444900606347519 12.000000000000000
-2.019170281815938 -5.511767646480927 -2.560192333446344 9.000000000000000
-2.043682132387117 -5.509867707235281 -2.682595979741911 5.000000000000000
-2.074562837227176 -5.525804191289938 -2.816607369499427 9.000000000000000
-2.098180976627844 -5.518508255739818 -2.941244502017555 7.000000000000000
-2.121871641918129 -5.512157172791520 -3.068569705525144 4.000000000000000
-1.986686043874922 -5.037764175821660 -3.051666212396192 4.000000000000000
-1.960358255480633 -4.906470625123084 -3.096274780276007 3.000000000000000
-1.729683975171812 -4.110340819192525 -3.038109230444744 73.000000000000000
-1.731426684225474 -5.526117806491697 -0.995770870194232 27.000000000000000
-1.753614707859689 -5.528888349711104 -1.101564829143971 4.000000000000000
-1.757415348723953 -5.473936642225566 -1.194944738876974 31.000000000000000
-1.748182767759321 -5.380380454320117 -1.278813190923292 21.000000000000000
-1.788103860858538 -5.437190336197236 -1.398323936270198 19.000000000000000
-1.812616696817908 -5.447691492233408 -1.507704916707739 18.000000000000000
-1.829478468664999 -5.434072511616020 -1.611769360420506 19.000000000000000
-1.848578071431067 -5.425834763423567 -1.717944188222805 21.000000000000000
-1.867955707596283 -5.419350038554505 -1.825826561883071 18.000000000000000
-1.888302955896006 -5.414342409876526 -1.935435923859751 18.000000000000000
-1.944489408259443 -5.510453802207405 -2.084100725709966 15.000000000000000
-1.971654745893116 -5.521728181591507 -2.204720266068988 4.000000000000000
-1.999703388002455 -5.534197967526209 -2.327535867874065 12.000000000000000
-2.017378870325706 -5.516189276733483 -2.439557000115782 11.000000000000000
-2.040757560850135 -5.513415608682591 -2.559550918377708 5.000000000000000
-2.071833746721253 -5.528447890065562 -2.690336940380629 7.000000000000000
-2.094008659972327 -5.520461762606174 -2.812690821893519 8.000000000000000
-2.113931241526807 -5.503090980161631 -2.931951631620246 6.000000000000000
-2.145499653218259 -5.516653157972935 -3.070112892495580 6.000000000000000
-2.018006963970470 -5.065094407482953 -3.067572743497958 6.000000000000000
-1.977180993656040 -4.898295452658119 -3.090607865257918 3.000000000000000
-1.746786814102508 -4.109048703462048 -3.037178720236014 78.000000000000000
-1.749467781270189 -5.525185227684492 -0.993020987731191 6.000000000000000
-1.776622285592295 -5.542866258924976 -1.101827069012128 14.000000000000000
-1.775613260241627 -5.472932280853482 -1.192302729698292 26.000000000000000
-1.793027291165106 -5.460960381446138 -1.295619097347971 19.000000000000000
-1.812633838378270 -5.454537043808024 -1.400514264722814 20.000000000000000
-1.831211578005090 -5.446527897903452 -1.505190358040972 18.000000000000000
-1.849431318664835 -5.436504164564985 -1.610379541042802 19.000000000000000
-1.869920813192781 -5.431809454476523 -1.717806218014101 21.000000000000000
-1.888199362224389 -5.421617990756050 -1.824647234619817 18.000000000000000
-1.941457630622983 -5.509479365646984 -1.967555688667006 13.000000000000000
-1.967910219951466 -5.519549351051182 -2.085738317124425 5.000000000000000
-1.996571296579831 -5.534183527845031 -2.207979107193329 11.000000000000000
-2.015923572472529 -5.521992204581339 -2.320787418634572 11.000000000000000
-2.036260253541467 -5.510942980850282 -2.435724048751058 7.000000000000000
-2.064942118323131 -5.521868807635399 -2.562062239532518 6.000000000000000
-2.091106845490984 -5.523091750106333 -2.686423957726723 9.000000000000000
-2.110848634064075 -5.508318104173962 -2.805311695213065 7.000000000000000
-2.141254905928341 -5.517698189068046 -2.938655835955106 6.000000000000000
-2.165281183481246 -5.511155377633528 -3.066096508599020 7.000000000000000
-2.049545171390705 -5.092306839720056 -3.083405850771090 7.000000000000000
-1.999177284679728 -4.902868506019301 -3.092991205468366 3.000000000000000
-1.765201960912091 -4.110745894279218 -3.038469060210859 78.000000000000000
-1.774723157490013 -5.546730975021898 -0.994282256203592 10.000000000000000
-1.791248883306492 -5.530587796770360 -1.096850974502926 12.000000000000000
-1.797476917127030 -5.483040464600653 -1.192060399454391 22.000000000000000
-1.815039137442357 -5.470964377531852 -1.295625605385298 19.000000000000000
-1.833573486562656 -5.460741708462097 -1.399818653553711 20.000000000000000
-1.851056042417763 -5.448973046160118 -1.503658295640736 18.000000000000000
-1.868160206476656 -5.435230312460482 -1.607878382666995 19.000000000000000
-1.890056004639284 -5.434094231316407 -1.716485998923591 21.000000000000000
-1.940110241441123 -5.513740029846828 -1.853663166360053 13.000000000000000
-1.963462353587624 -5.515081339603256 -1.967655814314104 5.000000000000000
-1.992683320891446 -5.532112633865593 -2.088670148411599 9.000000000000000
-2.013889979162740 -5.525436800998500 -2.202769917626296 12.000000000000000
-2.034651751682135 -5.516729892813951 -2.316955661878273 9.000000000000000
-2.065461652476558 -5.533344652093759 -2.444100882388900 5.000000000000000
-2.087904392702951 -5.526808685749252 -2.562936011307802 10.000000000000000
-2.107757134147275 -5.510877567204437 -2.679176795721810 8.000000000000000
-2.138056241422148 -5.523091210738634 -2.811639199182118 4.000000000000000
-2.164775919705402 -5.522200092970629 -2.939974719391102 8.000000000000000
-2.183730764446620 -5.502298968937036 -3.060216006239396 7.000000000000000
-2.019909162785404 -4.904175635467888 -3.093319949597632 3.000000000000000
-1.782329670763706 -4.109348070183438 -3.037483067079550 75.000000000000000
-1.789203355161625 -5.534414170606973 -0.989449918926229 15.000000000000000
-1.805811008279244 -5.518274221191712 -1.091860898699332 27.000000000000000
-1.815719060280119 -5.481917103116609 -1.189354938062260 20.000000000000000
-1.834644284536739 -5.473492021185591 -1.293839805862516 20.000000000000000
-1.852066551845039 -5.459514990531682 -1.397200613976633 20.000000000000000
-1.870928403219618 -5.451355835727858 -1.502092694310813 19.000000000000000
-1.889421237977663 -5.441179552181457 -1.607498823141515 19.000000000000000
-1.939450639007792 -5.519506300232771 -1.741378023446665 14.000000000000000
-1.961981385484355 -5.519390744587287 -1.853561666515868 7.000000000000000
-1.990651989516821 -5.534886137796607 -1.972804120600843 6.000000000000000
-2.009819604063777 -5.523333145228679 -2.083533567269600 14.000000000000000
-2.031164881110863 -5.516644199787414 -2.197539987962396 12.000000000000000
-2.061157239138955 -5.532344049185930 -2.321882029083757 4.000000000000000
-2.084397210153984 -5.527964709494072 -2.440196393917998 12.000000000000000
-2.103065026274050 -5.511097835330335 -2.554232202576777 10.000000000000000
-2.134842696130536 -5.525809680166405 -2.685123840972210 4.000000000000000
-2.161436115774118 -5.527669823161707 -2.812771630178090 8.000000000000000
-2.181747468726263 -5.509959834042384 -2.932382070935875 7.000000000000000
-2.212716112016339 -5.519788100395584 -3.068988552333587 4.000000000000000
-2.101339302295885 -5.117317171115283 -3.097263002529058 9.000000000000000
-2.039340952199391 -4.902226637291666 -3.091601280454922 3.000000000000000
-1.802121662547715 -4.113966713011791 -3.040955671759657 74.000000000000000
-1.804843762646037 -5.525811575399577 -0.985272259640832 21.000000000000000
-1.826479105478533 -5.524589930312767 -1.090541232204041 4.000000000000000
-1.840182484029179 -5.499317775315674 -1.190643704711552 20.000000000000000
-1.854277012018062 -5.475957909667926 -1.292020794819744 20.000000000000000
-1.871824475175901 -5.461910873949189 -1.395493725950810 21.000000000000000
-1.889560251417962 -5.450018386756476 -1.499487125745878 18.000000000000000
-1.933692745162459 -5.512511187704087 -1.626391334440560 13.000000000000000
-1.957345727805734 -5.514359811128249 -1.737656345556930 12.000000000000000
-1.987770585279271 -5.535740095093352 -1.857033575322310 5.000000000000000
-2.012805647184801 -5.540331234399039 -1.972815054637253 14.000000000000000
-2.028213119518393 -5.518047812620273 -2.079710527801909 16.000000000000000
