# This PCD file was generated using the MATLAB® pcwrite function
# from Computer Vision Toolbox®.
# .PCD v.7 - Point Cloud Data file format
VERSION .7
FIELDS x y z intensity
SIZE 8 8 8 8
TYPE F F F F
COUNT 1 1 1 1
WIDTH 635
HEIGHT 1
VIEWPOINT 0 0 0 1 0 0 0
POINTS 635
DATA ascii
0.830328894854810 -4.660656522215850 -2.122305046004471 35.000000000000000
0.822868993387300 -4.605409604051689 -2.195748846892613 139.000000000000000
0.819731244856297 -4.573911206312159 -2.279989684840348 64.000000000000000
0.822177724062243 -4.575989189509974 -2.382125674170799 19.000000000000000
0.836795899537543 -4.641706583097754 -2.520999131087540 3.000000000000000
0.829486046585981 -4.764505588593189 -2.068583910500955 28.000000000000000
0.815531902137537 -4.670507635539307 -2.125954407546164 34.000000000000000
0.806241481552226 -4.604494955472019 -2.194424042535353 134.000000000000000
0.803696090294836 -4.576568752842310 -2.280365550729132 62.000000000000000
0.805373911241771 -4.575164940093841 -2.380680288074660 18.000000000000000
0.822067905183873 -4.654873607619387 -2.527044925670115 3.000000000000000
0.812601505278734 -4.763528726989918 -2.067367616260001 29.000000000000000
0.798215759055890 -4.665932094033192 -2.123033983681339 37.000000000000000
0.790855122971023 -4.610668868472009 -2.196475531339591 135.000000000000000
0.788261750054116 -4.582720329182069 -2.282480623773837 62.000000000000000
0.789191690501619 -4.577799372181969 -2.381035359605890 18.000000000000000
0.803650866545452 -4.647151675817221 -2.521751491850445 3.000000000000000
0.795733886893578 -4.762502507671083 -2.066127161061459 35.000000000000000
0.782147515123586 -4.668502655420679 -2.123363421771239 35.000000000000000
0.774836547821996 -4.613231483959683 -2.196803951098605 122.000000000000000
0.772198585820425 -4.585290333749757 -2.282810088307384 60.000000000000000
0.773594021168699 -4.583898515919378 -2.383191701513786 18.000000000000000
0.788243660532048 -4.656760416930980 -2.525864278011756 3.000000000000000
0.780664352855235 -4.772314417895135 -2.069584080179237 23.000000000000000
0.767252996509491 -4.678231185863811 -2.126944242559846 25.000000000000000
0.758223108913583 -4.612176826317077 -2.195408535988953 53.000000000000000
0.757879498011864 -4.598443646215559 -2.288405274218937 35.000000000000000
0.757383974142608 -4.586444542531108 -2.383499942101649 9.000000000000000
0.772202727257929 -4.662850926204829 -2.528067283124837 1.000000000000000
0.798670388924784 -4.989058254331352 -2.162738852645631 2.000000000000000
0.805500336238302 -5.019428156365472 -2.281160711437380 2.000000000000000
0.762323668865076 -4.739754727531208 -2.255217006572463 2.000000000000000
0.740621169601734 -4.593840439564288 -2.285162204081265 0.000000000000000
0.739463927689510 -4.578404097108692 -2.378308857828257 0.000000000000000
0.736161353261504 -4.690365940659476 -2.130762728382896 0.000000000000000
0.727298649280553 -4.624227316586846 -2.199350449402435 0.000000000000000
0.723964301009531 -4.592731231471504 -2.283658364626815 0.000000000000000
0.373971812825145 -5.613560757855858 -1.521073535721743 14.000000000000000
0.353917070436610 -5.580157272055558 -1.511241716728013 31.000000000000000
0.335323437205008 -5.525739119398895 -1.391053333559048 11.000000000000000
0.334544407261737 -5.554397713013102 -1.503476666012723 36.000000000000000
0.334218511600614 -5.596274503610211 -1.621390041521708 1.000000000000000
0.315226180911724 -5.480412334550630 -1.378881103711671 32.000000000000000
0.315780498752186 -5.536287853516395 -1.497776845733250 43.000000000000000
0.316052149021195 -5.593623747894902 -1.619786531023538 52.000000000000000
0.296893504871538 -5.462135239381180 -1.373511147925418 42.000000000000000
0.297759638067791 -5.529689184541286 -1.495183172826949 44.000000000000000
0.298112340002473 -5.594758478177027 -1.619268539682197 67.000000000000000
0.278482360640961 -5.439927805156879 -1.367146316051393 27.000000000000000
0.280957810691431 -5.546179491190209 -1.498819455475738 37.000000000000000
0.279785866669140 -5.588166937856445 -1.616504297383804 63.000000000000000
0.278192130943607 -5.612622875777097 -1.730743653053417 0.000000000000000
0.265647933831958 -5.460018291909612 -1.269714703098000 0.000000000000000
0.259285048709545 -5.398287240242105 -1.355894588585325 36.000000000000000
0.266436285173958 -5.612774731900243 -1.515972135260035 41.000000000000000
0.261866163570636 -5.589199804428818 -1.615935536631847 60.000000000000000
0.260218047391443 -5.617489311219784 -1.731345259081291 35.000000000000000
0.242298260771311 -5.429275764819410 -1.991281050573177 0.000000000000000
0.239196848885964 -5.501188366636516 -2.238492220729411 1.000000000000000
0.236383807823899 -5.512977944771865 -2.356097806937917 3.000000000000000
0.231939801596020 -5.489720396421585 -2.459588156083946 1.000000000000000
0.228824807087960 -5.504258636622484 -2.581827273236526 1.000000000000000
0.247695126826916 -5.441491885682080 -1.264625312969130 22.000000000000000
0.241919859616421 -5.391467624241453 -1.353383773465383 45.000000000000000
0.249787277715467 -5.640760970601248 -1.522670676289908 0.000000000000000
0.243441841470729 -5.578664268709520 -1.612012731601405 49.000000000000000
0.241229950538544 -5.599389277025575 -1.724860526330803 62.000000000000000
0.235528172145830 -5.541835959163722 -1.814242729583216 1.000000000000000
0.229198366798467 -5.475440747358747 -1.899214766902465 6.000000000000000
0.224598046437582 -5.437773361168260 -1.993437380532751 21.000000000000000
0.220647515926068 -5.420867611798963 -2.095558400299229 7.000000000000000
0.220039191758797 -5.487402411909144 -2.231856071493824 40.000000000000000
0.215733326780246 -5.466226621680448 -2.335065235094789 3.000000000000000
0.211818417995234 -5.457927230478055 -2.444262527758450 3.000000000000000
0.208935290749523 -5.483595270256599 -2.571017105407677 4.000000000000000
0.205569773198999 -5.495856419521654 -2.693822429995996 3.000000000000000
0.230027269241406 -5.426804341052567 -1.260419810752884 44.000000000000000
0.224925226364198 -5.392351021688970 -1.352795291769946 51.000000000000000
0.226331444158878 -5.598795123580793 -1.616938849045594 56.000000000000000
0.222515716648151 -5.585052091821206 -1.719530135673158 51.000000000000000
0.215667520888072 -5.497190434109008 -1.798701990762898 50.000000000000000
0.209734080431934 -5.438612317006813 -1.885499318697081 51.000000000000000
0.205278109960916 -5.404935432925760 -1.980437795911421 51.000000000000000
0.201537189023508 -5.395714523964582 -2.084848084949639 51.000000000000000
0.199483797256258 -5.432822334557352 -2.208635709157812 35.000000000000000
0.195273638631947 -5.415729034156981 -2.312447023100103 5.000000000000000
0.192307735111414 -5.437016477655360 -2.433817897197821 4.000000000000000
0.189570357674705 -5.473731217443623 -2.565274573739474 4.000000000000000
0.186493284144161 -5.500454609017338 -2.694921770498923 4.000000000000000
0.184785676786348 -5.588360475489815 -2.859105008501410 5.000000000000000
0.186453215527248 -5.763761541568758 -3.076293888813695 7.000000000000000
0.175010432677682 -5.562955453372034 -3.094240128408320 5.000000000000000
0.213372272711604 -5.435425813289993 -1.261615829584696 7.000000000000000
0.206434231103185 -5.354414820259372 -1.342461485784837 34.000000000000000
0.208667536758016 -5.607359981243225 -1.618509159645172 53.000000000000000
0.204597880575674 -5.589763107814261 -1.720055843797698 57.000000000000000
0.196512491938291 -5.463878541166185 -1.786873842188053 58.000000000000000
0.191049463755484 -5.416830906430166 -1.877002672758268 61.000000000000000
0.186570912724256 -5.383298043286085 -1.971544945386091 56.000000000000000
0.182980241370589 -5.381690550681011 -2.078439089311658 51.000000000000000
0.179918967616143 -5.396691695735524 -2.192927702016456 46.000000000000000
0.175642792923618 -5.379871111069788 -2.296092427924171 6.000000000000000
0.173062161197167 -5.419695421753476 -2.424984747124440 5.000000000000000
0.170278875119177 -5.463810258281397 -2.559507485081284 4.000000000000000
0.167389933358720 -5.505000288173481 -2.695992662716284 4.000000000000000
0.163831483459299 -5.546616717236364 -2.836551821684495 5.000000000000000
0.160070110079255 -5.560154514319293 -2.966390961548058 3.000000000000000
0.154079751513566 -5.528995842773302 -3.074093102163478 4.000000000000000
0.195401131216711 -5.408954823832949 -1.254656172683775 25.000000000000000
0.186950893596703 -5.281519779927578 -1.323367740885784 49.000000000000000
0.191475366047461 -5.631241775478638 -1.624484302879279 51.000000000000000
0.185251414663615 -5.552390092841593 -1.707627058312106 52.000000000000000
0.178448873050164 -5.457107568415351 -1.783723349191522 61.000000000000000
0.172874862038010 -5.406326486597152 -1.872411333653328 59.000000000000000
0.168011644476949 -5.361603481024100 -1.962631957242720 57.000000000000000
0.164064285648375 -5.352690975583921 -2.066248346660472 55.000000000000000
0.161157493515744 -5.379020831693444 -2.184725876280977 50.000000000000000
0.157228576903568 -5.377050714521164 -2.293841491488091 5.000000000000000
0.153316224443643 -5.380414950615637 -2.406334368809553 3.000000000000000
0.151361958257966 -5.464696907942313 -2.558803091665718 4.000000000000000
0.148066608777302 -5.502310169673839 -2.693518716487608 4.000000000000000
0.143824994757194 -5.529728443319853 -2.826722786907567 5.000000000000000
0.139858532909111 -5.543437958859013 -2.956246131000179 4.000000000000000
0.133992169114917 -5.519437304111550 -3.067525703983211 5.000000000000000
0.177856160509910 -5.390218169969106 -1.249484400184158 16.000000000000000
0.170181482672078 -5.278366650902378 -1.321748751312879 22.000000000000000
0.173660965517861 -5.639712606995449 -1.625997410684284 38.000000000000000
0.166956717827258 -5.541708748851229 -1.703405294484579 49.000000000000000
0.160097898500807 -5.438882265840909 -1.776824234756182 51.000000000000000
0.154231589413035 -5.376876171737640 -1.861257438031371 59.000000000000000
0.149705702629765 -5.343607535930005 -1.955073068852467 55.000000000000000
0.145957767632074 -5.346016095951463 -2.062675988102767 56.000000000000000
0.142519665001671 -5.361293482052657 -2.176502778401054 52.000000000000000
0.138362908801068 -5.355785825421188 -2.283722815423445 5.000000000000000
0.134027506211582 -5.348371770756302 -2.390932041977733 4.000000000000000
0.131829278012785 -5.440176892613910 -2.546205101426099 5.000000000000000
0.128766966846050 -5.499565100130027 -2.691018167475103 5.000000000000000
0.124102665160929 -5.519902369401422 -2.820509946938058 7.000000000000000
0.119541499067444 -5.516073046882892 -2.940433976720580 5.000000000000000
0.114412299368734 -5.530796384681498 -3.072586073155190 6.000000000000000
0.160431848272519 -5.371429212640561 -1.244293307725901 21.000000000000000
0.152871393243362 -5.255771915278119 -1.315253554149007 40.000000000000000
0.147843936164438 -5.212480864563566 -1.402920313880324 1.000000000000000
0.155160297565313 -5.625081279398430 -1.620839869395107 3.000000000000000
0.149043402879907 -5.542441221218959 -1.702683579938114 61.000000000000000
0.142168190096919 -5.432005849512126 -1.773628105491852 60.000000000000000
0.136265791697933 -5.366263219219059 -1.856623466422212 60.000000000000000
0.131523169678590 -5.325556680101035 -1.947493697773870 55.000000000000000
0.127810658255956 -5.335557862632960 -2.057641059595131 56.000000000000000
0.124005673542977 -5.343510163921241 -2.168258684059524 56.000000000000000
0.119893811057549 -5.345500323494045 -2.278287902262389 5.000000000000000
0.115278963605931 -5.330872699016964 -2.382038418545244 4.000000000000000
0.110891074667381 -5.339524722208389 -2.497998180640757 5.000000000000000
0.107559002070377 -5.399763438154991 -2.641047116777398 3.000000000000000
0.103576616493210 -5.463715950171408 -2.790622851687124 5.000000000000000
0.099807554281729 -5.509822713525991 -2.935886257609683 6.000000000000000
0.094038561683494 -5.500143976658275 -3.054314486909657 5.000000000000000
0.135807709991606 -5.237004284083086 -1.309710805636975 35.000000000000000
0.130987429902116 -5.201525784404700 -1.399112507048917 10.000000000000000
0.134415480130185 -5.514327156183079 -1.587995117524988 0.000000000000000
0.131219593085993 -5.546946361470260 -1.703109944003084 56.000000000000000
0.124287122896658 -5.425077877936686 -1.770408633452758 57.000000000000000
0.118122999836272 -5.344259307153651 -1.848046377884290 59.000000000000000
0.113544531145600 -5.311207587618656 -1.941267009112591 53.000000000000000
0.109814371595043 -5.328778318600620 -2.054022014245010 54.000000000000000
0.105836200236921 -5.336789706901571 -2.164503250870474 58.000000000000000
0.101498839399772 -5.335160896999072 -2.272829995563361 9.000000000000000
0.096787592236658 -5.320620928658651 -2.376385721112755 4.000000000000000
0.092284039380626 -5.332989626452113 -2.493842276534291 5.000000000000000
0.087760716202149 -5.342998632030775 -2.612157666529523 5.000000000000000
0.082736352340965 -5.361150697883854 -2.737082002896657 5.000000000000000
0.079351840137095 -5.450563171087892 -2.903108748126249 4.000000000000000
0.072661135694021 -5.378503361473680 -2.985552871743518 5.000000000000000
0.118865563081126 -5.218185964386991 -1.304149615262000 54.000000000000000
0.114118884065746 -5.186659714360495 -1.394245992545607 46.000000000000000
0.115523141406265 -5.457301767277446 -1.570640577812155 9.000000000000000
0.112823769875821 -5.524639232726128 -1.695297066939677 51.000000000000000
0.106156054339421 -5.402889855011048 -1.762205466665502 56.000000000000000
0.100270780624472 -5.329760648476338 -1.842063299809766 59.000000000000000
0.095800458568465 -5.304318699234525 -1.937764023066024 52.000000000000000
0.091802809485688 -5.318214939885279 -2.048941701794259 53.000000000000000
0.087715946821052 -5.330016985647293 -2.160724148378184 58.000000000000000
0.083063212156949 -5.317408120132250 -2.264215402018495 18.000000000000000
0.078424505190503 -5.313967448466982 -2.372340522273084 5.000000000000000
0.073826667881225 -5.333647774746707 -2.493049345289629 5.000000000000000
0.069106627804810 -5.343664085258073 -2.611356432568419 5.000000000000000
0.063895799064246 -5.365385813584569 -2.738088456980051 5.000000000000000
0.059166416581441 -5.377111146208374 -2.862802657619029 4.000000000000000
0.053271169926996 -5.368696982711868 -2.978901624806547 5.000000000000000
0.047943960205090 -5.361352326210120 -3.097493601433452 79.000000000000000
0.102654346378911 -5.230358165339741 -1.306322910858344 2.000000000000000
0.097420682986701 -5.175606551074075 -1.390397798835114 72.000000000000000
0.097344896602758 -5.419432744746604 -1.558804893587930 38.000000000000000
0.094772807434553 -5.513748107764416 -1.690983122061041 46.000000000000000
0.088235431595710 -5.384450031980276 -1.755223165787963 52.000000000000000
0.082576078582557 -5.318989914130037 -1.837365365034641 60.000000000000000
0.078216411366550 -5.304892867216033 -1.936981636555545 54.000000000000000
0.073969419571208 -5.315064171948768 -2.046713798515770 51.000000000000000
0.069645093663255 -5.323192203919839 -2.156921491630070 56.000000000000000
0.064752144649672 -5.299600393132339 -2.255580376061739 31.000000000000000
0.060110927205187 -5.307261179941996 -2.368271404275960 5.000000000000000
0.055331064956016 -5.330630401242597 -2.490536889628224 4.000000000000000
0.050519772293333 -5.351465278649873 -2.614039617911763 5.000000000000000
0.045029523340158 -5.369568852398880 -2.739066753727539 5.000000000000000
0.039822893863082 -5.345959750288907 -2.845042088513866 4.000000000000000
0.034022297908030 -5.369327909377928 -2.978046387284843 5.000000000000000
0.080795748282041 -5.164505035372727 -1.386529403463656 81.000000000000000
0.079866367202632 -5.412258905677663 -1.555795263298702 54.000000000000000
0.076368644487870 -5.472212378715798 -1.677270256210569 52.000000000000000
0.070538178176450 -5.373563080070546 -1.750699343097580 58.000000000000000
0.064955531307565 -5.308167879016151 -1.832645777866996 57.000000000000000
0.060631962618917 -5.305417769647972 -1.936174076526310 50.000000000000000
0.056200043014950 -5.315595701120427 -2.045898310619363 51.000000000000000
0.051695819899569 -5.323730232072702 -2.156098318333382 53.000000000000000
0.046695620596242 -5.296460851422021 -2.253188400549551 42.000000000000000
0.041904720505383 -5.307808326865687 -2.367437171215880 5.000000000000000
0.036784882041386 -5.316687987682648 -2.482921608525777 5.000000000000000
0.031903677641846 -5.362810092749751 -2.618448789733025 5.000000000000000
0.026120377962687 -5.370136241409722 -2.738199860228057 5.000000000000000
0.020842318563012 -5.350061976622349 -2.846050323528500 4.000000000000000
0.014772977881582 -5.369904906321317 -2.977163592446801 5.000000000000000
0.064581357666124 -5.180397067327578 -1.389896209458038 48.000000000000000
0.061104667278579 -5.289707171975992 -1.519631617985923 58.000000000000000
0.058482161132708 -5.453565700010948 -1.670573851253918 54.000000000000000
0.052990115508370 -5.370231518002268 -1.748630747388787 55.000000000000000
0.047544671614000 -5.312419176371664 -1.833123563407478 54.000000000000000
0.043047285876980 -5.305893401349769 -1.935341350948612 51.000000000000000
0.038430432169292 -5.316077441494706 -2.045057392327752 51.000000000000000
0.033722805324927 -5.320510294778996 -2.153748586894890 54.000000000000000
0.028703752075148 -5.300632115074176 -2.253902232853292 44.000000000000000
0.023714574658154 -5.311957802220257 -2.368205634310526 5.000000000000000
0.018413975952047 -5.324438351713867 -2.485436212073881 5.000000000000000
0.013167864969747 -5.356131024473438 -2.614055671940684 4.000000000000000
0.007201407070719 -5.363523042827654 -2.733673116667935 5.000000000000000
0.001837602857035 -5.357643401813382 -2.848908177218296 5.000000000000000
-0.004488265576923 -5.384422568414990 -2.984008957797450 5.000000000000000
0.056224558184142 -5.526641762726274 -1.377492513789754 3.000000000000000
0.048484083558493 -5.219425756556086 -1.399449915302583 36.000000000000000
0.042970684382094 -5.147865134352481 -1.477962813741215 50.000000000000000
0.040776504562573 -5.442515854541101 -1.666200002924144 55.000000000000000
0.035341110695179 -5.347832393744970 -1.740349302383509 50.000000000000000
0.030087498994434 -5.312840809240783 -1.832271071121849 62.000000000000000
0.025480587665141 -5.310077774452646 -1.935853498825848 51.000000000000000
0.020660762413114 -5.316509388317024 -2.044191051940463 51.000000000000000
0.015785727225314 -5.320947427961119 -2.152874654895150 51.000000000000000
0.010679366831966 -5.301072217777425 -2.253024476793891 44.000000000000000
0.005495519281872 -5.312403225468626 -2.367318687734787 5.000000000000000
-0.000007159837734 -5.332138393533426 -2.487922055080408 5.000000000000000
-0.005517837152241 -5.349398277284739 -2.609638217158891 5.000000000000000
-0.011682967241210 -5.363983849952475 -2.732753330567080 5.000000000000000
-0.017228703970381 -5.368704835468505 -2.853613772285344 5.000000000000000
-0.023896271476599 -5.409385602133389 -2.996636844137358 5.000000000000000
0.038682491935903 -5.507603219927892 -1.371782211817000 40.000000000000000
0.032826372992994 -5.370459079442218 -1.438989821115063 53.000000000000000
0.026381024338144 -5.128990545135729 -1.471616807957548 53.000000000000000
0.023194011696102 -5.442889874721589 -1.665315540513163 53.000000000000000
0.017866426941792 -5.332988746813390 -1.734524666054097 50.000000000000000
0.012621460723158 -5.309431873181417 -1.830090129686099 52.000000000000000
0.007877942625365 -5.306696834272091 -1.933600436270781 50.000000000000000
0.002891209125888 -5.316891537324240 -2.043299298007924 50.000000000000000
-0.002152736362154 -5.325042541169016 -2.153474703929993 47.000000000000000
-0.007355108450822 -5.308824950412621 -2.255248888317229 43.000000000000000
-0.012740926944025 -5.320105428878957 -2.369660712927751 5.000000000000000
-0.018528522110963 -5.354288340208596 -2.497141778869329 6.000000000000000
-0.024267021494969 -5.367779139983308 -2.617468665720342 5.000000000000000
-0.030709397125545 -5.389342394788643 -2.744512613318076 6.000000000000000
-0.036513454739231 -5.400908447872173 -2.869548867910424 5.000000000000000
0.021293037752327 -5.496276755010875 -1.367985540446389 83.000000000000000
0.015950864391750 -5.432594639533562 -1.454660459501238 21.000000000000000
0.009952110263813 -5.129292707793000 -1.470766219792545 58.000000000000000
0.005599991098707 -5.431739112073293 -1.660897004173627 52.000000000000000
0.000492934063907 -5.337114796428158 -1.734862936016454 66.000000000000000
-0.004826301972632 -5.313537304415025 -1.830491196755447 51.000000000000000
-0.009720125186130 -5.314541659613430 -1.935429788806530 50.000000000000000
-0.014888500384518 -5.320957890281737 -2.043816396451704 50.000000000000000
-0.020115908135371 -5.329087852812334 -2.154047819164636 46.000000000000000
-0.025456978531862 -5.320209915780898 -2.259008276715835 39.000000000000000
-0.031154886991221 -5.349682443924387 -2.381735317406990 5.000000000000000
-0.037325487790868 -5.394516159323710 -2.514777567650178 6.000000000000000
-0.043544554214883 -5.436447526620706 -2.649801155199731 1.000000000000000
-0.049878329819960 -5.411086700284738 -2.754421332007142 5.000000000000000
-0.058027174199834 -5.627353154738097 -2.988630676231771 3.000000000000000
0.003985841649411 -5.496545759925103 -1.367064307966426 74.000000000000000
-0.001300177057142 -5.425135493055598 -1.451674616271844 36.000000000000000
-0.006481208651515 -5.133394060974032 -1.470994020616994 60.000000000000000
-0.011406304935815 -5.187190827108292 -1.585148958101829 52.000000000000000
-0.016832632157058 -5.318366929933895 -1.727759781069168 43.000000000000000
-0.022282585735010 -5.313812159846020 -1.829563832241317 55.000000000000000
-0.027348212037841 -5.318579274068521 -1.935863264992415 51.000000000000000
-0.032715625000149 -5.328709039153524 -2.045740370605317 48.000000000000000
-0.038183103016709 -5.344209297417451 -2.159088936575078 45.000000000000000
-0.043693746189559 -5.338909507759317 -2.265863218400678 22.000000000000000
-0.049532179025579 -5.353631050680951 -2.382389795232039 3.000000000000000
-0.056209722217039 -5.416568751720282 -2.523925400049628 0.000000000000000
-0.069923816943251 -5.489817301641211 -2.793316425760765 0.000000000000000
-0.013330114003457 -5.500648147647742 -1.367083122505766 65.000000000000000
-0.018514690354114 -5.421491570511441 -1.449700092127501 73.000000000000000
-0.022921375321235 -5.133604281625766 -1.470095809880083 59.000000000000000
-0.027868854131053 -5.133849063129291 -1.567877904677508 51.000000000000000
-0.034058077088465 -5.303373155717630 -1.721873752224207 45.000000000000000
-0.039738228633115 -5.314038083395014 -1.828611528294774 51.000000000000000
-0.044968783563528 -5.318808978438105 -1.934902803603066 50.000000000000000
-0.050521209527580 -5.328942264363898 -2.044770390646352 47.000000000000000
-0.056349641478361 -5.359281711044068 -2.164098948655960 49.000000000000000
-0.062182974067820 -5.368606571411854 -2.277371458310996 13.000000000000000
-0.068350931776512 -5.390419264645738 -2.397646408764516 3.000000000000000
-0.030712951918857 -5.512466298875125 -1.369004024227244 54.000000000000000
-0.035780251048828 -5.429392115677022 -1.450800133670755 98.000000000000000
-0.039419734576414 -5.141459453504244 -1.471375129767308 55.000000000000000
-0.044382148608775 -5.126364595873864 -1.564613771847824 51.000000000000000
-0.050704892123153 -5.238870615431723 -1.699919906548780 22.000000000000000
-0.057111644780550 -5.306650353867345 -1.825032679660845 48.000000000000000
-0.062632772243568 -5.322748289509595 -1.935283902264408 48.000000000000000
-0.068517497777763 -5.344063558075950 -2.049503852092718 44.000000000000000
-0.074769822489562 -5.385431595690808 -2.173568494844371 38.000000000000000
-0.080761288840237 -5.390890239658805 -2.285720026200998 7.000000000000000
-0.048201974670466 -5.528118526529437 -1.371859368258961 36.000000000000000
-0.053131642671059 -5.441109174733592 -1.452904668991400 94.000000000000000
-0.056091802032136 -5.160805713357739 -1.475927538437748 45.000000000000000
-0.060845087945268 -5.118833287908612 -1.561328807737705 57.000000000000000
-0.067323169786734 -5.204753721736074 -1.687835977482518 34.000000000000000
-0.074593773255799 -5.310560675787075 -1.825332045896138 47.000000000000000
-0.080490725674869 -5.337915674141329 -1.939736450870748 46.000000000000000
-0.086854030376140 -5.374074040220826 -2.059932180347700 7.000000000000000
-0.093619928122253 -5.426368448120134 -2.188987157181302 5.000000000000000
-0.099759483612675 -5.427853480999124 -2.300276208248699 2.000000000000000
-0.065971873332913 -5.559251155654636 -1.378534838254563 18.000000000000000
-0.070605495456830 -5.456642701169995 -1.456011433945321 79.000000000000000
-0.076240702082061 -5.418537380130106 -1.548591623210847 14.000000000000000
-0.077257513453175 -5.111255345869390 -1.558023127535858 58.000000000000000
-0.084086920386969 -5.193416187370960 -1.683139238023144 33.000000000000000
-0.092296243309626 -5.325769763670327 -1.829503164207659 47.000000000000000
-0.098170583442675 -5.337997472700619 -1.938696860777447 1.000000000000000
-0.111290490549530 -5.396782283149783 -2.175949313516718 0.000000000000000
-0.088113890433930 -5.468263448267940 -1.458057201432583 67.000000000000000
-0.095049132720876 -5.503169660360347 -1.571707781891531 0.000000000000000
-0.093899984874939 -5.118934218165076 -1.559358606267073 41.000000000000000
-0.100997019907740 -5.193445166497131 -1.682119765224027 30.000000000000000
-0.110408640350407 -5.356060233972016 -1.838837867295431 35.000000000000000
-0.115767515915986 -5.334270520654801 -1.936267516313747 0.000000000000000
-0.105992533572833 -5.495293458431063 -1.464192401479933 40.000000000000000
-0.110755494916983 -5.134218349298671 -1.562996852866482 30.000000000000000
-0.118164796248065 -5.204840849899114 -1.684770847370390 26.000000000000000
-0.128537465163015 -5.378736417821675 -1.845539668402799 2.000000000000000
-0.123694002753352 -5.506816367956627 -1.466176416154566 1.000000000000000
-0.128277490549869 -5.172410227200992 -1.573588677820481 5.000000000000000
-0.136096612861154 -5.242821443401141 -1.696008556753441 18.000000000000000
-0.239548843671679 -8.813147826598348 -3.022158456802090 47.000000000000000
-0.235941903430083 -7.992072728599975 -3.056911009331862 24.000000000000000
-0.250377650778805 -8.932924725833278 -2.715836312185795 15.000000000000000
-0.154941222876197 -5.303580315227817 -1.714585972583946 7.000000000000000
-0.273090316839192 -8.964249757976173 -3.072140614534566 27.000000000000000
-0.249149874955183 -7.875177172128591 -2.853753466470880 27.000000000000000
-0.264225318597480 -8.040447385606475 -3.073749309931775 19.000000000000000
-0.267397410140862 -8.890595651949738 -2.532056788182759 15.000000000000000
-0.279088047584323 -8.928823295650249 -2.712769879062545 19.000000000000000
-0.265243949806156 -7.859548789244799 -2.691929136617794 14.000000000000000
-0.274958679948445 -7.867414320186385 -2.849311081445342 42.000000000000000
-0.279684131224791 -8.744407701799446 -2.322889306758196 0.000000000000000
-0.295718916849611 -8.886396079456009 -2.529041526200422 32.000000000000000
-0.325579369116899 -9.441069319322882 -2.866459869271792 3.000000000000000
-0.282021128233680 -7.893936586989585 -2.548770143386223 12.000000000000000
-0.290760796652400 -7.851667307752337 -2.687600165110733 41.000000000000000
-0.326025657846039 -8.521121691890784 -3.084285392504137 8.000000000000000
-0.325305640754223 -9.982588069742521 -2.276323278870500 2.000000000000000
-0.330652931454026 -9.754384542201805 -2.405276458491901 4.000000000000000
-0.304030509120622 -8.647387041502419 -2.295335880427938 20.000000000000000
-0.296099229132797 -8.116947676925793 -2.308380743412131 0.000000000000000
-0.300501871915281 -7.967902710376947 -2.417529528866842 17.000000000000000
-0.307116692175747 -7.878331663849238 -2.542090779609878 51.000000000000000
-0.319426385294427 -7.923134647770930 -2.710406636958661 7.000000000000000
-0.341261163457402 -8.208736237169303 -2.969492584078853 4.000000000000000
-0.343154792990338 -8.002128787011156 -3.054073290563789 5.000000000000000
-0.335599606562836 -9.758949190681115 -2.042268248242458 2.000000000000000
-0.337929880204206 -9.463629619671863 -2.156029178312428 2.000000000000000
-0.339335242351893 -9.159982377540404 -2.256806246988702 3.000000000000000
-0.319169783004073 -8.326206814150710 -2.208350229833893 21.000000000000000
-0.320847509402469 -8.085719622773238 -2.297811797691451 33.000000000000000
-0.325583532789205 -7.952140240451029 -2.411082113777120 42.000000000000000
-0.334680249441509 -7.923518804984965 -2.555007412451758 10.000000000000000
-0.350208656382738 -8.032338276837811 -2.746072049936192 4.000000000000000
-0.350885014394911 -7.817382947669807 -2.826270255328458 4.000000000000000
-0.352261849475697 -7.620801086950974 -2.906922493382103 3.000000000000000
-0.353891508262610 -7.438934605977042 -2.986902865574440 4.000000000000000
-0.356552986799842 -7.282351963509485 -3.072452415770447 6.000000000000000
-0.343190080976763 -9.155759651178641 -1.914127941953804 4.000000000000000
-0.348375239266177 -8.971933579372990 -2.042132840925285 4.000000000000000
-0.350829072549616 -8.728578197113960 -2.148687417639154 3.000000000000000
-0.346221873353582 -8.341109037808293 -2.210548898758938 13.000000000000000
-0.347373343377650 -8.100557930557498 -2.300321058894321 22.000000000000000
-0.354448228392144 -8.024276401769569 -2.431258661967846 4.000000000000000
-0.357864545790218 -7.865929549432837 -2.534772039104439 3.000000000000000
-0.358126960903236 -7.638521669070619 -2.609814512760016 4.000000000000000
-0.359728942745898 -7.463587802796932 -2.696773664528003 3.000000000000000
-0.361598230493287 -7.295454729127477 -2.781266440842313 3.000000000000000
-0.362499374444082 -7.115817621417375 -2.855645247969997 3.000000000000000
-0.362389220353644 -6.921067084507396 -2.918544922511859 3.000000000000000
-0.364319800229581 -6.770439917369704 -2.994354422650664 3.000000000000000
-0.366603435587174 -6.626434429192922 -3.069415689772626 6.000000000000000
-0.354987485019399 -8.748195358205269 -1.827073578199684 4.000000000000000
-0.355099055391976 -8.464638714728386 -1.924874045225066 4.000000000000000
-0.359272168601726 -8.289395881968121 -2.038817162199243 3.000000000000000
-0.361284520895388 -8.085516224897338 -2.141094316438038 3.000000000000000
-0.363540594928043 -7.888507511076794 -2.238426117504073 3.000000000000000
-0.362748614718548 -7.652695009794950 -2.317043057342533 3.000000000000000
-0.364726977374059 -7.481188630025902 -2.409193830713245 4.000000000000000
-0.366685141960828 -7.308971456562898 -2.495656677873380 3.000000000000000
-0.367392116804677 -7.132321716364570 -2.575553138023777 3.000000000000000
-0.367379674613531 -6.943954516848891 -2.645775470937537 2.000000000000000
-0.368528564593161 -6.785265409612083 -2.721536334168749 3.000000000000000
-0.369876804639058 -6.633392377065858 -2.795811281412709 2.000000000000000
-0.370565933260761 -6.473969181643215 -2.861843448590514 2.000000000000000
-0.371808396997518 -6.325054681071981 -2.928453823670705 3.000000000000000
-0.373021329615314 -6.183164334761177 -2.993949548170343 3.000000000000000
-0.375855765642332 -6.062249723988506 -3.066313214176708 6.000000000000000
-0.373126062454454 -5.869978894467267 -3.098391311636745 7.000000000000000
-0.363238917079934 -8.317145711277675 -1.735269635098240 3.000000000000000
-0.364806020426127 -8.093738589734023 -1.838797489804450 2.000000000000000
-0.367297766964172 -7.900655978984023 -1.941510610871634 2.000000000000000
-0.366406332923387 -7.656066103794199 -2.025730044583224 2.000000000000000
-0.371151321818215 -7.530349126266750 -2.135177915970049 3.000000000000000
-0.371168383079334 -7.330817628685117 -2.218010578505386 2.000000000000000
-0.373041650363020 -7.172502242250601 -2.308243382315768 3.000000000000000
-0.372272111603866 -6.964284462564254 -2.376463633091852 2.000000000000000
-0.372862687321303 -6.801043764435404 -2.454460659826890 4.000000000000000
-0.374804205107559 -6.663373982345261 -2.537433541836699 2.000000000000000
-0.375112439988919 -6.502901113806722 -2.606880081901900 3.000000000000000
-0.375846331832675 -6.353064170422995 -2.676290563697354 2.000000000000000
-0.375667941264209 -6.192098791434529 -2.735906824988994 2.000000000000000
-0.377412613676011 -6.063532647205013 -2.806064068284473 3.000000000000000
-0.378507174754171 -5.930985933472781 -2.870564086657465 3.000000000000000
-0.372882025831802 -5.691078667044490 -2.877347146300334 3.000000000000000
-0.367633459808434 -5.477434565192678 -2.890012495346996 7.000000000000000
-0.376523367599314 -5.464572772508325 -3.005691029965049 8.000000000000000
-0.369739556616968 -7.905657002534358 -1.647706290135525 1.000000000000000
-0.369382899065312 -7.664384858962710 -1.739593345463608 2.000000000000000
-0.373456171715641 -7.523554924259807 -1.847210813484347 3.000000000000000
-0.374520461238536 -7.338634460813918 -1.940149137223236 2.000000000000000
-0.377479584649734 -7.191405032206564 -2.037512902027069 2.000000000000000
-0.376069890499761 -6.982165302350151 -2.111008083385075 2.000000000000000
-0.377036083046896 -6.821976722162480 -2.193958384827275 3.000000000000000
-0.379458491990675 -6.687644371671654 -2.280613954816688 3.000000000000000
-0.379417506287721 -6.526119987772353 -2.353827576761005 2.000000000000000
-0.380800909433550 -6.390247838626379 -2.432041781776264 3.000000000000000
-0.379116573311601 -6.209406278985385 -2.487879475846318 2.000000000000000
-0.379452074077827 -6.065366747848024 -2.553782750661755 2.000000000000000
-0.381649372863105 -5.954055310255189 -2.629442739177862 2.000000000000000
-0.376210059965093 -5.725897615104825 -2.648577446879353 2.000000000000000
-0.368688223634137 -5.477523797631179 -2.649909062616603 7.000000000000000
-0.377139708672304 -5.462452866293825 -2.760579345655715 10.000000000000000
-0.386059042592795 -5.462749257987083 -2.881088849722256 9.000000000000000
-0.395315490874973 -5.453512718055997 -2.998436375292256 7.000000000000000
-0.375841518658680 -7.537202806820278 -1.569261291727056 2.000000000000000
-0.377680530649733 -7.359721235352125 -1.668830954493332 2.000000000000000
-0.380315237856591 -7.204656211453894 -1.767335054428816 3.000000000000000
-0.379574578248177 -7.001888968121974 -1.849588607674563 3.000000000000000
-0.381425905355115 -6.848619615074337 -1.938893407782665 3.000000000000000
-0.384179632273432 -6.729102376137691 -2.033024156670138 3.000000000000000
-0.384313665070824 -6.566515180952694 -2.110366173240473 3.000000000000000
-0.385056928629284 -6.414778104734936 -2.186160339208413 2.000000000000000
-0.382537322116040 -6.224893820438201 -2.243823995205196 2.000000000000000
-0.383330868535425 -6.090991554640125 -2.316821815878500 4.000000000000000
-0.385921716822419 -5.990046840555562 -2.398686990091700 3.000000000000000
-0.380619410030654 -5.770310487680058 -2.428297704252394 2.000000000000000
-0.369969016917035 -5.478597903232592 -2.418282022679918 7.000000000000000
-0.377688129843881 -5.460749319070198 -2.524748017297844 11.000000000000000
-0.386497548411570 -5.458950850042887 -2.639744544816389 11.000000000000000
-0.396078429884014 -5.458281105238992 -2.757294553284366 9.000000000000000
-0.405166916044989 -5.458604982018290 -2.877729559987820 9.000000000000000
-0.415359153397979 -5.459888599563581 -3.000771443153268 9.000000000000000
-0.382151377510065 -7.215690816418376 -1.500721948437709 2.000000000000000
-0.382594179871467 -7.027787112055903 -1.592006909893746 1.000000000000000
-0.383216342700840 -6.850847363258528 -1.679026992046480 3.000000000000000
-0.387811999455278 -6.757831428026079 -1.783624468171906 3.000000000000000
-0.388612148995214 -6.598073067229916 -1.866503789749309 3.000000000000000
-0.389273719479757 -6.453095434127309 -1.948211818403661 3.000000000000000
-0.387345927544669 -6.269228813012688 -2.013442132892347 3.000000000000000
-0.386711925121677 -6.107895614320984 -2.080231009173542 3.000000000000000
-0.389016859134115 -6.006314495173641 -2.163716263371066 3.000000000000000
-0.384606298654394 -5.802939787844660 -2.205984545205321 2.000000000000000
-0.371650647650078 -5.481589694643530 -2.193879261873620 8.000000000000000
-0.379018555074769 -5.464226574618961 -2.298297821462000 13.000000000000000
-0.387945686929354 -5.466995247102910 -2.411971208813884 11.000000000000000
-0.397070484524649 -5.467345364673879 -2.526611504307380 11.000000000000000
-0.406313487507832 -5.469075438275939 -2.643457433044092 11.000000000000000
-0.415801367734083 -5.464743564838567 -2.759380907585239 9.000000000000000
-0.424520399410964 -5.457937558433953 -2.876205145451203 8.000000000000000
-0.434613092657928 -5.455716220004475 -2.997310792438848 7.000000000000000
-0.385597292351253 -6.878546379567397 -1.429059282280348 2.000000000000000
-0.389923260700254 -6.773770788760771 -1.532946558786757 2.000000000000000
-0.390769093585118 -6.613424057795170 -1.619358436935666 3.000000000000000
-0.391696030924520 -6.467435934961344 -1.705534123531003 3.000000000000000
-0.392764832306247 -6.324471379697933 -1.787695039397142 3.000000000000000
-0.390401774377317 -6.142692317578717 -1.853132900286014 3.000000000000000
-0.392648502901520 -6.036578357209427 -1.937383000451884 3.000000000000000
-0.392395172363276 -5.891729695630861 -2.005303773079647 2.000000000000000
-0.372826828404675 -5.475997667502971 -1.971464861853675 8.000000000000000
-0.380842909881728 -5.470126819798637 -2.078260631709238 19.000000000000000
-0.389829251445920 -5.477194515447472 -2.190917021402053 17.000000000000000
-0.397829037594892 -5.467213475187055 -2.298356994372152 14.000000000000000
-0.406386647747622 -5.462645743531032 -2.408860181333640 12.000000000000000
-0.415671916127654 -5.463018536137499 -2.523424128433599 10.000000000000000
-0.425082555466608 -5.464772321907695 -2.640193987333042 10.000000000000000
-0.434719551426983 -5.460464468654814 -2.756042579164085 9.000000000000000
-0.444156856827839 -5.460745698695679 -2.876512663053902 7.000000000000000
-0.454128941811006 -5.454986729333232 -2.995744763328135 7.000000000000000
-0.392973616252155 -6.643083626750179 -1.378632534409877 2.000000000000000
-0.393778454435721 -6.488599304811914 -1.466940213647635 2.000000000000000
-0.393933179430784 -6.329460555593097 -1.548395855501648 2.000000000000000
-0.392755076137289 -6.161612142309633 -1.623494766825838 3.000000000000000
-0.395419490646522 -6.054723062171937 -1.710084227989991 3.000000000000000
-0.395910343806001 -5.927860637118538 -1.786991680609624 3.000000000000000
-0.374890237756044 -5.488459252248860 -1.760240990898435 6.000000000000000
-0.382928621203537 -5.479073717058225 -1.863630026079458 18.000000000000000
-0.390400022202262 -5.467756819610707 -1.967282182165305 20.000000000000000
-0.399088268897498 -5.469392289407854 -2.076769736440297 20.000000000000000
-0.408255015369661 -5.476453875734879 -2.189411973424359 17.000000000000000
-0.416660340789210 -5.470147314917729 -2.298387807466743 14.000000000000000
-0.425366723138227 -5.465546707095886 -2.408942992974298 11.000000000000000
-0.434820416893579 -5.465884093345271 -2.523556673262489 9.000000000000000
-0.443822340950222 -5.460416730808866 -2.636905545440730 10.000000000000000
-0.454496677350615 -5.466816801732557 -2.758069402058595 9.000000000000000
-0.463514393267681 -5.459969120349809 -2.874932279560724 7.000000000000000
-0.473640422943606 -5.454202448266888 -2.994151032107982 7.000000000000000
-0.395731408461418 -6.356801009367189 -1.317760820356043 1.000000000000000
-0.394614328982449 -6.183974533693348 -1.396654036615322 2.000000000000000
-0.397087953950514 -6.072660701258114 -1.484186364383767 3.000000000000000
-0.399625723289655 -5.971618524470520 -1.572073624066550 3.000000000000000
-0.381085707491835 -5.562197375167892 -1.569712726335891 4.000000000000000
-0.383711927834082 -5.479926080938201 -1.650718420534268 21.000000000000000
-0.391645288509330 -5.472486220319833 -1.753883843473670 23.000000000000000
-0.400892797759563 -5.478297074352812 -1.862134831273483 19.000000000000000
-0.408760952936423 -5.470731643508400 -1.967128304933461 20.000000000000000
-0.417614031382720 -5.472336822125992 -2.076668540233679 19.000000000000000
-0.426676472476756 -5.475661501750896 -2.187880779676515 17.000000000000000
-0.434926906983059 -5.465671775578581 -2.295300988372944 14.000000000000000
-0.444367422439345 -5.468394105063100 -2.408997199165196 9.000000000000000
-0.453688867034802 -5.465073969758922 -2.521989079475194 9.000000000000000
-0.463141661027897 -5.463192462939585 -2.637059710112841 9.000000000000000
-0.473084964959374 -5.458869492335139 -2.752881850276557 9.000000000000000
-0.483803804895626 -5.469724755750063 -2.878896485583224 8.000000000000000
-0.495044064037149 -5.474337859101925 -3.004039343794441 6.000000000000000
-0.397487250736755 -6.082269034216169 -1.259437684411922 2.000000000000000
-0.400589516129442 -5.984508506291768 -1.350218492573942 2.000000000000000
-0.385607577750565 -5.625893998662199 -1.373695567364912 2.000000000000000
-0.384189401582043 -5.480579548385000 -1.441543033535974 23.000000000000000
-0.393078243432792 -5.480720601755381 -1.545462772128115 27.000000000000000
-0.401374765707345 -5.479111286974766 -1.649222181029315 25.000000000000000
-0.409718795520627 -5.475466481571174 -1.753594399451513 26.000000000000000
-0.418563719388663 -5.473692423381699 -1.859330972964552 24.000000000000000
-0.426849335257809 -5.469900336137131 -1.965597608290384 20.000000000000000
-0.435863112750742 -5.471499272883693 -2.075124828480555 18.000000000000000
-0.445394586720054 -5.478521607947408 -2.187802699827803 17.000000000000000
-0.453469159060328 -5.464822804472928 -2.293733514925777 14.000000000000000
-0.462770288471427 -5.463888056460523 -2.405808588931406 9.000000000000000
-0.472552724834061 -5.464210864711005 -2.520394720718586 9.000000000000000
-0.482798372442409 -5.469504929019556 -2.638917498331037 8.000000000000000
-0.494508525217232 -5.482913547931100 -2.763823500949560 6.000000000000000
-0.503838909685627 -5.475894333122887 -2.880970601300795 7.000000000000000
-0.514621239798721 -5.473440583168848 -3.002383913171047 7.000000000000000
-0.386579018662962 -5.647523687630627 -1.168089405816415 2.000000000000000
-0.384047187983607 -5.481392392237549 -1.235422680592436 24.000000000000000
-0.392999467222890 -5.481590310330878 -1.337181770908186 30.000000000000000
-0.401555676270952 -5.479728089484538 -1.440046215983610 29.000000000000000
-0.410593108892242 -5.479861857531132 -1.543953147380342 25.000000000000000
-0.418740893142751 -5.474426636339056 -1.646551872171498 23.000000000000000
-0.427812477519746 -5.478395579719757 -1.753277603856687 24.000000000000000
-0.436506553627652 -5.472815508513288 -1.857785896818185 23.000000000000000
-0.445543874923560 -5.476525464804842 -1.966737269912331 19.000000000000000
-0.454417110709539 -5.474339591046911 -2.074968706123232 18.000000000000000
-0.463192135694224 -5.470217982231319 -2.183261842359761 15.000000000000000
-0.472641983522026 -5.471275628592529 -2.295224727860386 12.000000000000000
-0.482108297975193 -5.470278530216552 -2.407413631031299 8.000000000000000
-0.492714419895617 -5.477776681449561 -2.525450282344588 6.000000000000000
-0.503159297068326 -5.482942874090486 -2.644207284089895 6.000000000000000
-0.513433382314124 -5.478417438508117 -2.760373983969498 8.000000000000000
-0.524256261291679 -5.485534717343749 -2.884868149034352 5.000000000000000
-0.535557929745794 -5.486466589875219 -3.008365347172677 5.000000000000000
-0.391998828132827 -5.478587845200859 -1.131846341673593 38.000000000000000
-0.401406593357494 -5.484398920398700 -1.234802505965514 33.000000000000000
-0.410219652208261 -5.480696605582552 -1.335672323026131 28.000000000000000
-0.418917351486530 -5.478827858430120 -1.438524782655324 27.000000000000000
-0.428403337861401 -5.482793415031542 -1.543499578294717 24.000000000000000
-0.436686774156496 -5.477332905119180 -1.646154581980525 23.000000000000000
-0.444999067793446 -5.469877840456430 -1.749289067063145 22.000000000000000
-0.454758271990913 -5.475664522849615 -1.857496419178764 22.000000000000000
-0.463965490004199 -5.479344269947782 -1.966500036988449 19.000000000000000
-0.472991163334836 -5.477127389651609 -2.074784547112134 17.000000000000000
-0.481913184998011 -5.472974054927240 -2.183130476224074 16.000000000000000
-0.491199597473046 -5.470321243870745 -2.293602503551726 7.000000000000000
-0.502159535183196 -5.483911221842550 -2.412197651970904 6.000000000000000
-0.511618512294482 -5.476805070857309 -2.523798073085337 9.000000000000000
-0.522589185807902 -5.485552137750743 -2.644269707668809 5.000000000000000
-0.533712630576903 -5.488104858853243 -2.764069443084618 4.000000000000000
-0.544743507443683 -5.495116746975159 -2.888731633123975 7.000000000000000
-0.555528577432813 -5.488950719773986 -3.008565105751927 9.000000000000000
-0.409501055641716 -5.485476337196406 -1.131951518169674 34.000000000000000
-0.418785551836327 -5.487356165309539 -1.234155977424463 31.000000000000000
-0.427435102394248 -5.479754534898304 -1.334138475010255 28.000000000000000
-0.436274255876052 -5.477878864106661 -1.436978748567049 25.000000000000000
-0.445608750509086 -5.477996809656563 -1.540859433842767 24.000000000000000
-0.454969258136527 -5.484007227853943 -1.646876953204579 22.000000000000000
-0.463416882889840 -5.476504199087282 -1.750134437702439 21.000000000000000
-0.472703820888392 -5.474686160088707 -1.855899390120781 23.000000000000000
-0.481416387590037 -5.470853976274030 -1.962197500774679 20.000000000000000
-0.491250668780986 -5.476134775544506 -2.073161040656117 12.000000000000000
-0.502008139782643 -5.490486244037925 -2.188874740962189 7.000000000000000
-0.511465016453526 -5.487692811240521 -2.299655440800490 11.000000000000000
-0.521265752558487 -5.486542036040808 -2.412134843238829 8.000000000000000
-0.531919997979647 -5.490256982519165 -2.528786938761130 5.000000000000000
-0.542747865602611 -5.495285123057450 -2.647761728458068 6.000000000000000
-0.554420227920288 -5.501292572790907 -2.769522384713369 10.000000000000000
-0.564214006147591 -5.494061050948884 -2.887001857241063 6.000000000000000
-0.574420525160437 -5.480898666139107 -3.002992985637654 5.000000000000000
-0.426439257522045 -5.484501848562041 -1.130418078749455 34.000000000000000
-0.435874753556986 -5.486372989352326 -1.232608867774708 30.000000000000000
-0.444960107311108 -5.482638763946270 -1.333522660840599 25.000000000000000
-0.453626218133873 -5.476881115880354 -1.435408128977516 25.000000000000000
-0.463433714489737 -5.480828639707427 -1.540354054896820 22.000000000000000
-0.472308532769537 -5.479174430702070 -1.644132661257518 20.000000000000000
-0.481545295573550 -5.479280652813643 -1.749737596330687 22.000000000000000
-0.490982645322243 -5.477432326341122 -1.855555752960729 20.000000000000000
-0.501210675614366 -5.488576782949015 -1.967286648234881 8.000000000000000
-0.510892347201816 -5.489999220874889 -2.077152272791702 12.000000000000000
-0.520467573329771 -5.489431771009900 -2.187207428786611 14.000000000000000
-0.530429666542109 -5.490305539327916 -2.299514177750859 6.000000000000000
-0.541109742699482 -5.496413243242666 -2.415248580552803 6.000000000000000
-0.551589778873623 -5.496413226989599 -2.530408337406421 11.000000000000000
-0.562242102239163 -5.497782935351230 -2.647763322925693 7.000000000000000
-0.572624548943804 -5.489516609633098 -2.762407015359837 5.000000000000000
-0.582555091609826 -5.482373738036578 -2.879688830711801 7.000000000000000
-0.593256959342244 -5.472794344143942 -2.997397579050545 6.000000000000000
-0.443056673715361 -5.479574165760809 -1.128056623491487 31.000000000000000
-0.452637669971902 -5.481451494087469 -1.230164483997430 26.000000000000000
-0.462177746160760 -5.481599255125801 -1.331938938975064 26.000000000000000
