# This PCD file was generated using the MATLAB® pcwrite function
# from Computer Vision Toolbox®.
# .PCD v.7 - Point Cloud Data file format
VERSION .7
FIELDS x y z intensity
SIZE 8 8 8 8
TYPE F F F F
COUNT 1 1 1 1
WIDTH 638
HEIGHT 1
VIEWPOINT 0 0 0 1 0 0 0
POINTS 638
DATA ascii
3.853267480430215 -4.440694162836221 -2.252150322782942 34.000000000000000
3.890773593916404 -4.440570499461437 -2.375649485971284 13.000000000000000
7.336801294275412 -9.599504313283616 -1.775896311040679 33.000000000000000
7.442868444343824 -9.651445851633170 -2.006291676996094 26.000000000000000
7.628912488910068 -9.805218561510781 -2.263573987647956 21.000000000000000
7.281321472181372 -9.273518382978441 -2.358132824781370 17.000000000000000
5.828033217598211 -7.288695174280634 -2.199703496153518 34.000000000000000
5.902198022423531 -7.313686247731451 -2.384631622251871 5.000000000000000
5.801235109754057 -7.123094296394078 -2.497518537675942 18.000000000000000
5.459858616764549 -6.641229807296393 -2.494456760823853 19.000000000000000
3.878941208901971 -4.586403270441521 -2.077848921063661 17.000000000000000
3.838205178060546 -4.495270465323244 -2.156383188281192 28.000000000000000
3.830314884713780 -4.443338408463396 -2.252573566348951 26.000000000000000
3.867652754271221 -4.443431058550680 -2.375939098606153 13.000000000000000
7.345708793964875 -9.670683600236838 -1.794050450343396 34.000000000000000
7.449014120452226 -9.719527329540627 -2.025023734087138 26.000000000000000
7.648794549726108 -9.892245470088170 -2.287873575091123 20.000000000000000
7.179637761101358 -9.201468153060485 -2.343288596733477 14.000000000000000
5.799660158130563 -7.299226712927325 -2.204910756352990 74.000000000000000
5.856508621179950 -7.303334136992252 -2.382901016301048 21.000000000000000
5.763177414086682 -7.121698057551074 -2.498243156867319 14.000000000000000
5.442578400828937 -6.662829298956543 -2.503327002969563 30.000000000000000
3.853419734817940 -4.586000788762051 -2.077342800981459 17.000000000000000
3.812830794488189 -4.494882060892277 -2.155581729202432 29.000000000000000
3.809812467252649 -4.448732847420295 -2.254391495869779 28.000000000000000
3.844553514673116 -4.446205913439718 -2.376186282282658 13.000000000000000
7.349469363078429 -9.735683227042045 -1.811075974072807 33.000000000000000
7.461970101414624 -9.797148272891434 -2.045762431118188 27.000000000000000
7.672988390973121 -9.985714332845548 -2.313692809081337 18.000000000000000
7.140941444830446 -9.209493310560074 -2.348772497338159 12.000000000000000
5.783328717039454 -7.324939011230852 -2.214687660239061 21.000000000000000
5.823015585904360 -7.307947167127692 -2.386028853301074 51.000000000000000
5.730017596133210 -7.126167560330498 -2.501006647351638 11.000000000000000
5.442144081806212 -6.705265956755119 -2.520018301926097 39.000000000000000
3.913174301271579 -4.732039609793620 -2.019446463566671 0.000000000000000
3.830361307878533 -4.588399281376836 -2.078102087426791 21.000000000000000
3.787498666327817 -4.494394581863312 -2.154732279213059 28.000000000000000
3.784476061498445 -4.448371435088719 -2.253293703766097 25.000000000000000
3.821476246685834 -4.448895199738129 -2.376391128952260 12.000000000000000
7.350514420437500 -9.797625839943027 -1.827545254000856 32.000000000000000
7.472123496515435 -9.871784747814104 -2.065899403564158 26.000000000000000
7.128576632487153 -9.251545366536837 -2.362913355514521 13.000000000000000
5.771685717162931 -7.356750848476416 -2.226298483074304 9.000000000000000
5.799166113112929 -7.324591467426131 -2.393066699411235 58.000000000000000
5.692065561069803 -7.124489687176567 -2.501593961017222 11.000000000000000
5.439068068303822 -6.744778120033072 -2.535604594545627 20.000000000000000
3.894642261156291 -4.740360639378722 -2.022953945655799 1.000000000000000
3.802502725876047 -4.584897830463428 -2.076186143850541 20.000000000000000
3.764619361349662 -4.496687049105661 -2.155214756481748 29.000000000000000
3.761590572624052 -4.450760490811541 -2.253590783034236 26.000000000000000
3.796015734415058 -4.448679865555073 -2.375048630634370 12.000000000000000
7.360694893922665 -9.872346599753575 -1.846414713144047 33.000000000000000
7.484245450045754 -9.949720121755810 -2.086747599063425 26.000000000000000
7.116005484622892 -9.293612752864815 -2.377049419470579 13.000000000000000
5.769455821576218 -7.400839633937358 -2.241619110291090 8.000000000000000
5.782446355673183 -7.350304849845891 -2.403054048100856 24.000000000000000
5.649381470390701 -7.116623235696423 -2.499987744600356 12.000000000000000
5.438179640896037 -6.787334750735908 -2.552329362522903 0.000000000000000
3.873690516417064 -4.745681364820907 -2.025175095297213 2.000000000000000
3.779509285294562 -4.587112095079791 -2.076855360766579 23.000000000000000
3.744163249526978 -4.501780551597384 -2.157038114209189 34.000000000000000
3.736330032049080 -4.450208400355506 -2.252400294133661 37.000000000000000
3.780180210684266 -4.459669921921920 -2.379690266033794 12.000000000000000
7.368119654711996 -9.944034479539631 -1.864737789495809 32.000000000000000
7.112720925776761 -9.348171408559313 -2.394375983051022 10.000000000000000
5.764609646167514 -7.441910888771631 -2.256022595386553 14.000000000000000
5.770381660730775 -7.382097078018897 -2.415018472021861 15.000000000000000
5.609189480778888 -7.111609848738246 -2.499362864421387 13.000000000000000
6.008248472623045 -7.547473904220416 -2.838965296782378 1.000000000000000
3.852740886469862 -4.750930082551400 -2.027359615961499 4.000000000000000
3.758930102155765 -4.592162679898213 -2.078805043398086 18.000000000000000
3.747611080954029 -4.535730180199064 -2.172681964379957 12.000000000000000
3.730217902693791 -4.472464143122721 -2.262751176533620 14.000000000000000
3.752379975881986 -4.456451022082820 -2.376752575338226 12.000000000000000
7.111514129995859 -9.405923821904757 -2.412521468379885 9.000000000000000
5.750060189346368 -7.470697399957208 -2.266694548713305 10.000000000000000
5.781916117547973 -7.444476962879427 -2.436986819577919 17.000000000000000
5.566704584726815 -7.103401852508190 -2.497594480327957 15.000000000000000
5.975943064924634 -7.555684216874932 -2.842828960673899 1.000000000000000
3.822267770577917 -4.744283089174989 -2.024462165556456 10.000000000000000
3.764546538599338 -4.629351565543413 -2.095296981652123 9.000000000000000
3.743721205627545 -4.561048399723276 -2.184182462597021 47.000000000000000
3.735878677609469 -4.509083089555206 -2.280358787048692 34.000000000000000
3.729394293747555 -4.458799415290161 -2.376789005353922 14.000000000000000
7.110001441261447 -9.463756422472036 -2.430689178274227 6.000000000000000
5.878728421969456 -7.756220837234021 -2.173102497533263 0.000000000000000
5.768445864824888 -7.542714468949919 -2.290483517617671 10.000000000000000
5.757612714645092 -7.461014499714629 -2.443942401777353 14.000000000000000
5.533797065813873 -7.107185014564341 -2.500023040522189 15.000000000000000
5.884392661908160 -7.488387824021158 -2.818260952703469 1.000000000000000
3.798992142369474 -4.746397740719253 -2.025297802573776 17.000000000000000
3.760460638384890 -4.654880646111546 -2.106503728364623 40.000000000000000
3.715994795785295 -4.557327371096093 -2.181773111566594 36.000000000000000
3.717641842637492 -4.517011811738110 -2.283449894893539 26.000000000000000
3.722989561566414 -4.480991105640978 -2.387400979231173 9.000000000000000
7.119900403746574 -9.537364814991815 -2.452915535946047 4.000000000000000
5.846885570494710 -7.763629315165792 -2.177518996986962 9.000000000000000
5.767599073601043 -7.590144151511844 -2.306810934053098 18.000000000000000
5.827472752433795 -7.600369139744288 -2.491137543224859 4.000000000000000
5.493842194943541 -7.101705659355338 -2.499174796795590 13.000000000000000
5.592763026257679 -7.163714824078379 -2.696774304869569 16.000000000000000
3.718457273680158 -4.719542513772290 -1.894464030936208 8.000000000000000
3.789907685767560 -4.766244745208020 -2.033693871293541 17.000000000000000
3.742071347455507 -4.662783376467397 -2.109728232425171 38.000000000000000
3.695412272502957 -4.562234166216102 -2.183493427708217 35.000000000000000
3.694673060302233 -4.519115363055448 -2.283596136113637 21.000000000000000
3.725887909823062 -4.514608961958074 -2.404090098985930 10.000000000000000
7.138727803064101 -9.623701875528541 -2.478431674407840 0.000000000000000
5.817383964336700 -7.774054069303139 -2.182757691322960 18.000000000000000
5.764154266268263 -7.634539019719315 -2.322213502467982 12.000000000000000
6.159165544749770 -8.085025709605231 -2.651613672349292 40.000000000000000
5.458670068957719 -7.102176643656248 -2.500401567862406 17.000000000000000
3.665588194322753 -4.725923786240888 -1.779524530958832 0.000000000000000
3.695498457761350 -4.721223668508756 -1.895331691445115 23.000000000000000
3.778374303062467 -4.783111684542248 -2.040812151853431 10.000000000000000
3.716613200723314 -4.661782542315608 -2.108920540079836 33.000000000000000
3.670134691273278 -4.561229845502897 -2.182383477853059 34.000000000000000
3.674076400973713 -4.524025037025686 -2.285160839891315 20.000000000000000
3.728587296615391 -4.548292211596553 -2.420800431561525 16.000000000000000
6.205059629953067 -8.641051446791742 -1.641085275854075 15.000000000000000
5.778553153919906 -7.771858744598735 -2.184426492543636 15.000000000000000
5.772134127905677 -7.694531421752461 -2.342360734201852 38.000000000000000
6.515770395482116 -8.608681046440841 -2.825056954117752 41.000000000000000
5.439909595831195 -7.123945916422472 -2.509111828729689 27.000000000000000
3.385449663647885 -4.393358908525738 -1.654712082443334 2.000000000000000
3.667882779444391 -4.716800367384668 -1.893740798128177 12.000000000000000
3.776127656755777 -4.811893860184771 -2.053007890437888 11.000000000000000
3.691199737007456 -4.660683315488563 -2.108065353408811 30.000000000000000
3.647241750561968 -4.563054466525332 -2.182626296112295 33.000000000000000
3.648809271785059 -4.523068726531529 -2.283763602741719 21.000000000000000
3.714743388150437 -4.561968563958565 -2.426854009133313 6.000000000000000
6.164770438893027 -8.639326411227533 -1.644762778037337 27.000000000000000
6.219374430684633 -8.640897828690036 -1.838663211435416 5.000000000000000
5.746740885604762 -7.778929155949006 -2.188672287128675 5.000000000000000
5.777454811912993 -7.751527017415370 -2.361598779340598 42.000000000000000
5.824939540858434 -7.746043610328069 -2.543479453866223 5.000000000000000
5.439676823598308 -7.170222610260384 -2.526445680025236 27.000000000000000
3.363809745635958 -4.393951660600235 -1.655339481639036 1.000000000000000
3.409607284938039 -4.413601246494085 -1.772175555480695 8.000000000000000
3.664170082773793 -4.700185011762375 -2.005258701442239 18.000000000000000
3.672822804502029 -4.668372420575167 -2.111181562429676 26.000000000000000
3.624374036181055 -4.564794871826691 -2.182827667041399 35.000000000000000
3.623587706750215 -4.522014518155465 -2.282319177740029 21.000000000000000
3.686894605792299 -4.558369198066191 -2.423719129746893 5.000000000000000
6.138257042931939 -8.656795189816664 -1.652058569319964 26.000000000000000
6.178823585322745 -8.639317814517820 -1.841935612667932 26.000000000000000
6.242587588012565 -8.654318965122686 -2.039450773102714 0.000000000000000
5.726473733191600 -7.801614250098978 -2.197291440778665 6.000000000000000
5.761649358249887 -7.780526960895785 -2.372302865013756 0.000000000000000
5.797326262926443 -7.759619272805826 -2.549426002511884 4.000000000000000
5.789132329993940 -7.680863748322628 -2.707460608304801 20.000000000000000
3.383129704633561 -4.408292363996240 -1.770202201772013 3.000000000000000
3.652801471091378 -4.716736553109978 -2.012226056224517 31.000000000000000
3.642828867445486 -4.661159492166041 -2.107555463349957 28.000000000000000
3.596893750178681 -4.560570396357728 -2.180176371257849 35.000000000000000
3.598412138041975 -4.520862643742839 -2.280827709670919 20.000000000000000
3.663740451666737 -4.560419537700230 -2.423593105903473 5.000000000000000
6.129894426119954 -8.700035941279184 -1.664257475595034 9.000000000000000
6.147463366154950 -8.650434774551297 -1.847878884834313 31.000000000000000
6.188007333174053 -8.633756285591062 -2.037810993591146 21.000000000000000
5.708408958155945 -7.827408386429941 -2.206771650735788 0.000000000000000
6.495784782820573 -8.751350343334277 -2.876913489053808 35.000000000000000
3.433350106556742 -4.585200043980947 -1.616895668397909 0.000000000000000
4.865281568937463 -6.381594251275837 -2.562823846275938 4.000000000000000
3.657529856775485 -4.754294229429027 -2.028148349311202 1.000000000000000
3.622161936740976 -4.665724343626684 -2.109251823115062 26.000000000000000
3.574098039477915 -4.562129403823387 -2.180289546590128 34.000000000000000
3.575589828720966 -4.522531098635223 -2.280760802588570 20.000000000000000
3.636003225920259 -4.556609840715116 -2.420357680301741 5.000000000000000
6.131993238215760 -8.683982827953590 -1.858592254983145 18.000000000000000
6.154113333603335 -8.641757996409616 -2.042871461608903 31.000000000000000
6.200171593975500 -8.630928751649444 -2.237083165465751 15.000000000000000
6.501623541838353 -8.816633450674091 -2.900015502832348 6.000000000000000
3.409027696176450 -4.582695923335046 -1.616639799383348 17.000000000000000
3.312853359822939 -4.413625295071067 -1.663914171770499 3.000000000000000
4.869072543978613 -6.429001356329820 -2.582072447043837 3.000000000000000
4.607451715604634 -6.029039565040226 -2.571811542775145 5.000000000000000
3.596900804171810 -4.664253859741726 -2.108216435006754 26.000000000000000
3.549030091999529 -4.560650909609612 -2.178950363537185 36.000000000000000
3.548200711991782 -4.518266831670292 -2.277704226902412 20.000000000000000
3.612920564913033 -4.558477225791965 -2.420142634962758 5.000000000000000
6.120889856505532 -8.723971861540807 -1.870674296496296 0.000000000000000
6.136099012623188 -8.672088016564537 -2.053187361212432 21.000000000000000
6.166015732750198 -8.639040055235279 -2.241950246441138 29.000000000000000
6.211790826111402 -8.628828546996658 -2.437506233668696 6.000000000000000
3.387040533551096 -4.583192109428469 -1.617430836899841 15.000000000000000
3.341619403692594 -4.481465836597690 -1.689864999422415 14.000000000000000
4.705439150113837 -6.254321949851692 -2.512110537412573 0.000000000000000
3.573975988161112 -4.665674959275846 -2.108484956179228 26.000000000000000
3.528586051726936 -4.564996433715345 -2.180392633386083 35.000000000000000
3.527738283357388 -4.522685562916934 -2.279026525321153 21.000000000000000
3.585296718119278 -4.554458242209087 -2.416807307796147 5.000000000000000
6.131495390650238 -8.721669549833685 -2.068053320864522 1.000000000000000
6.143178277926440 -8.662997108253292 -2.250905983822468 25.000000000000000
6.175104656333035 -8.633879740650480 -2.441283905513501 23.000000000000000
6.228605555073598 -8.633103307520711 -2.640269706106041 1.000000000000000
3.439204146586893 -4.725358532700200 -1.556009503678222 14.000000000000000
3.367358390299056 -4.586708529084969 -1.619277104297393 19.000000000000000
3.287936703467210 -4.438777138190637 -1.674130745034365 6.000000000000000
3.371370765025397 -4.511035702118086 -1.812035336009776 2.000000000000000
4.721358795247323 -6.261132076463528 -2.670515352440475 2.000000000000000
3.553357051285126 -4.670007719091078 -2.110065773788108 25.000000000000000
3.508148512571605 -4.569271820286998 -2.181799497220763 34.000000000000000
3.509558316493115 -4.529971799449129 -2.281793136839892 20.000000000000000
3.560013869241264 -4.553235939734327 -2.414961641086978 5.000000000000000
6.127001211431700 -8.696499929929702 -2.262326484804343 7.000000000000000
6.149727806833768 -8.654689140742102 -2.449493780146473 28.000000000000000
6.184859528867166 -8.628833838212227 -2.640897423359087 21.000000000000000
3.426030130830943 -4.738343970562135 -1.561127143853430 21.000000000000000
3.343151274015006 -4.583941670738213 -1.618894165262696 21.000000000000000
3.250448376327919 -4.417402982371485 -1.666421388533736 8.000000000000000
3.276743791191052 -4.413762164981493 -1.773084791505690 5.000000000000000
4.731805868937002 -6.317167847099891 -2.694253813259002 5.000000000000000
3.530475534482319 -4.671267847359077 -2.110254771029099 25.000000000000000
3.483182371986571 -4.567529833989775 -2.180332034139605 34.000000000000000
3.482301871257714 -4.525423790543355 -2.278599831786888 22.000000000000000
3.537041511840532 -4.554830443558380 -2.414614042440450 6.000000000000000
6.128765940362817 -8.681802680444878 -2.459470322258178 14.000000000000000
6.152452029608191 -8.640204156929499 -2.646286105081658 28.000000000000000
3.419564856078932 -4.760714630574192 -1.569329921114963 25.000000000000000
3.321249874530858 -4.584195360839408 -1.619566659507168 22.000000000000000
3.289905764768834 -4.500888675122392 -1.698265348258567 25.000000000000000
3.266384893154778 -4.429326120966055 -1.779453804935110 3.000000000000000
3.413548405938096 -4.587946165896146 -1.956622922066571 0.000000000000000
3.507621339490067 -4.672444399244370 -2.110402775472926 23.000000000000000
3.462779395943178 -4.571652025438153 -2.181662809266967 35.000000000000000
3.459625174459579 -4.526668040967361 -2.278325283871961 22.000000000000000
3.509591126360824 -4.550499515797497 -2.411130084109129 6.000000000000000
6.135712313329622 -8.673647048564050 -2.658417816106303 19.000000000000000
3.395033128330439 -4.757936736967927 -1.569232954200818 23.000000000000000
3.303869763820118 -4.590610017810028 -1.622405697751771 19.000000000000000
3.286130770190617 -4.525828322352293 -1.708018313075201 30.000000000000000
3.354890621798197 -4.579940430309268 -1.840075696972566 20.000000000000000
3.395673766713715 -4.594753481644260 -1.959397895520518 0.000000000000000
3.487043079297064 -4.676552715309371 -2.111871507468910 24.000000000000000
3.440136850583539 -4.572717594369617 -2.181533463277543 36.000000000000000
3.434731704090331 -4.524871824915578 -2.276522147707309 22.000000000000000
3.486694333595028 -4.551913149101582 -2.410694776845967 6.000000000000000
3.854879125466136 -4.987581155403771 -2.776415881366951 0.000000000000000
6.491337643938180 -9.237183561417343 -2.833121149028459 43.000000000000000
3.375017789645731 -4.761366836812783 -1.571170507893483 26.000000000000000
3.282006671745800 -4.590715737132197 -1.623004999210671 15.000000000000000
3.288932680534552 -4.560097620224013 -1.721287749604662 19.000000000000000
3.330500722907927 -4.577302505577893 -1.839122265413619 25.000000000000000
4.631305817939467 -6.309154037868055 -2.690308113799101 13.000000000000000
3.459758469698105 -4.671525709862184 -2.109211908142198 23.000000000000000
3.417522788586013 -4.573700350671086 -2.181363585413138 37.000000000000000
3.416591110852080 -4.531871542619066 -2.279144905978122 23.000000000000000
3.461593681092818 -4.550309391144189 -2.408665529267872 6.000000000000000
3.821367746834050 -4.978481026729607 -2.769742805740234 27.000000000000000
5.560978689983452 -8.308649549517067 -1.618098474401282 0.000000000000000
6.505865788068529 -9.319376649314430 -2.860302294487846 42.000000000000000
3.352787464615020 -4.761570977229482 -1.572031184781734 28.000000000000000
3.255722763031798 -4.584473983066384 -1.621348694409699 18.000000000000000
3.282629036577029 -4.581994172767470 -1.729882079491635 22.000000000000000
3.315072632932198 -4.586900859555143 -1.843078387642879 24.000000000000000
3.346518880485138 -4.589865113306155 -1.957042059898449 0.000000000000000
3.439226263574652 -4.675474153247824 -2.110601845505180 24.000000000000000
3.392711376309435 -4.571600715195228 -2.179723014028851 37.000000000000000
3.391765402214548 -4.529903221069517 -2.277258058298267 23.000000000000000
3.445427912801712 -4.560370326458444 -2.412812670566066 6.000000000000000
3.648244451038517 -4.785949095731430 -2.661090693406402 35.000000000000000
3.867639575799394 -4.981046034117528 -3.047385849824785 13.000000000000000
5.531057779074528 -8.317852702647395 -1.623307198776792 52.000000000000000
6.504448662562797 -9.379432510385717 -2.880690434462636 40.000000000000000
3.326160381339776 -4.755366188836934 -1.570762084999547 27.000000000000000
3.236155601228033 -4.587546584194778 -1.622975434959893 41.000000000000000
3.260693950725517 -4.582095443187439 -1.730240535076824 13.000000000000000
3.292959715439892 -4.587189686965414 -1.843287033613638 13.000000000000000
3.335322672031351 -4.605652627921499 -1.963629940786561 0.000000000000000
3.416484929574550 -4.676317962287061 -2.110586895055822 26.000000000000000
3.372381533480740 -4.575418062003344 -2.180902645817012 36.000000000000000
3.369203434838385 -4.530816287298976 -2.276821465424890 23.000000000000000
3.415962326519149 -4.552706341422408 -2.407585170367617 6.000000000000000
3.564839417497566 -4.709097757014040 -2.616852736082208 28.000000000000000
3.598178945373865 -4.709198517370958 -2.746558137207254 7.000000000000000
3.627321248038377 -4.704382451538278 -2.875991361806917 26.000000000000000
5.498948018109503 -8.323666797743554 -1.627822390272085 0.000000000000000
5.540449986835868 -8.317171344106150 -1.808980590318745 44.000000000000000
6.511499953338588 -9.452343322732037 -2.905025656835858 10.000000000000000
3.301806953361079 -4.752225338848419 -1.570490742266083 28.000000000000000
3.223212346026018 -4.599991153689382 -1.627908952738105 76.000000000000000
3.240995612651374 -4.585237678281948 -1.731738684801523 20.000000000000000
3.266462898420698 -4.581206763312334 -1.840968420430503 13.000000000000000
3.370403480722223 -4.685864869258174 -1.997677352373898 2.000000000000000
3.391566085555881 -4.674037968672971 -2.109159205633986 27.000000000000000
3.347649744656754 -4.573140729165143 -2.179176233889879 34.000000000000000
3.344467828815959 -4.528663648533720 -2.274846038848415 23.000000000000000
3.393190090047341 -4.553780093073670 -2.406983979325677 6.000000000000000
3.686334858155202 -4.903585328846183 -2.723367444226785 38.000000000000000
3.570121847542925 -4.705246524674046 -2.742449477335819 31.000000000000000
3.605681747278161 -4.709269633679019 -2.876856384085548 29.000000000000000
3.559154394013698 -4.560208015728596 -3.050987193165132 18.000000000000000
5.521121333643693 -8.342770634817121 -1.817586684044971 0.000000000000000
5.545315035030487 -8.310939435336616 -1.993266380700667 31.000000000000000
3.255581152056732 -4.717225307175662 -1.559672005171105 30.000000000000000
3.205828419285694 -4.606101269956015 -1.630592296378766 33.000000000000000
3.225698975079124 -4.594567780764891 -1.735565910627043 59.000000000000000
3.248824945958183 -4.587524712608511 -1.843586038601402 15.000000000000000
3.341265178972764 -4.677150769217425 -1.993806331064516 14.000000000000000
3.366697628441777 -4.671662576532138 -2.107685899196936 32.000000000000000
3.325163631721500 -4.573787443043829 -2.178842639598205 32.000000000000000
3.324168556842729 -4.532395395503170 -2.275827626275725 23.000000000000000
3.372637312013417 -4.557730475483669 -2.407905827573479 6.000000000000000
3.719018625464225 -4.981685627808879 -2.765162702108618 32.000000000000000
3.572688686775601 -4.741735871909786 -2.761908845061615 27.000000000000000
3.570983858981889 -4.696899906553837 -2.867194717263787 56.000000000000000
3.524713122195104 -4.548285951345609 -3.040321744654309 20.000000000000000
4.917362379724355 -7.541480535300755 -1.480876281851901 21.000000000000000
5.527892813483125 -8.339814488691061 -2.002875766706538 1.000000000000000
5.550941927358928 -8.304514138375339 -2.179968954965384 33.000000000000000
3.227069582607483 -4.707469346072117 -1.557180228747115 32.000000000000000
3.210272680338468 -4.643747052373708 -1.644433833099695 7.000000000000000
3.212556298980392 -4.606989759761996 -1.740553756518168 33.000000000000000
3.226803786905339 -4.587571240338896 -1.843676608201342 47.000000000000000
3.323151137900196 -4.683723536732560 -1.996446930456721 35.000000000000000
3.344065639499377 -4.672245790021289 -2.107544608388625 39.000000000000000
3.302707789274844 -4.574352179387173 -2.178469049033997 31.000000000000000
3.299514131927378 -4.530065688618835 -2.273766775641222 23.000000000000000
3.345554759342419 -4.552713018480024 -2.404093909065074 7.000000000000000
3.509662178411225 -4.734239725490224 -2.626318643085797 21.000000000000000
3.568515366057965 -4.769583961019636 -2.776319671974469 37.000000000000000
3.562421608550133 -4.718824679687205 -2.878475625276339 20.000000000000000
3.545021073230265 -4.652100863417527 -2.970586330498281 26.000000000000000
3.499028039708719 -4.547422488324524 -3.037073507508924 22.000000000000000
4.887719244743736 -7.545503572121778 -1.484628043537927 77.000000000000000
4.927024147830452 -7.543938048334280 -1.648948686160367 11.000000000000000
5.526764920240410 -8.323614764644438 -2.187302166183975 7.000000000000000
5.558326193019218 -8.302221943631229 -2.368532189075038 11.000000000000000
3.216023567929436 -4.723108847468158 -1.563077485440321 15.000000000000000
3.212324681730315 -4.678298658454583 -1.657177057965825 7.000000000000000
3.214586109241743 -4.641364208610727 -1.753829646601217 7.000000000000000
3.217868137192953 -4.606223839409601 -1.851238124308441 38.000000000000000
3.305025549244489 -4.690239794069906 -1.999057976388941 57.000000000000000
3.321463856244440 -4.672746759089701 -2.107363181105358 36.000000000000000
3.282456379761242 -4.577866802950615 -2.179498944575896 31.000000000000000
3.279254766476652 -4.533646227789291 -2.274673615662719 22.000000000000000
3.325051401419953 -4.556504391827799 -2.404937609413015 7.000000000000000
3.419050718478929 -4.644463558965495 -2.575054646781363 13.000000000000000
3.497176516679226 -4.707271998740342 -2.738271487829953 13.000000000000000
3.517013538919157 -4.648274500215797 -2.965764646377544 27.000000000000000
3.477682948207036 -4.552077780944168 -3.037526162518514 21.000000000000000
2.970375179667028 -4.615934830906644 -0.910007103731018 3.000000000000000
4.899288606858456 -7.551352635635391 -1.653223674821204 39.000000000000000
4.934577844679832 -7.544292646367258 -1.816591853104008 8.000000000000000
3.289031948984565 -4.986676997542887 -1.311784037383991 14.000000000000000
5.529570206889878 -8.314879426294301 -2.374095502136246 11.000000000000000
5.568604776358558 -8.303438966206901 -2.558503894699697 23.000000000000000
3.215710126383797 -4.754707726988021 -1.574251191517135 8.000000000000000
3.218504282944263 -4.719251091776768 -1.672185191129621 6.000000000000000
3.214252640229436 -4.672649991620260 -1.765933753171189 7.000000000000000
3.211003348584179 -4.627992206490288 -1.860045599453503 7.000000000000000
3.293384461727204 -4.705981547989652 -2.005595287498132 46.000000000000000
3.305386512641131 -4.682364793493926 -2.111289639698607 33.000000000000000
3.257888316012604 -4.575236380195003 -2.177602302012168 33.000000000000000
3.256844155186682 -4.534148953576025 -2.274036810522593 22.000000000000000
3.302399022789623 -4.557247384589393 -2.404174904188810 7.000000000000000
3.391610896963997 -4.639694811438234 -2.570957716553930 15.000000000000000
3.422028473352521 -4.638765430665429 -2.696678031732372 12.000000000000000
3.617897567668656 -4.860704862669566 -2.960726503390283 13.000000000000000
3.497638566116270 -4.655734702366995 -2.968156808861659 31.000000000000000
3.452075639653871 -4.551031910273339 -3.034189567212658 22.000000000000000
2.907286485815571 -4.547906553164989 -0.898340288016243 19.000000000000000
2.938697809818495 -4.559675104227462 -0.999837049951769 7.000000000000000
4.902340345512838 -7.545206797149719 -1.819151869691678 52.000000000000000
3.268931074331803 -4.989533736824399 -1.313889919422117 29.000000000000000
3.294035205636825 -4.986731063657364 -1.424984688612431 9.000000000000000
5.541729284564950 -8.319397653229212 -2.565006671344059 36.000000000000000
3.217369983715688 -4.789552497623898 -1.586497166839576 5.000000000000000
3.217985789493118 -4.750752092761819 -1.683841444952446 6.000000000000000
3.215894995305066 -4.707133220178866 -1.779241475084363 6.000000000000000
3.214796585735003 -4.665402519462798 -1.875133660232448 6.000000000000000
3.281669054748511 -4.721704339316328 -2.012118373055464 17.000000000000000
3.278506386997163 -4.676575275562883 -2.108265534132917 27.000000000000000
3.235525382963817 -4.575556177978308 -2.177109358383581 33.000000000000000
3.230163715102111 -4.528540095043236 -2.270337195489587 24.000000000000000
3.277629632401212 -4.554923221936046 -2.401798167014298 7.000000000000000
3.372820041202153 -4.646633274941851 -2.573353488712397 20.000000000000000
3.398784044913570 -4.639998374568069 -2.695660605500372 16.000000000000000
3.422848371427823 -4.631485858518678 -2.819076403461851 10.000000000000000
3.471860069362702 -4.654568177815232 -2.965060326002592 27.000000000000000
3.426518340414957 -4.549888847960329 -3.030806416451925 23.000000000000000
2.891169647056529 -4.552833109097766 -0.901039817456580 25.000000000000000
2.916035115971181 -4.554786761989916 -1.000328323713944 10.000000000000000
3.005838184323622 -4.657378358938702 -1.124321853986441 1.000000000000000
3.246709660190762 -4.989048775265274 -1.315098741710319 24.000000000000000
3.271651733815645 -4.986397864068560 -1.426027795603429 24.000000000000000
3.296054921356147 -4.981784992901794 -1.536900855586458 6.000000000000000
3.334401009261977 -4.997671643918464 -1.656161842636772 14.000000000000000
3.223715205156672 -4.791848692300760 -1.698895637211764 6.000000000000000
3.215194403875455 -4.738513799375063 -1.791371518814581 6.000000000000000
3.211936457552231 -4.693482318840399 -1.886465455654934 6.000000000000000
3.284888642094884 -4.759153378890069 -2.027892927458267 3.000000000000000
3.260273764575238 -4.682994529078184 -2.110742338762882 25.000000000000000
3.215336245338428 -4.578845194633767 -2.178027895365950 34.000000000000000
3.209977259499085 -4.531888601942696 -2.271130047593183 25.000000000000000
3.252912627560514 -4.552504437800055 -2.399376331730426 7.000000000000000
3.358284269926301 -4.659433857497356 -2.578995713446008 20.000000000000000
3.375569523629680 -4.641147428937212 -2.694602184741191 18.000000000000000
3.395247126957168 -4.627029968431998 -2.814347991653001 15.000000000000000
3.427057179096156 -4.627547822520729 -2.945522745030016 10.000000000000000
3.405238957386229 -4.554302849801558 -3.031139916828082 23.000000000000000
2.885569121081248 -4.574391745563351 -0.907020951017272 17.000000000000000
2.899758051466474 -4.559766881725633 -1.002968208505863 10.000000000000000
2.908706145224065 -4.537255478139136 -1.096695621780330 26.000000000000000
3.165159164018554 -4.896650971232165 -1.292037434581701 4.000000000000000
3.264165164206465 -5.008795670225154 -1.433560502634864 0.000000000000000
3.275673938419735 -4.984760759675646 -1.538739879887313 27.000000000000000
3.320189142020999 -5.010462242918847 -1.661116544222741 27.000000000000000
3.378407244014601 -5.056333413052744 -1.793169515030868 11.000000000000000
3.220713830558090 -4.779433157625667 -1.807102961493942 6.000000000000000
3.217452722868711 -4.734150507057121 -1.902850743656875 5.000000000000000
4.358955783598081 -6.359244844970732 -2.709445234425309 15.000000000000000
3.237764527033116 -4.683186814387928 -2.110408995675738 21.000000000000000
3.195157914038083 -4.582065506771090 -2.178912021174420 33.000000000000000
3.189801639553218 -4.535168380819750 -2.271888478318505 26.000000000000000
3.232501712646100 -4.555986006525571 -2.400067537817051 7.000000000000000
3.341571160269815 -4.669234478563184 -2.582976493321191 20.000000000000000
3.356623426262209 -4.648081548170864 -2.696908062174403 18.000000000000000
3.376174565893294 -4.634072007086643 -2.816623143722139 17.000000000000000
3.405692392574376 -4.631866571438766 -2.945958484356003 13.000000000000000
3.381864906628085 -4.555811792862193 -3.029553211504165 24.000000000000000
2.909180954431083 -4.642754801860457 -0.922296061022230 18.000000000000000
2.929676494385623 -4.637837464148359 -1.021694325317651 16.000000000000000
2.896556134443427 -4.548855926855603 -1.100857991172706 26.000000000000000
2.982962364799679 -4.646115800092504 -1.227142820669007 6.000000000000000
3.296715836610247 -5.093230998898126 -1.458856636036044 14.000000000000000
3.257419658643659 -4.990910637771634 -1.541546033454651 37.000000000000000
3.288970576024175 -4.997459934718375 -1.657507390913184 26.000000000000000
3.334133784365232 -5.024504735863157 -1.782371472853812 9.000000000000000
3.219623773723572 -4.810917916537145 -1.819262365909844 2.000000000000000
3.220603146185956 -4.771752819115100 -1.917997499488517 5.000000000000000
4.333056665736073 -6.365619045487422 -2.711901565184104 14.000000000000000
3.215287177361333 -4.683297603398940 -2.110036000899872 24.000000000000000
3.172869769641366 -4.582154260149001 -2.178305708823785 33.000000000000000
3.163280914000064 -4.529278486458973 -2.268055169351670 28.000000000000000
3.209985450368698 -4.556394698650058 -2.399142504841032 7.000000000000000
3.329049755445498 -4.684934384067533 -2.590218821402940 16.000000000000000
3.343990726646604 -4.663778671467100 -2.704298527099052 17.000000000000000
3.357089812174685 -4.641054918841006 -2.818867367098822 18.000000000000000
3.380139949052003 -4.630364868689223 -2.942704726545184 15.000000000000000
3.360613395291281 -4.560076002520740 -3.029811951033147 24.000000000000000
2.886543330514258 -4.637626985883775 -0.922975373921877 37.000000000000000
2.911067738460718 -4.639516403251641 -1.023599612178584 30.000000000000000
2.930440138359250 -4.633289974876240 -1.122657830420452 14.000000000000000
2.938828430004119 -4.608553937490435 -1.218408004012173 16.000000000000000
2.992303501278327 -4.654549726997405 -1.334222843135978 2.000000000000000
3.211775711904716 -4.954766537425602 -1.531269191235320 30.000000000000000
3.276845216830596 -5.013362134287481 -1.663472733598877 42.000000000000000
3.283770940834150 -4.982864225655267 -1.768074805209931 25.000000000000000
3.243695717252514 -4.880573884647547 -1.845852824678622 0.000000000000000
3.221419068278880 -4.806269889712768 -1.931897754481237 5.000000000000000
4.305045214569399 -6.368783967058103 -2.712983686175928 14.000000000000000
3.192842062040172 -4.683327066593345 -2.109623462654230 25.000000000000000
3.150614286423902 -4.582162156357865 -2.177660118343411 33.000000000000000
3.145267861119106 -4.535442406812948 -2.270259072505606 26.000000000000000
3.187501450136174 -4.556721817916616 -2.398177803980029 7.000000000000000
3.316452898148299 -4.700612801445453 -2.597445565406692 13.000000000000000
3.331282375218622 -4.679454019965308 -2.711673249414150 16.000000000000000
3.344271452925008 -4.656720973621280 -2.826386778731200 18.000000000000000
3.362989118610761 -4.640288098004345 -2.946721323034270 17.000000000000000
3.335207170247517 -4.558577444503071 -3.026256567774352 23.000000000000000
2.872255762439030 -4.645829922042093 -0.926288923929324 74.000000000000000
2.892472392766140 -4.641131763154225 -1.025473263486996 53.000000000000000
2.913795366317987 -4.638331470352337 -1.125229636280061 25.000000000000000
2.899135823474511 -4.577379089988294 -1.211328255917733 55.000000000000000
2.962735203461562 -4.640178818551226 -1.331103544446533 4.000000000000000
2.994558785957372 -4.651493101247787 -1.438362126340148 6.000000000000000
3.241566762530799 -4.993689741564990 -1.657621093327477 40.000000000000000
3.282010059387703 -5.014777440835107 -1.779865497437719 28.000000000000000
3.082429803117924 -4.670264839096485 -1.766543755911379 28.000000000000000
3.282985456031152 -4.932415213483543 -1.982622167051510 0.000000000000000
4.281258929936712 -6.378114711451170 -2.716685241688354 14.000000000000000
3.168328512999911 -4.680171813410659 -2.107773761737286 24.000000000000000
3.128391808298613 -4.582089368375132 -2.176975359069024 34.000000000000000
3.120952961941637 -4.532412282178602 -2.267861440587645 28.000000000000000
3.167144730938226 -4.559983398267659 -2.398760025682761 7.000000000000000
3.316326631922331 -4.734179342574071 -2.614547689897359 9.000000000000000
3.322672626003766 -4.701013116322623 -2.722452258638873 11.000000000000000
3.329295201595662 -4.669444463017966 -2.832118971269206 16.000000000000000
3.343728069353187 -4.647277538310879 -2.948880140007524 16.000000000000000
3.313995442755707 -4.562686163096043 -3.026438365882630 24.000000000000000
2.855877125258135 -4.650633181061165 -0.928909500780484 132.000000000000000
2.875959755791007 -4.646026098198380 -1.028054948886514 85.000000000000000
2.895069518278683 -4.639997146970439 -1.126967151446667 43.000000000000000
2.909544133272176 -4.625311676022560 -1.225171349726573 22.000000000000000
2.937448837628775 -4.632248788150614 -1.329812577392219 7.000000000000000
2.964901597443744 -4.637257264311177 -1.434763946462538 10.000000000000000
3.006043995637883 -4.662997115409797 -1.548469372628770 5.000000000000000
3.248730778183941 -4.998512764970189 -1.774547398440072 22.000000000000000
3.025035610139510 -4.615365247752431 -1.745997476294575 13.000000000000000
3.195262011421482 -4.834333405195058 -1.943210026163382 8.000000000000000
2.990253667071701 -4.486220089707589 -1.910657560440454 3.000000000000000
3.150140254219496 -4.686252359806284 -2.110080377368584 23.000000000000000
3.108291583856006 -4.585017399235818 -2.177715059054956 35.000000000000000
3.100866286261490 -4.535393567168621 -2.268472936936295 28.000000000000000
3.144715594270079 -4.560153997509771 -2.397718780455755 7.000000000000000
3.311835981749859 -4.761814981347092 -2.628361564436170 0.000000000000000
3.320173731179723 -4.731451346978154 -2.738362749155549 5.000000000000000
3.322550265815035 -4.693838464017547 -2.844924639571640 15.000000000000000
3.332719844745952 -4.665777832900267 -2.958344072357542 16.000000000000000
3.288672289091564 -4.561007889359421 -3.022796322639416 22.000000000000000
2.845651184737275 -4.665483684485706 -0.933524142484281 109.000000000000000
2.859440246872164 -4.650868819675041 -1.030609866410243 137.000000000000000
2.876357525942602 -4.641598953545046 -1.128672909838312 78.000000000000000
2.896927536505752 -4.636939700918520 -1.229397030369108 32.000000000000000
2.914310520223145 -4.627507020939544 -1.329419784293855 10.000000000000000
2.945735692185945 -4.639231449609236 -1.436166003196840 15.000000000000000
2.967946365915242 -4.635953352733703 -1.540093140146934 10.000000000000000
3.007729933613767 -4.660056605673437 -1.654804241704467 6.000000000000000
3.001315867840622 -4.611311663090113 -1.744675272736213 12.000000000000000
2.966759408341331 -4.520243116923609 -1.816963614639248 5.000000000000000
2.970818865062401 -4.488593660533712 -1.911467033878927 5.000000000000000
3.125703572747090 -4.682929223595759 -2.108149677349520 24.000000000000000
3.084047238188012 -4.581702437542359 -2.175488774147849 35.000000000000000
3.076639927006514 -4.532190351152193 -2.265992361079870 28.000000000000000
3.120246482421313 -4.557215463469315 -2.395046786276538 7.000000000000000
3.321847461781592 -4.727043292262946 -2.863056959567358 9.000000000000000
3.323669818114094 -4.687165790059582 -2.969632939717056 19.000000000000000
3.267501679446740 -4.564961668849052 -3.022901542682399 20.000000000000000
2.829228179184991 -4.670202050329830 -0.936098669585976 65.000000000000000
2.847010486188818 -4.662368376462600 -1.034626702580401 104.000000000000000
2.861765485577958 -4.649808155126554 -1.131971035880925 114.000000000000000
2.878090233789060 -4.638592109733382 -1.230965412059672 62.000000000000000
2.897410553094610 -4.632561374415118 -1.331827015453992 12.000000000000000
2.922455764418537 -4.634594367297353 -1.435508047916316 23.000000000000000
2.946583776994598 -4.634737469045784 -1.540281999562197 16.000000000000000
2.973723536839812 -4.639683307640054 -1.647971823561062 11.000000000000000
2.977652105529270 -4.607167583760742 -1.743310297560739 12.000000000000000
2.945314753922892 -4.519293955959684 -1.816581168005001 5.000000000000000
2.945188663798296 -4.481453105002151 -1.908220585336137 22.000000000000000
3.103390840617266 -4.682635111651075 -2.107580058148533 23.000000000000000
3.063993301089577 -4.584482089139727 -2.176155560899825 36.000000000000000
3.056599656032953 -4.535023261163484 -2.266530953559945 28.000000000000000
3.095832472988848 -4.554183922148228 -2.392330684172721 8.000000000000000
3.308366886601173 -4.699840285064768 -2.975398097485982 17.000000000000000
3.244302251308162 -4.565974348143977 -3.021072186202766 22.000000000000000
2.818895901749937 -4.685002523664668 -0.940681268205708 38.000000000000000
2.832494719874068 -4.670479615067358 -1.037879485839169 57.000000000000000
2.847145877135992 -4.657977110310982 -1.135246930903784 88.000000000000000
2.865407385886917 -4.650144973033020 -1.235148672298373 97.000000000000000
2.882553861405079 -4.640863746482729 -1.335156516173643 13.000000000000000
2.903338808490080 -4.636426333312256 -1.436840498762498 34.000000000000000
2.925256314941981 -4.633444103808754 -1.540433454834046 22.000000000000000
2.948109101186656 -4.632090058395837 -1.645666557480844 16.000000000000000
2.958161852906187 -4.609348514961696 -1.744330450239014 12.000000000000000
2.925964603143218 -4.521448735236183 -1.817440088636781 6.000000000000000
2.927872706514659 -4.486831617128445 -1.910300357007522 6.000000000000000
3.085228443117492 -4.688516068858394 -2.109786369715059 23.000000000000000
3.041895515882321 -4.584094329872689 -2.175317642387909 35.000000000000000
3.040681340765822 -4.543928666817392 -2.270103357733671 29.000000000000000
3.077629228193869 -4.560179998907145 -2.394359353007405 8.000000000000000
3.288941692352257 -4.706657490126476 -2.977458952688252 12.000000000000000
3.243447575137961 -4.598538597028464 -3.040116214714689 15.000000000000000
2.812538868400145 -4.706553554678922 -0.946612249380721 22.000000000000000
2.822006330276207 -4.685282540904870 -1.042608164064050 35.000000000000000
2.834530766602836 -4.669453016622153 -1.139317277469368 55.000000000000000
2.848603465519423 -4.655014141827832 -1.237545003470026 81.000000000000000
2.863590109691583 -4.642511872855207 -1.336559461481229 40.000000000000000
2.886278828768813 -4.641478150829825 -1.439159163529276 48.000000000000000
2.908054399844390 -4.638597484227457 -1.542717403436025 33.000000000000000
2.928712548924332 -4.634110349203858 -1.646766552118070 23.000000000000000
2.936637689787675 -4.608249700938019 -1.744101422716915 13.000000000000000
2.906628750687901 -4.523537671758183 -1.818266272540702 6.000000000000000
2.908501342445423 -4.488994845889418 -1.911006335565481 5.000000000000000
3.062962444016149 -4.688073174836229 -2.109143658911731 24.000000000000000
3.023924334552451 -4.589837615330222 -2.177387490503536 35.000000000000000
3.016558173215794 -4.540485325676824 -2.267506514856884 29.000000000000000
3.051253319275201 -4.553935101378674 -2.389964073797610 9.000000000000000
3.263435750220421 -4.704664607244479 -2.973957302572522 13.000000000000000
3.240371037599866 -4.628269504524557 -3.057268868152094 13.000000000000000
2.804059939707585 -4.724721418931393 -0.951856800163766 13.000000000000000
2.815482568484391 -4.706811740838694 -1.048826555186106 21.000000000000000
2.825910113172265 -4.687606280650241 -1.145008030486743 34.000000000000000
2.837869983275592 -4.669830556426887 -1.242574960429006 50.000000000000000
2.850728021514421 -4.654032987329849 -1.340793310021374 38.000000000000000
2.867180131806182 -4.643186100834166 -1.440429423747070 64.000000000000000
2.884742462595103 -4.633893558252578 -1.541711845737072 46.000000000000000
2.909330276839508 -4.636064822277630 -1.647833821689805 34.000000000000000
2.915149198775988 -4.607072968250272 -1.743834801262245 12.000000000000000
2.903608426710417 -4.551110955969835 -1.829329705325862 12.000000000000000
2.887107068111039 -4.487924982834882 -1.910331417767560 6.000000000000000
3.040731037732551 -4.687550121533604 -2.108462144379220 26.000000000000000
2.999839523045363 -4.586190887695270 -2.175001604044426 33.000000000000000
2.994524575186308 -4.540032493736180 -2.266404978026853 30.000000000000000
3.033075946429548 -4.559794270741965 -2.391924436870706 9.000000000000000
3.634616860821311 -5.371424651209938 -3.099145284011002 14.000000000000000
3.252070591281884 -4.723034753506283 -2.983332966078604 17.000000000000000
3.243132211838172 -4.666699658154670 -3.080146710323511 12.000000000000000
2.799493589253989 -4.749673672342268 -0.958463170906704 9.000000000000000
2.804835173788664 -4.721591893156439 -1.053533882871027 12.000000000000000
2.813177331093680 -4.699035960422075 -1.149047582339753 22.000000000000000
2.825051793374384 -4.681290356378074 -1.246702436042305 29.000000000000000
2.837817143227525 -4.665524651430519 -1.345009140674551 37.000000000000000
2.854160344967116 -4.654718850481641 -1.444737051573075 59.000000000000000
2.871606395964622 -4.645469740626123 -1.546112413630440 57.000000000000000
2.887937353505618 -4.634703428629227 -1.647712951602749 46.000000000000000
2.893696710544900 -4.605818499281222 -1.743530699202191 12.000000000000000
2.902457571828720 -4.581912606725774 -1.841684258514890 31.000000000000000
2.869802589648674 -4.493123728249627 -1.912320124635499 6.000000000000000
3.016508701129870 -4.683801486488642 -2.106327346633130 35.000000000000000
2.977836013954152 -4.585570097646573 -2.174050494714244 34.000000000000000
2.974548496524780 -4.542588225355746 -2.266806003318656 30.000000000000000
3.012870967335044 -4.562539026360207 -2.392252111950087 8.000000000000000
3.297624782976172 -4.952373067736358 -2.724629844338663 7.000000000000000
3.603100532348235 -5.364112201651195 -3.093034568492347 21.000000000000000
3.248614808783034 -4.753106798657853 -3.000090262760115 14.000000000000000
2.800767549066624 -4.784844880646570 -0.967132154488540 8.000000000000000
2.796114580918829 -4.739737583027339 -1.058983897144463 9.000000000000000
2.806397200410267 -4.720530237715550 -1.155540145707880 14.000000000000000
2.816193972002204 -4.699410312797990 -1.252594996008825 16.000000000000000
2.824857563543226 -4.676986696585954 -1.349206872814782 31.000000000000000
2.843102257861982 -4.669524062754147 -1.450051922760048 44.000000000000000
2.858421064118498 -4.657015743228359 -1.550494562237120 55.000000000000000
2.872624115884788 -4.643032674421668 -1.651028247211391 56.000000000000000
2.874296190254310 -4.607717696110956 -1.744412521061318 12.000000000000000
2.884998981440142 -4.587109862834900 -1.843740758179450 44.000000000000000
2.858539322079729 -4.507805525893772 -1.918339460274308 27.000000000000000
2.992343266638156 -4.679961278518638 -2.104149283242871 18.000000000000000
2.955868186698541 -4.584869989058742 -2.173061077441674 34.000000000000000
2.952575184377842 -4.541982410266131 -2.265630059261488 29.000000000000000
2.986654103765499 -4.556023861044962 -2.387728594721282 9.000000000000000
3.277880983074098 -4.958994626313977 -2.726805559072791 22.000000000000000
3.461626831841595 -5.191623664215782 -2.991752564339008 18.000000000000000
3.244975322105663 -4.783213154101786 -3.016853838248199 13.000000000000000
2.799866838687421 -4.816659884705426 -0.975125243590802 0.000000000000000
2.797230236904617 -4.774820834549019 -1.068215802028386 6.000000000000000
2.801495148975781 -4.745399754937026 -1.162854288425161 11.000000000000000
2.807245285347309 -4.717523657832422 -1.258478623452425 11.000000000000000
2.815843476085846 -4.695078640417450 -1.355308849849584 24.000000000000000
2.831973882346703 -4.684310774046739 -1.455353050587995 32.000000000000000
2.843184315884838 -4.665246011343496 -1.553764010250614 43.000000000000000
2.859286658595725 -4.654581456160566 -1.655480374979624 55.000000000000000
2.854910766293051 -4.609551176340523 -1.745261719399620 12.000000000000000
2.859512753028543 -4.579407364726864 -1.840606151014515 52.000000000000000
2.841189640785858 -4.512913998477361 -1.920279320161061 94.000000000000000
2.876041466741591 -4.530791842402047 -2.036642030992672 18.000000000000000
2.937941750523100 -4.590348889471100 -2.174998699646670 34.000000000000000
