# This PCD file was generated using the MATLAB® pcwrite function
# from Computer Vision Toolbox®.
# .PCD v.7 - Point Cloud Data file format
VERSION .7
FIELDS x y z intensity
SIZE 8 8 8 8
TYPE F F F F
COUNT 1 1 1 1
WIDTH 636
HEIGHT 1
VIEWPOINT 0 0 0 1 0 0 0
POINTS 636
DATA ascii
2.343265806980436 -4.991065171116887 -2.930172318397042 68.000000000000000
2.310296470462246 -4.884342817696845 -2.991438025061347 32.000000000000000
2.256399060293793 -4.733222986066010 -3.021914533020690 10.000000000000000
1.923018444405318 -4.645212344114389 -0.989635458421054 60.000000000000000
1.934307848652072 -4.642008592426563 -1.082102293907994 47.000000000000000
1.947925129571121 -4.644575030545664 -1.176050371037343 38.000000000000000
1.961313526922068 -4.645150255516629 -1.271152371978399 32.000000000000000
1.976880663454973 -4.651302658242027 -1.368584094562143 22.000000000000000
1.990755812386580 -4.652141769410436 -1.465022952979160 16.000000000000000
2.003956715774574 -4.651180893015370 -1.562265592577242 51.000000000000000
2.022346329664648 -4.662565587474045 -1.664842774977484 12.000000000000000
2.039035406656683 -4.668326812382563 -1.767122911172420 9.000000000000000
2.023169140962245 -4.599983147811307 -1.841424901240903 13.000000000000000
1.987065791202441 -4.486566496246226 -1.894700666647340 7.000000000000000
2.098267059225734 -4.704708745761275 -2.092030345316615 26.000000000000000
2.078844919881153 -4.628843034906837 -2.162977567446965 40.000000000000000
2.069196927913090 -4.575491958666691 -2.243501149919801 51.000000000000000
2.081576684281479 -4.570551371458106 -2.347985235966815 17.000000000000000
2.292046679985015 -4.998179775551439 -2.686842188897266 72.000000000000000
2.305663727026563 -4.991125629076574 -2.804668203664909 74.000000000000000
2.322151192899781 -4.991684065855957 -2.928890579040784 68.000000000000000
2.299795298438185 -4.907123709414349 -3.003580277899224 25.000000000000000
2.253650843411149 -4.771347987694615 -3.044299633136456 10.000000000000000
1.910109279764488 -4.654364897274202 -0.992347692282955 83.000000000000000
1.921278566333344 -4.651191748359613 -1.084899991031215 65.000000000000000
1.931766583787639 -4.646601670796695 -1.177112899730007 49.000000000000000
1.943518186432508 -4.643671686543061 -1.271186188803364 40.000000000000000
1.957427319951668 -4.646366012091679 -1.367456459557706 31.000000000000000
1.969658392127693 -4.643786196693178 -1.462600279544228 22.000000000000000
1.987222758479644 -4.653510997488690 -1.563136943595276 42.000000000000000
2.000930779802153 -4.654512062357377 -1.661931850531191 16.000000000000000
2.014455562915502 -4.653498689296230 -1.761346852200629 13.000000000000000
2.004679815037075 -4.599044221578469 -1.840757204834088 19.000000000000000
1.967320085035570 -4.482172064448652 -1.892429461747978 5.000000000000000
2.035692354591183 -4.605842981519108 -2.047501664724643 12.000000000000000
2.062817016496557 -4.634998662720053 -2.165139568950595 41.000000000000000
2.051710021158490 -4.578302340376784 -2.244025327214088 52.000000000000000
2.060977047014107 -4.566839730060787 -2.345074090859246 17.000000000000000
2.271265714464420 -4.998475628041356 -2.685728476628829 72.000000000000000
2.284741914116624 -4.991543646115046 -2.803451874886963 73.000000000000000
2.301060047413559 -4.992234812725072 -2.927575487124622 69.000000000000000
2.286208945766519 -4.923554751682091 -3.011830218237054 29.000000000000000
2.259456878272192 -4.828337468096849 -3.078692564937360 9.000000000000000
1.894202103966440 -4.656216424257450 -0.993490311882446 86.000000000000000
1.905245337844617 -4.653106677513465 -1.085990078362113 79.000000000000000
1.915612294580687 -4.648579016941912 -1.178150525229554 65.000000000000000
1.927235733176432 -4.645716631617066 -1.272172711342481 52.000000000000000
1.942485860294358 -4.652047963255123 -1.369443109490257 44.000000000000000
1.953099715117135 -4.645977260436041 -1.463489254596900 33.000000000000000
1.964534992020879 -4.641713641829520 -1.559253902473635 47.000000000000000
1.981077685039194 -4.649876824466779 -1.660233936265154 21.000000000000000
1.992973946020545 -4.645518531340469 -1.758157110572203 17.000000000000000
1.984728417805437 -4.594597892051104 -1.838680863530991 27.000000000000000
1.953576310777887 -4.491391673903152 -1.895902009482797 7.000000000000000
2.010975794239998 -4.591497218086911 -2.040557191377140 14.000000000000000
2.045284668695290 -4.637744286496276 -2.165706018154618 41.000000000000000
2.034226247395216 -4.581059504858589 -2.244522529927724 51.000000000000000
2.044862699567527 -4.572976431439401 -2.347221143696768 17.000000000000000
2.251983697721514 -5.001980044121837 -2.686341203831603 72.000000000000000
2.263844075537439 -4.991894124626689 -2.802202535537285 72.000000000000000
2.279992637695468 -4.992717536441683 -2.926227122655065 69.000000000000000
2.294451581907558 -4.987614826201386 -3.049195022253909 66.000000000000000
1.879766893811452 -4.661658520483854 -0.995385484790054 69.000000000000000
1.892157018984286 -4.662217810989074 -1.088747398805041 73.000000000000000
1.902407352354628 -4.657717196890028 -1.180991439216199 73.000000000000000
1.912432157603210 -4.651298134975694 -1.274116518273257 65.000000000000000
1.923098064958932 -4.646989348847915 -1.368257221521318 55.000000000000000
1.936545221877304 -4.648117865635601 -1.464352727584214 46.000000000000000
1.947855011318149 -4.643924400731752 -1.560067631601599 57.000000000000000
1.964230679939305 -4.652173783897677 -1.661003588316516 28.000000000000000
1.975999413533479 -4.647889435339967 -1.758878652599567 23.000000000000000
1.961872689683056 -4.583179965247920 -1.833810501558393 30.000000000000000
1.935361523659581 -4.490302528452615 -1.895018463158106 7.000000000000000
1.992277856063121 -4.590646760626845 -2.039609586020519 18.000000000000000
2.026282990959229 -4.637066647915050 -2.164672294677235 41.000000000000000
2.016745808313574 -4.583763488814887 -2.244992789132565 53.000000000000000
2.022860607769018 -4.565824575550589 -2.342549232531655 18.000000000000000
2.229776563595242 -4.998866077913550 -2.683402767295024 73.000000000000000
2.242970476059276 -4.992177190910972 -2.800920266282967 73.000000000000000
2.260403801526276 -4.996347515411621 -2.926728917970657 70.000000000000000
2.276156089584337 -4.994521145818910 -3.051601543422057 67.000000000000000
1.866769985767662 -4.670703877156226 -0.998037630630632 52.000000000000000
1.879028041484411 -4.671297041263055 -1.091485946589462 64.000000000000000
1.886239372061635 -4.659604582299441 -1.181982304393163 67.000000000000000
1.897610288263121 -4.656838582451217 -1.276038248200928 64.000000000000000
1.909618321659771 -4.656146178519761 -1.371246378240303 63.000000000000000
1.921460749061168 -4.653757828882141 -1.466309196566494 56.000000000000000
1.931179315137452 -4.646084367839193 -1.560855694709001 76.000000000000000
1.942988593002688 -4.643904963755704 -1.657993370030943 39.000000000000000
1.956096229614777 -4.643247295506573 -1.756939979981601 29.000000000000000
1.947908184813950 -4.592408885794210 -1.837196322991423 39.000000000000000
1.920103626024331 -4.496012539099969 -1.897000082652621 7.000000000000000
1.972144031143457 -4.586332854915310 -2.037121219846681 20.000000000000000
2.004386261560606 -4.629578354738023 -2.160459203921303 44.000000000000000
1.997810649392455 -4.583069023703830 -2.243798327198887 54.000000000000000
2.005297662450805 -4.568539013896852 -2.342941860881681 17.000000000000000
2.210520329188716 -5.002245398345946 -2.683953212887701 71.000000000000000
2.222121379752880 -4.992392972107234 -2.799605148177051 73.000000000000000
2.237930090786318 -4.993479417519977 -2.923430898030169 69.000000000000000
2.256399845954109 -4.998191135561082 -3.052035567875462 69.000000000000000
1.855177633157727 -4.683364998275234 -1.001451068381137 41.000000000000000
1.864410983524158 -4.676713231713925 -1.093356772890890 49.000000000000000
1.871525853273972 -4.665056251772205 -1.183865342143346 54.000000000000000
1.882770271442031 -4.662337919361657 -1.277937882158797 56.000000000000000
1.893191418676034 -4.658120229901009 -1.372110118043882 62.000000000000000
1.904903677526166 -4.655801906050371 -1.467123236461420 61.000000000000000
1.914508096109237 -4.648193582994200 -1.561618123916257 90.000000000000000
1.927639632262324 -4.649595651342328 -1.659959555877818 49.000000000000000
1.937698438372525 -4.642021318819051 -1.756287800321496 39.000000000000000
1.930993378834381 -4.594683934620818 -1.837794360595097 44.000000000000000
1.906279981193297 -4.505114006256179 -1.900407436297827 7.000000000000000
1.952060912612117 -4.581949301365898 -2.034600401347769 21.000000000000000
1.988360262586543 -4.635525511202149 -2.162514901951157 43.000000000000000
1.978902607172762 -4.582312777335372 -2.242573985846140 54.000000000000000
1.987738354830983 -4.571200095545024 -2.343307474324055 19.000000000000000
2.189825932570935 -5.002277846388894 -2.682710333332082 70.000000000000000
2.202732990658177 -4.995798309562129 -2.800082609860337 75.000000000000000
2.216935484460877 -4.993758828541790 -2.921983199831774 69.000000000000000
2.233791646070881 -4.995421800494227 -3.048545869277838 68.000000000000000
1.843522475020459 -4.696002565260057 -1.004848640923304 31.000000000000000
1.851212358485453 -4.685724037918371 -1.096056131895022 35.000000000000000
1.861109271625057 -4.681320245359305 -1.188481821257842 42.000000000000000
1.869352432674773 -4.671395009003201 -1.280802151900479 48.000000000000000
1.879652248476875 -4.667202584095511 -1.375057621995536 54.000000000000000
1.889793940372136 -4.661353898240138 -1.469033252957274 57.000000000000000
1.900727997613275 -4.657324713372605 -1.564731156875772 71.000000000000000
1.912272043472809 -4.655243762550254 -1.661902868097076 54.000000000000000
1.923657654282892 -4.651203108593226 -1.759566671578987 50.000000000000000
1.912640680586940 -4.593443396067221 -1.836981054363483 48.000000000000000
1.898179611135278 -4.527933946894436 -1.909594809490041 6.000000000000000
1.936347774937762 -4.587729186752925 -2.036589846657622 32.000000000000000
1.969439700222444 -4.634662283363987 -2.161391400545269 44.000000000000000
1.960021925152351 -4.581494885522632 -2.241319849296846 54.000000000000000
1.968751067747724 -4.570483870476551 -2.341942873546637 18.000000000000000
2.167728726739604 -4.998950530958092 -2.679669710300450 70.000000000000000
2.183346211537221 -4.999145234030681 -2.800530351493160 73.000000000000000
2.197385175095549 -4.997198888382879 -2.922390402087857 70.000000000000000
2.214060831485833 -4.998964265063691 -3.048916350295050 68.000000000000000
1.830382364404197 -4.704960579261553 -1.007447441642933 24.000000000000000
1.839398182614495 -4.698341833166984 -1.099588261354037 24.000000000000000
1.847752771190396 -4.690324584340981 -1.191245142732936 33.000000000000000
1.857322510264256 -4.684022327081892 -1.284635330459201 37.000000000000000
1.867501995170186 -4.679835097335646 -1.379041609155011 45.000000000000000
1.877528127168272 -4.673988956682464 -1.473166441547724 49.000000000000000
1.885474789853498 -4.662881517734399 -1.566634854839458 59.000000000000000
1.895454366246943 -4.657331619565742 -1.662567571820325 55.000000000000000
1.906712040110037 -4.653363394447813 -1.760182466482540 56.000000000000000
1.897177526240180 -4.599079716764433 -1.838912502751335 54.000000000000000
1.904240112989303 -4.585177261952131 -1.933288149386852 24.000000000000000
1.919187761538548 -4.590050265830613 -2.037040228642768 40.000000000000000
1.950546663372355 -4.633737464034960 -2.160238141595928 44.000000000000000
1.942591990412593 -4.583973707353996 -2.241678257259971 55.000000000000000
1.952631459603751 -4.576362342362216 -2.343957784256093 19.000000000000000
2.149929311875593 -5.005440322630180 -2.681893944682753 70.000000000000000
2.161136247363484 -4.995903185305517 -2.797291812340262 73.000000000000000
2.175020927961774 -4.994115232001010 -2.918989039449069 72.000000000000000
2.192928373415622 -4.999248883768822 -3.047306966356507 68.000000000000000
1.820023989500716 -4.721206073605414 -1.011595713807278 17.000000000000000
1.828934391090336 -4.714578801777791 -1.103957297595567 8.000000000000000
1.834355799889106 -4.699296163538149 -1.193989265767841 24.000000000000000
1.843811707725385 -4.693017681179371 -1.287462399681089 28.000000000000000
1.852450944864540 -4.685267615856739 -1.380894226461456 36.000000000000000
1.863778573588757 -4.683032074622142 -1.476158533725866 40.000000000000000
1.871623464911444 -4.671940723049540 -1.569706815269727 47.000000000000000
1.881481588616272 -4.666412033272458 -1.665720795159859 52.000000000000000
1.891191060907628 -4.658969944574251 -1.762095180941396 53.000000000000000
1.880276868968470 -4.601200532188194 -1.839432673030791 53.000000000000000
1.891498542995907 -4.597699511530643 -1.938114667277263 53.000000000000000
1.904864928936849 -4.599158129898845 -2.040498492695294 48.000000000000000
1.934509624789958 -4.639534134951533 -2.162216344914298 46.000000000000000
1.923755024382466 -4.583037175787673 -2.240366231559330 56.000000000000000
1.930859199944708 -4.568866067120299 -2.339124111864433 19.000000000000000
2.129299578007331 -5.005277463199901 -2.680555319981472 69.000000000000000
2.143177592002879 -5.002394434590397 -2.799507051235229 73.000000000000000
2.155497552061328 -4.997429160044939 -2.919333501570206 70.000000000000000
2.173212269227058 -5.002668442711857 -3.047615606531753 70.000000000000000
1.810979829919814 -4.741099353248695 -1.016516098371498 12.000000000000000
1.818384846205217 -4.730799444901646 -1.108312755141569 4.000000000000000
1.823726356120916 -4.715495027518683 -1.198559478472592 20.000000000000000
1.833071770500906 -4.709202543431418 -1.292252022297407 21.000000000000000
1.841602781135587 -4.701433238306326 -1.385900682683346 27.000000000000000
1.851395884734443 -4.695612194980281 -1.480256529234317 33.000000000000000
1.857730906848673 -4.680965865037441 -1.572758865208994 38.000000000000000
1.864650680003557 -4.668406096083010 -1.666336809776838 43.000000000000000
1.877059912816099 -4.668035330961762 -1.765309103979110 45.000000000000000
1.836640950483552 -4.537211008714591 -1.813523168147017 51.000000000000000
1.809787635019173 -4.441108808814094 -1.871663769058310 47.000000000000000
1.886286467346153 -4.597959778093096 -2.039380602571491 54.000000000000000
1.915648891505698 -4.638494954309945 -2.161006682848103 45.000000000000000
1.907745463824128 -4.588772720544388 -2.242314911970688 56.000000000000000
1.913351711952274 -4.571301480115564 -2.339377695940217 19.000000000000000
2.107303019226641 -5.001742472711643 -2.677414839323689 69.000000000000000
2.121030675155190 -4.999014607965020 -2.796202035691101 74.000000000000000
2.133207667265272 -4.994202607700426 -2.915863741939758 69.000000000000000
2.152118442959943 -5.002821810657582 -3.045941584843753 69.000000000000000
1.804603975969340 -4.768320107751629 -1.022999433004316 9.000000000000000
1.809140150011052 -4.750654966875411 -1.113510351689634 8.000000000000000
1.814403274858409 -4.735311254072005 -1.204039901017442 15.000000000000000
1.820851085970742 -4.721754953246275 -1.296035294354841 16.000000000000000
1.827877058282210 -4.710390183993513 -1.388772758352902 20.000000000000000
1.837552769776722 -4.704591662176129 -1.483210406674912 23.000000000000000
1.843797225873448 -4.689956793045236 -1.575790934492971 28.000000000000000
1.856205216648600 -4.691529816029490 -1.674486840495564 36.000000000000000
1.862887242684782 -4.677065885561811 -1.768502706573051 36.000000000000000
1.790663669527899 -4.466050482316167 -1.784752283101613 55.000000000000000
1.798884561920918 -4.456828923205771 -1.877841921504332 32.000000000000000
1.873307691449865 -4.610412260928925 -2.044313351086622 55.000000000000000
1.899597636682270 -4.644194229370132 -2.162934298261576 44.000000000000000
1.886165550299392 -4.580980453846545 -2.237653592122716 56.000000000000000
1.894464067010710 -4.570342937638295 -2.337895491929653 19.000000000000000
2.088118287389288 -5.004753016771026 -2.677781406125554 66.000000000000000
2.101687826049688 -5.002115676602844 -2.796526960306052 75.000000000000000
2.115084758823008 -5.000635855058838 -2.918039326002064 70.000000000000000
2.131050183349338 -5.002907613905945 -3.044234636615365 70.000000000000000
1.799451372869156 -4.799219954588167 -1.030265297951002 4.000000000000000
1.802545187881971 -4.777812634457111 -1.120411208291649 7.000000000000000
1.806352148718851 -4.758756602430598 -1.210434431781409 11.000000000000000
1.815480430911652 -4.752379313221590 -1.304770350766875 12.000000000000000
1.818261999915117 -4.730112636481498 -1.394809573333482 14.000000000000000
1.823668819802578 -4.713536992132143 -1.486144360242884 17.000000000000000
1.832592892454959 -4.706027532840571 -1.581193267968869 21.000000000000000
1.843470152117126 -4.704049066715228 -1.678843702132168 26.000000000000000
1.851442711309295 -4.693081773438392 -1.774330114313580 20.000000000000000
1.829606303457734 -4.607255180910101 -1.840837981008856 37.000000000000000
1.798955589299827 -4.500204219350662 -1.895662620791317 51.000000000000000
1.858882607162097 -4.619405583444989 -2.047706890262252 50.000000000000000
1.879391197250378 -4.639636992273219 -2.160083634405785 38.000000000000000
1.870165790376309 -4.586610520675538 -2.239549027847935 56.000000000000000
1.876977928073482 -4.572668124129626 -2.338094113609166 19.000000000000000
2.066197997202297 -5.001077529130532 -2.674573869606684 65.000000000000000
2.080982249748845 -5.001876526553143 -2.794988388052250 75.000000000000000
2.094219330095575 -5.000520405788444 -2.916397961312449 70.000000000000000
2.110007753223386 -5.002925983822103 -3.042494844980816 69.000000000000000
2.516413645804118 -6.774686042016887 -1.455223486380148 48.000000000000000
1.834091607755132 -4.907443975174988 -1.151345997031693 6.000000000000000
1.811864099096453 -4.818622384723539 -1.226087598765538 7.000000000000000
1.807188706726497 -4.775771144400929 -1.311511705852317 7.000000000000000
1.809909146167429 -4.753429104934653 -1.401897509441983 9.000000000000000
1.815236540494039 -4.736780199310753 -1.493577465507835 11.000000000000000
1.824048120460752 -4.729202283578299 -1.588973950460302 15.000000000000000
1.830670598292950 -4.716541559571494 -1.683182960162271 19.000000000000000
1.842656192126177 -4.716107320425447 -1.782799455869497 10.000000000000000
1.803121558948787 -4.584746871600254 -1.831497957139395 37.000000000000000
1.806976764324910 -4.564406395090887 -1.922241720919429 39.000000000000000
1.849892969157402 -4.642107452882644 -2.057170483589879 36.000000000000000
1.860604074836310 -4.638418608287350 -2.158786995281417 38.000000000000000
1.851418981743236 -4.585437982089966 -2.238122040114781 56.000000000000000
1.858135616222156 -4.571591214176566 -2.336554258345037 19.000000000000000
2.047042953038400 -5.003964488426164 -2.674879164931700 63.000000000000000
2.060303223086391 -5.001571040384158 -2.793417576541390 73.000000000000000
2.073380243182768 -5.000338161353233 -2.914724110322268 70.000000000000000
2.087647147371480 -4.999657697998100 -3.038765586701294 72.000000000000000
2.010670717033126 -5.464555316205832 -1.174494982446532 0.000000000000000
1.870267080266008 -5.051956519599190 -1.185787659133161 25.000000000000000
1.865902137764669 -5.009827360828753 -1.275168626879146 67.000000000000000
1.831394950718545 -4.886220385734949 -1.342157545339158 10.000000000000000
1.805504898093221 -4.787566774063136 -1.412168703394919 6.000000000000000
1.808032087759420 -4.763608131306840 -1.502132331380849 7.000000000000000
1.814007363588716 -4.748809340107026 -1.595547284212600 9.000000000000000
1.823253240474105 -4.743176356203374 -1.692560685781743 13.000000000000000
1.832373358079168 -4.735611607692896 -1.789929210244352 12.000000000000000
1.790412052629134 -4.597062713082013 -1.836065111533729 24.000000000000000
1.794192103800353 -4.576696384956858 -1.926947039901018 32.000000000000000
1.842125055601782 -4.668246184329520 -2.068148167326750 27.000000000000000
1.845911765485420 -4.647375879616798 -2.162223667338440 39.000000000000000
1.835406270958627 -4.590971026027560 -2.239967155719299 57.000000000000000
1.839322213318041 -4.570453242565375 -2.334985000619592 20.000000000000000
2.021163070381485 -4.990182096646712 -2.666279521211665 60.000000000000000
2.042334755365987 -5.007779878021055 -2.795488050468395 71.000000000000000
2.056579290761690 -5.009861416978812 -2.918711051727660 71.000000000000000
2.068001429139231 -5.002760953263798 -3.038917065926152 71.000000000000000
1.993718369440421 -5.470350238173957 -1.176416310268590 0.000000000000000
1.850417705418433 -5.046360427554995 -1.184996519269548 25.000000000000000
1.848730836046598 -5.011586473588514 -1.276032645975443 76.000000000000000
1.861653704601873 -5.015013821794652 -1.377845365543870 75.000000000000000
1.862951217838300 -4.987867327540871 -1.471451080670057 50.000000000000000
1.820918084384397 -4.844306689766288 -1.527666856826920 6.000000000000000
1.811956945590286 -4.789820343474044 -1.609303297880585 6.000000000000000
1.815677889658549 -4.769815932697393 -1.701931188148090 8.000000000000000
1.816580523522383 -4.741015151703964 -1.791721667244272 33.000000000000000
1.800566737951826 -4.668804757386026 -1.864355534652965 22.000000000000000
1.809639578716746 -4.661855186799885 -1.962318733653857 24.000000000000000
1.834197742340329 -4.694389184559760 -2.079118280878217 20.000000000000000
1.825803833913321 -4.642631839202789 -2.159283669573765 37.000000000000000
1.816694081247377 -4.589685176123812 -2.238484442481136 60.000000000000000
1.823213252892135 -4.575968905406428 -2.336815356683531 20.000000000000000
2.003407975147705 -4.996260145609207 -2.668296280871305 57.000000000000000
2.021685962985648 -5.007350217055165 -2.793855699713998 72.000000000000000
2.034432859326200 -5.006296685194717 -2.915077433054257 71.000000000000000
2.047038057229166 -5.002577819657227 -3.037079246665947 72.000000000000000
1.975416031585267 -5.472410487649120 -1.177518983636284 0.000000000000000
1.833286233176671 -5.048039700862597 -1.185899138105751 25.000000000000000
1.832899961682954 -5.016947846863249 -1.277801249145123 74.000000000000000
1.845667956434623 -5.020428484581762 -1.379631699327943 75.000000000000000
1.854931997621926 -5.014995817550311 -1.479644631035173 76.000000000000000
1.865413542176257 -5.011407789765362 -1.580443064885438 74.000000000000000
1.861857047327044 -4.970219335305789 -1.669881461143608 38.000000000000000
1.830694321768234 -4.856814806123166 -1.732827815816773 7.000000000000000
1.806121584515242 -4.760479976759654 -1.798820506003466 42.000000000000000
1.787528478016186 -4.681134708449701 -1.868909784240178 17.000000000000000
1.796478350478188 -4.674175061452758 -1.967016276281483 20.000000000000000
1.826110950242962 -4.720535810481675 -2.090080491120582 15.000000000000000
1.809743921244172 -4.648079773151135 -2.161082451444888 36.000000000000000
1.798011344150126 -4.588338773850031 -2.236972620013903 61.000000000000000
1.804434720163604 -4.574717263804327 -2.335190205726022 20.000000000000000
1.980345138340877 -4.988967227455218 -2.663175385968310 56.000000000000000
2.001064465671211 -5.006854560171340 -2.792191328960007 71.000000000000000
2.014964233709172 -5.009188325876923 -2.915209675610171 70.000000000000000
2.027410410030061 -5.005559264347246 -3.037169649593053 72.000000000000000
1.954478492060774 -5.467033044237663 -1.177004467827253 1.000000000000000
1.814838554697832 -5.045992238562649 -1.185912032466063 24.000000000000000
1.814404829361283 -5.014949510965889 -1.277682479199524 77.000000000000000
1.827014843354776 -5.018520270410646 -1.379393728287459 72.000000000000000
1.838801117234491 -5.020408892642563 -1.481421277669742 77.000000000000000
1.850475352276252 -5.020466089726741 -1.583370207033709 78.000000000000000
1.860174668361806 -5.015031674045566 -1.684895104006408 78.000000000000000
1.870357093112161 -5.011481718767285 -1.787852154599571 73.000000000000000
1.787594500375137 -4.758751113984152 -1.797903706371162 37.000000000000000
1.778401334864451 -4.703952408325985 -1.877643318726034 13.000000000000000
1.784576332114681 -4.689946026907228 -1.973159288945835 15.000000000000000
1.819186686498699 -4.750137553341439 -2.102562489915885 15.000000000000000
1.789706772778463 -4.643210527282746 -2.158082868381466 39.000000000000000
1.780675363875600 -4.590327174899730 -2.237086425658063 61.000000000000000
1.788313725708865 -4.580135466298168 -2.336970074433760 20.000000000000000
1.959977774953513 -4.988261909170913 -2.661575895442928 55.000000000000000
1.981776898409028 -5.009595348307824 -2.792335719634174 71.000000000000000
1.994197581388469 -5.008752181975568 -2.913410644921065 69.000000000000000
2.006489212864565 -5.005246442547444 -3.035268206933995 74.000000000000000
1.936207670408151 -5.468976120862801 -1.178049254694012 2.000000000000000
1.797729980459763 -5.047564575766811 -1.186761463319468 24.000000000000000
1.798562374656794 -5.020215240246662 -1.279401549969383 75.000000000000000
1.808390694460630 -5.016552192292613 -1.379126969568926 75.000000000000000
1.820024464451008 -5.018530200670087 -1.481035304698058 76.000000000000000
1.832866422072659 -5.022281425337403 -1.584003145056685 78.000000000000000
1.841120701906712 -5.013332159719604 -1.684272904648090 76.000000000000000
1.853796299806135 -5.016989960635929 -1.789651087140558 82.000000000000000
1.761211169161692 -4.735757618843007 -1.788948012992700 33.000000000000000
1.766512269148577 -4.719747406387794 -1.883565454886885 11.000000000000000
1.773898158294427 -4.709179631722680 -1.980751503891361 12.000000000000000
1.810768880325161 -4.776293437883593 -2.113509180788219 47.000000000000000
1.773647133887071 -4.648557398232549 -2.159830076601306 39.000000000000000
1.763345603770466 -4.592263203193668 -2.237173876625776 62.000000000000000
1.769570909028895 -4.578770464179889 -2.335289239959909 21.000000000000000
1.939638484188699 -4.987491519419460 -2.659944904386766 50.000000000000000
1.961198900290004 -5.008972058919342 -2.790608855871169 66.000000000000000
1.974748364981805 -5.011523187410890 -2.913482493004665 70.000000000000000
1.986880569042847 -5.008106356173942 -3.035297733272659 73.000000000000000
1.916644702843038 -5.467165511529297 -1.178269219070213 3.000000000000000
1.779328624632504 -5.045402679191521 -1.186718774761077 25.000000000000000
1.782702834100463 -5.025436974218031 -1.281097117104123 75.000000000000000
1.792399082214271 -5.021818244620113 -1.380837082380825 76.000000000000000
1.801277013954552 -5.016591311288383 -1.480620388386189 77.000000000000000
1.813960164548818 -5.020437172629499 -1.583471855484001 79.000000000000000
1.814275765137271 -4.990062690615273 -1.676395475943858 68.000000000000000
1.835914641492328 -5.018890189794843 -1.790154935176055 81.000000000000000
1.639912964687091 -4.454381615295462 -1.682398850917636 9.000000000000000
1.757138429536067 -4.742547798036370 -1.892275065308398 7.000000000000000
1.767008842733735 -4.738861269325882 -1.992729188771990 9.000000000000000
1.793102501640766 -4.778231129296620 -2.113732881333488 44.000000000000000
1.756274000204868 -4.650427621572983 -2.159959391450549 38.000000000000000
1.746022260525465 -4.594146904779914 -2.237235008453669 63.000000000000000
1.750858137256928 -4.577344984227090 -2.333579370531952 22.000000000000000
1.916754693174849 -4.979971671710024 -2.654719117940326 50.000000000000000
1.941931599920685 -5.011593320880396 -2.790693470687260 40.000000000000000
1.955303266235532 -5.014235939045195 -2.913524855675032 67.000000000000000
1.967275846774279 -5.010907565768952 -3.035297532371091 72.000000000000000
1.897109532397724 -5.465292799106429 -1.178459181355512 3.000000000000000
1.759669273490578 -5.039495311135012 -1.185780357815633 25.000000000000000
1.762960223378813 -5.019606751800167 -1.279962229156119 77.000000000000000
1.772520265142574 -5.016087726757890 -1.379511445087634 74.000000000000000
1.785140548110950 -5.021854628838106 -1.482320245529764 76.000000000000000
1.797666175063115 -5.025753283699125 -1.585189027977863 83.000000000000000
1.661022433770918 -4.614999000499907 -1.550330513114736 7.000000000000000
1.752186555807981 -4.838877622072627 -1.725772184342567 37.000000000000000
1.658619799788759 -4.551319301876291 -1.718741682777547 3.000000000000000
1.666374314045622 -4.543780620496893 -1.812588844246222 4.000000000000000
1.757359893809487 -4.761570857339530 -2.001765514281032 6.000000000000000
1.774155781119293 -4.776651765000707 -2.112397969189662 42.000000000000000
1.737623137005821 -4.648809513062995 -2.158467035883812 38.000000000000000
1.727424058680303 -4.592571374242501 -2.235611391539419 62.000000000000000
1.733454004429285 -4.579236189495624 -2.333561470229929 21.000000000000000
1.893947020930433 -4.972371503193846 -2.649456985145166 47.000000000000000
1.922668834034060 -5.014156870399817 -2.790748901935897 45.000000000000000
1.934596405503550 -5.013609318656412 -2.911632248017309 52.000000000000000
1.945152369710669 -5.007155745001778 -3.031335943755601 73.000000000000000
1.877602399491993 -5.463358120199684 -1.178619225988651 6.000000000000000
1.741338197394236 -5.037211956987647 -1.185679966380671 25.000000000000000
1.745824637035313 -5.021056060148139 -1.280670284487841 76.000000000000000
1.756529578574175 -5.021253621142375 -1.381170486130740 74.000000000000000
1.767707937986414 -5.023438221706743 -1.482923153327783 77.000000000000000
1.778795545845256 -5.023795654363044 -1.584602041297458 80.000000000000000
1.631830659687018 -4.580366892166246 -1.538625305671511 22.000000000000000
1.647915917356263 -4.597738460320036 -1.639596956516389 8.000000000000000
1.657512644512311 -4.595228777587702 -1.735044758763196 6.000000000000000
1.612748007798572 -4.443104381299469 -1.772052854804052 13.000000000000000
1.769276473818708 -4.843684362810462 -2.035759944752091 7.000000000000000
1.756513891846589 -4.778479254887461 -2.112566912161628 42.000000000000000
1.720275170861422 -4.650571129789743 -2.158542448802861 38.000000000000000
1.710126028576590 -4.594346715647076 -2.235618756140629 63.000000000000000
1.716056595036679 -4.581074906614783 -2.333517187126650 23.000000000000000
1.867427907419799 -4.954641370283407 -2.638806150983029 43.000000000000000
1.902151948465860 -5.013344849808703 -2.788929432926561 73.000000000000000
1.916426291358716 -5.019486840398153 -2.913521259379934 64.000000000000000
1.925579912592076 -5.009831976727649 -3.031273917873314 73.000000000000000
1.855598919435356 -5.453941283895877 -1.177147876014964 7.000000000000000
1.724300994994405 -5.038563944918004 -1.186421279155774 25.000000000000000
1.727430163805823 -5.018777132262637 -1.280414435193310 77.000000000000000
1.739255415853691 -5.022716890260847 -1.381799420578838 73.000000000000000
1.747747018060763 -5.017692170255153 -1.481351290349403 77.000000000000000
1.758686797307891 -5.018159704163690 -1.582844885793519 79.000000000000000
1.616831021908276 -4.585168269387368 -1.540158884011090 39.000000000000000
1.626385419323570 -4.584734523446694 -1.634779439963601 26.000000000000000
1.633321308748682 -4.575288619556574 -1.727232338205716 13.000000000000000
1.606661563680922 -4.472563754668895 -1.783420331893873 9.000000000000000
1.679480531262707 -4.646038378299769 -1.952182504909618 20.000000000000000
1.740141426201164 -4.783725165139336 -2.114243448903461 40.000000000000000
1.702934154709039 -4.652280469486359 -2.158591600549115 36.000000000000000
1.692835016066286 -4.596069905077061 -2.235599927541776 64.000000000000000
1.697411551792163 -4.579476499868194 -2.331723184899413 23.000000000000000
1.846059899623279 -4.950223939952978 -2.635253648383643 40.000000000000000
1.882910806325985 -5.015789281900047 -2.788925379962224 73.000000000000000
1.894510245749230 -5.015447435507101 -2.909659421722144 70.000000000000000
1.906012058304049 -5.012449689694798 -3.031182300997102 73.000000000000000
1.839924002423302 -5.463017224993264 -1.179651840473924 8.000000000000000
1.704765443052338 -5.032469532152230 -1.185394951960776 25.000000000000000
1.710319646162108 -5.020119854373681 -1.281069613906709 78.000000000000000
1.721988015106694 -5.024128299494751 -1.382402295297898 73.000000000000000
1.732862394743673 -5.026448393979783 -1.484050020565776 78.000000000000000
1.692150868024552 -4.878452606018702 -1.538788357985948 48.000000000000000
1.598046877570726 -4.579128146150873 -1.538042781659641 41.000000000000000
1.607468937713211 -4.578805333910768 -1.632478278090542 35.000000000000000
1.615556228616893 -4.573019556587872 -1.726086384640706 23.000000000000000
1.624223937490051 -4.569070814347066 -1.821507204039049 18.000000000000000
1.638651416830104 -4.580996662028197 -1.924347971809467 18.000000000000000
1.719999267682103 -4.778499774395423 -2.111289280339368 40.000000000000000
1.684351691553148 -4.650490219212048 -2.157015553994712 37.000000000000000
1.675551216519868 -4.597740990987527 -2.235554942427455 63.000000000000000
1.680040099865407 -4.581206600897055 -2.331625043342409 24.000000000000000
1.827222765300450 -4.952450060613242 -2.635241044591495 36.000000000000000
1.862439816771395 -5.014850661704689 -2.787044091812072 74.000000000000000
1.873877236505013 -5.014627416213055 -2.907672605207247 73.000000000000000
1.887674787701575 -5.018267540326108 -3.033030627867971 73.000000000000000
1.820490891461925 -5.460901089559102 -1.179723782991759 10.000000000000000
1.689006226995893 -5.037413265314212 -1.186954742020737 26.000000000000000
1.693216155219759 -5.021411226099151 -1.281699009170344 78.000000000000000
1.702240732123873 -5.018156768448822 -1.380961671144297 73.000000000000000
1.712961891027537 -5.020583007182554 -1.482420934781056 77.000000000000000
1.662628592171920 -4.843541920282771 -1.527777415383506 35.000000000000000
1.583051697827628 -4.583835035393246 -1.539528398668392 43.000000000000000
1.591095886693083 -4.579973597918415 -1.632700744692241 41.000000000000000
1.551815550889067 -4.439085722649457 -1.675246382771384 16.000000000000000
1.600155869108542 -4.549174981789740 -1.813177371250757 13.000000000000000
1.620617952741055 -4.578870188035085 -1.922945982698665 33.000000000000000
1.703628746896275 -4.783643444156577 -2.112913744554289 39.000000000000000
1.668273755305714 -4.655542511299016 -2.158611267191434 37.000000000000000
1.657040989566284 -4.595937879548924 -2.233820531337405 64.000000000000000
1.662675972803845 -4.582884391414171 -2.331500646449224 24.000000000000000
1.804710877822450 -4.944535758744656 -2.629836644729998 33.000000000000000
1.844444313255864 -5.020505525526346 -2.788830120939161 75.000000000000000
1.854491767965561 -5.017038265477819 -2.907564500622347 71.000000000000000
1.865677186638022 -5.014247364523839 -3.028939748926045 73.000000000000000
1.801086760717668 -5.458723509598538 -1.179766131961657 14.000000000000000
1.670772225554409 -5.034903491938684 -1.186744705983391 29.000000000000000
1.676119882963894 -5.022651295229426 -1.282302657122441 78.000000000000000
1.687474275104769 -5.026795727280807 -1.383530009450846 74.000000000000000
1.695579886298755 -5.021950180950931 -1.482916460636270 78.000000000000000
1.644443577783265 -4.841168362604508 -1.527020040603448 34.000000000000000
1.568041322388506 -4.588500259437305 -1.540991817118408 43.000000000000000
1.574731166489155 -4.581092469932447 -1.632898507322466 46.000000000000000
1.544405634760616 -4.465051040021169 -1.684751152344325 20.000000000000000
1.557781434992962 -4.476149756470517 -1.783674958741136 7.000000000000000
1.603845321976824 -4.580195422783283 -1.922989878363410 33.000000000000000
1.686014534012171 -4.785258906467730 -2.112976144960232 38.000000000000000
1.650954762751749 -4.657095311644794 -2.158581856127629 37.000000000000000
1.639784140484350 -4.597501191197493 -2.233722178238295 65.000000000000000
1.642881856106686 -4.577718054263390 -2.327896179503385 25.000000000000000
1.777417060761836 -4.923082568910196 -2.617241030513877 32.000000000000000
1.824008230103245 -5.019444459144737 -2.786888461721571 75.000000000000000
1.835111754045542 -5.019391208377541 -2.907427169754410 76.000000000000000
1.846136379361389 -5.016686059019658 -3.028758401397550 73.000000000000000
1.782928032606539 -5.460209188333415 -1.180584283389004 15.000000000000000
1.652568830293183 -5.032335609651942 -1.186506878603087 25.000000000000000
1.660250000521088 -5.027531396033087 -1.283823195643129 78.000000000000000
1.667788252290185 -5.020706258371256 -1.382032927492886 74.000000000000000
1.679425693400829 -5.026918539512163 -1.484464663592245 79.000000000000000
1.626289920470128 -4.838736629169525 -1.526234886284022 33.000000000000000
1.549353126052066 -4.582290933153701 -1.538795208833870 48.000000000000000
1.558374962154882 -4.582162002128750 -1.633071603934195 39.000000000000000
1.525861014132037 -4.458940373941659 -1.682145923273293 27.000000000000000
1.576844038809449 -4.579887142861125 -1.824602048646901 33.000000000000000
1.587080922287089 -4.581470126708723 -1.923008482609458 37.000000000000000
1.667192580379301 -4.783335087054966 -2.111473027267237 36.000000000000000
1.633643501579396 -4.658596031417636 -2.158526331969862 37.000000000000000
1.621325156468523 -4.595583041816885 -2.231932177008831 64.000000000000000
1.625556879691363 -4.579284005214705 -2.327717085573940 26.000000000000000
1.753905816340916 -4.911627836801552 -2.609971337038324 27.000000000000000
1.804801099996147 -5.021655249912197 -2.786767220361609 77.000000000000000
1.814542846085065 -5.018382547644664 -2.905347976614327 72.000000000000000
1.826601057206748 -5.019066436368245 -3.028547619756532 73.000000000000000
1.762366386555983 -5.454184578194410 -1.179762394096319 16.000000000000000
1.635602462553246 -5.033421726918164 -1.187116802794880 29.000000000000000
1.641949760945393 -5.024977719754924 -1.283432857027576 79.000000000000000
1.651781580753838 -5.025579931341793 -1.383541818369424 75.000000000000000
1.659629206956490 -5.020871418285823 -1.482749168422452 80.000000000000000
1.608167845591157 -4.836246868591887 -1.525422042072902 34.000000000000000
1.533139175970062 -4.583247334681840 -1.538997120282445 49.000000000000000
1.540818972957030 -4.579590411625482 -1.631940119711377 44.000000000000000
1.509788581511009 -4.459902457330815 -1.682203468737815 9.000000000000000
1.556611367152384 -4.570411366483317 -1.820412313947607 46.000000000000000
1.570324942708326 -4.582694351844817 -1.923001833560668 39.000000000000000
1.648402121793011 -4.781351148351063 -2.109941146342774 36.000000000000000
1.616340166361663 -4.660044721202103 -2.158444732441012 37.000000000000000
1.604096083328380 -4.597038912863742 -2.231780676739335 65.000000000000000
1.607045008964570 -4.577394594703373 -2.325782677625408 26.000000000000000
1.723351023981858 -4.879853616245140 -2.591917038055021 22.000000000000000
1.785600030089479 -5.023808695036624 -2.786617075993553 76.000000000000000
1.795186351770298 -5.020616161797241 -2.905151169615442 72.000000000000000
1.805893424246977 -5.018115144946760 -3.026333314808117 74.000000000000000
1.744243667737630 -5.455555079482832 -1.180523952440715 19.000000000000000
1.617449328031132 -5.030741567657837 -1.186824734613834 23.000000000000000
1.624876293639993 -5.026064173616546 -1.283959482637589 78.000000000000000
1.634562614197705 -5.026729226582534 -1.384013852130153 75.000000000000000
1.643478443465312 -5.025739303896263 -1.484246291939836 79.000000000000000
1.590077577728079 -4.833699230200765 -1.524581597935292 33.000000000000000
1.516934181363317 -4.584154894413153 -1.539174646828465 41.000000000000000
1.524492221020721 -4.580557844246257 -1.632062898163362 48.000000000000000
1.520035966499940 -4.539389272066426 -1.711867897121397 26.000000000000000
1.541237947298475 -4.575050206184214 -1.821840059033990 51.000000000000000
1.551191124075439 -4.576826878674251 -1.920016098691489 46.000000000000000
1.629643390541598 -4.779307240112630 -2.108380592841596 43.000000000000000
1.597856070352753 -4.657975676456918 -2.156732383948591 38.000000000000000
1.588061224257788 -4.601879801418619 -2.233271107882825 66.000000000000000
1.592113773705895 -4.585666560547129 -2.329010933219474 26.000000000000000
1.690684722180206 -4.841199290091283 -2.570227733841126 14.000000000000000
1.764054727584576 -5.019217009268423 -2.782730229820536 78.000000000000000
1.774665345640501 -5.019481032584416 -2.903010346951585 72.000000000000000
1.786381689456570 -5.020375407924862 -3.026062660137355 72.000000000000000
1.726127705880892 -5.456871612536093 -1.181258374483798 20.000000000000000
1.601693329659712 -5.035441581227368 -1.188260308084894 23.000000000000000
1.607810809931306 -5.027099521813523 -1.284460508248614 79.000000000000000
1.616166707302858 -5.024143596104161 -1.383445806647803 76.000000000000000
1.626126800137822 -5.026898376732793 -1.484637443915092 79.000000000000000
1.574390410578499 -4.838380581781315 -1.526011854777011 32.000000000000000
1.501923742226348 -4.588635320106216 -1.540543725965126 38.000000000000000
1.511728770958839 -4.592273010030000 -1.636007556341128 42.000000000000000
1.508456329575051 -4.554632901674390 -1.717292820910308 52.000000000000000
1.519935460521467 -4.561895747237813 -1.816178236622979 32.000000000000000
1.535657723263870 -4.581467371062934 -1.921434902583411 47.000000000000000
1.602661554931683 -4.752722967743542 -2.095995308255002 12.000000000000000
1.581758050509540 -4.662786216072042 -2.158203459560018 38.000000000000000
1.568488737818718 -4.596354963764695 -2.229730953817409 66.000000000000000
1.572459480368878 -4.580259030561978 -2.325291894699136 27.000000000000000
1.661814457434297 -4.812542375045006 -2.553864639611605 13.000000000000000
1.746053662980538 -5.024596232007338 -2.784375210220401 77.000000000000000
1.755333277031157 -5.021595631066558 -2.902754279059857 73.000000000000000
1.766876100758916 -5.022577520285566 -3.025762696790523 73.000000000000000
1.704509074073264 -5.446918879765290 -1.179536999698754 22.000000000000000
1.584750943203541 -5.036375418877981 -1.188793963703182 21.000000000000000
1.591925757832395 -5.031789108909752 -1.285882865974566 78.000000000000000
1.598975541428767 -5.025186402496467 -1.383865180600045 76.000000000000000
1.607609793958411 -5.024338149166760 -1.483919442960611 80.000000000000000
1.556340779466098 -4.835724623151033 -1.525118601034575 30.000000000000000
1.484551788956726 -4.585823705011715 -1.539456700416744 39.000000000000000
1.494211844161645 -4.589550268541112 -1.634801302085749 38.000000000000000
1.488585868489920 -4.544805490194969 -1.713258640260066 27.000000000000000
1.470636278256899 -4.463375778983478 -1.776536403414893 8.000000000000000
1.518940095283370 -4.582536941334544 -1.921351651375873 39.000000000000000
1.577046898569963 -4.729530204585191 -2.085109858886868 18.000000000000000
1.563314743326426 -4.660606244294021 -2.156436980054324 39.000000000000000
1.552458888690626 -4.601096019193212 -2.231170728808052 68.000000000000000
1.555179412329024 -4.581613364288106 -2.325007521631827 27.000000000000000
1.637787793809622 -4.797299218249247 -2.544632655813677 12.000000000000000
1.725732799678639 -5.023223316005107 -2.782281405907029 76.000000000000000
1.736007760245426 -5.023652614819962 -2.902469200866774 73.000000000000000
1.746234797507690 -5.021437396060691 -3.023456053825904 72.000000000000000
1.687600313712564 -5.451859283557062 -1.181024781048196 22.000000000000000
1.566657300783992 -5.033532815226071 -1.188422609992978 23.000000000000000
1.573704554830345 -5.029017104462978 -1.285385909804923 76.000000000000000
1.581792703038730 -5.026177807365119 -1.384258824556955 76.000000000000000
1.590286290738718 -5.025390025312423 -1.484257594549848 79.000000000000000
1.540647353671127 -4.840311794321770 -1.526500398092224 30.000000000000000
1.468374755535581 -4.586585065520086 -1.539561305714695 38.000000000000000
1.477889082834855 -4.590377383463710 -1.634852695573032 39.000000000000000
1.443272319893185 -4.456102293532465 -1.679491994683170 12.000000000000000
1.476485775938980 -4.531795920556555 -1.803338983074681 14.000000000000000
1.502231651707884 -4.583556279892064 -1.921243319746104 37.000000000000000
1.559695908261883 -4.730765953841138 -2.084994523668751 30.000000000000000
1.544904138386961 -4.658367425424179 -2.154642460581742 38.000000000000000
1.534113798208895 -4.598897611634518 -2.229244628085354 68.000000000000000
1.539054903205864 -4.586333381760424 -2.326430767563906 28.000000000000000
1.613889109480411 -4.781966327745426 -2.535362692517472 11.000000000000000
1.706582130512938 -5.025140806248169 -2.782013894500427 76.000000000000000
1.715554383075063 -5.022330383756599 -2.900237003264946 73.000000000000000
1.725624074899402 -5.020232189056416 -3.021118057952951 69.000000000000000
1.669529057011066 -5.453007477468640 -1.181676004015837 19.000000000000000
1.550891474689815 -5.038091170957112 -1.189785269222327 22.000000000000000
1.556664163420461 -5.029899441969971 -1.285810361597946 77.000000000000000
1.565767992809453 -5.030811556756739 -1.385644136528674 76.000000000000000
1.572971259652872 -5.026390136824168 -1.484569839631258 81.000000000000000
1.523789188609598 -4.841201595223356 -1.526706790147780 32.000000000000000
1.452207406343058 -4.587297803511494 -1.539641682620014 37.000000000000000
1.461575929796281 -4.591155450237837 -1.634879638747620 40.000000000000000
1.462867263191598 -4.567967045696708 -1.721311255906733 31.000000000000000
1.477302627574641 -4.586056592219135 -1.824490580826460 32.000000000000000
1.484387219334162 -4.580990726576402 -1.919628752154544 37.000000000000000
1.540067052240281 -4.724934231049605 -2.081762231106040 49.000000000000000
1.529949167541744 -4.666509531699820 -2.157646944078907 37.000000000000000
1.518077708219754 -4.603542528778308 -2.230634944928390 69.000000000000000
1.519510825708728 -4.580745508625086 -2.322626408995875 28.000000000000000
1.587856871994760 -4.759763964980889 -2.522461803819518 10.000000000000000
1.688565820436387 -5.030359302003623 -2.783575894923583 75.000000000000000
1.697377236666998 -5.027593926743132 -2.901812162118748 74.000000000000000
1.707280305383167 -5.025544291720919 -3.022707814328412 72.000000000000000
1.649195323715966 -5.446604910803816 -1.180675116126843 19.000000000000000
1.533974769460019 -5.038873189401904 -1.190242995268934 21.000000000000000
1.538495416221084 -5.027015421366674 -1.285259432024666 80.000000000000000
1.548590606452485 -5.031703684018139 -1.385987434952211 76.000000000000000
1.556802906994576 -5.031016179440687 -1.485942431919649 80.000000000000000
1.506940183355542 -4.842040930946906 -1.526887981098542 30.000000000000000
1.438325754637819 -4.595232913333059 -1.542137962624003 17.000000000000000
1.446409682480241 -4.595497337267249 -1.636168467364236 24.000000000000000
1.452187688610991 -4.586683044835065 -1.728014341164219 41.000000000000000
1.460745070142387 -4.586910431819602 -1.824384973222270 32.000000000000000
1.468843066665027 -4.585444482059718 -1.920951573428690 42.000000000000000
1.523889189917156 -4.729570379503770 -2.083139400562091 51.000000000000000
1.510439698948721 -4.660680499036189 -2.154189685645969 37.000000000000000
1.500900779666383 -4.604688476536530 -2.230328425064017 68.000000000000000
1.503392313357422 -4.585365466609794 -2.323998943579830 29.000000000000000
1.559763690155491 -4.730671982513246 -2.505924145846543 8.000000000000000
1.668302440369436 -5.028804701252465 -2.781392860442138 76.000000000000000
1.676962085456187 -5.026149774797942 -2.899520064638461 73.000000000000000
1.686707441894613 -5.024216252122531 -3.020309430731421 71.000000000000000
1.631162698886639 -5.447639139645960 -1.181270525306662 19.000000000000000
1.517067000940149 -5.039604706403853 -1.190675488053145 21.000000000000000
1.522609800473651 -5.031511471262080 -1.286582958871944 81.000000000000000
1.529170018361298 -5.025143733359094 -1.384266417286332 78.000000000000000
