# This PCD file was generated using the MATLAB® pcwrite function
# from Computer Vision Toolbox®.
# .PCD v.7 - Point Cloud Data file format
VERSION .7
FIELDS x y z intensity
SIZE 8 8 8 8
TYPE F F F F
COUNT 1 1 1 1
WIDTH 631
HEIGHT 1
VIEWPOINT 0 0 0 1 0 0 0
POINTS 631
DATA ascii
-4.799775065103081 -5.579850310089008 -1.522394771869087 14.000000000000000
-4.867459555529916 -5.590003197825050 -1.660999013722235 24.000000000000000
-4.931339376429680 -5.594734430405695 -1.800117387202065 23.000000000000000
-4.994123462635350 -5.596607633010434 -1.941189800633739 10.000000000000000
-5.045351077435999 -5.584477335481553 -2.079160742922065 4.000000000000000
-5.098060878379923 -5.572360788267312 -2.219674418853593 51.000000000000000
-4.734006121762055 -5.109651468446366 -2.170774956121268 44.000000000000000
-4.765446118208676 -5.077657467381514 -2.294807603786122 52.000000000000000
-4.797456229976227 -5.046689494517909 -2.421099516208464 15.000000000000000
-4.839277907341181 -5.023854395066306 -2.552931717201327 63.000000000000000
-4.876505947212077 -4.996401996733131 -2.684409960092986 65.000000000000000
-4.911808347056952 -4.966800853959500 -2.817099934132412 59.000000000000000
-4.515658755067681 -5.680239535790009 -0.632740724016317 1.000000000000000
-4.519695526985045 -5.616460212903171 -0.749153535816960 1.000000000000000
-4.544445934573871 -5.579028948599477 -0.869454506241719 3.000000000000000
-4.605773594078740 -5.585656472361758 -0.997073403942864 3.000000000000000
-4.652751818923232 -5.575356963811324 -1.122675036503051 14.000000000000000
-4.716471728970277 -5.583816319809602 -1.254171334568000 41.000000000000000
-4.781891974385982 -5.592656429668963 -1.387748970450110 23.000000000000000
-4.845714867543077 -5.599262939424233 -1.523450674509111 8.000000000000000
-4.898285679785478 -5.591344931974317 -1.657442382375216 4.000000000000000
-4.949513710398125 -5.581238003383911 -1.792116173735444 11.000000000000000
-5.015091726065814 -5.585841872660176 -1.934096572765292 21.000000000000000
-5.079459494995516 -5.587832602348311 -2.077364206592862 15.000000000000000
-5.134970272223542 -5.578240455503936 -2.219304783926651 46.000000000000000
-4.766984382476946 -5.113536601181665 -2.170254207597891 37.000000000000000
-4.788100951295562 -5.070236277292240 -2.289627343615603 40.000000000000000
-4.830661384842789 -5.050061610093093 -2.421240244018076 48.000000000000000
-4.870008993483945 -5.024236080422209 -2.552012580605584 65.000000000000000
-4.904739372268457 -4.993869747207032 -2.682314791006082 65.000000000000000
-4.514210133798942 -5.714608254530638 -0.505133017290714 1.000000000000000
-4.510008068180681 -5.639695323343384 -0.622228161371627 1.000000000000000
-4.516404991997583 -5.579194923434852 -0.738461884309588 6.000000000000000
-4.573836945389338 -5.581816389223603 -0.864387293975491 17.000000000000000
-4.637960172744204 -5.591236026039333 -0.992788566190418 47.000000000000000
-4.697870536844824 -5.595833122607234 -1.121752237785649 9.000000000000000
-4.744051072750747 -5.582847132102836 -1.249168250758731 4.000000000000000
-4.802036819870017 -5.582488438349728 -1.380698814479196 18.000000000000000
-4.866080896958378 -5.588914542796875 -1.516372954642211 29.000000000000000
-4.931739557859617 -5.595494244773130 -1.654687006703507 23.000000000000000
-4.996128942565792 -5.599620980461395 -1.794323400179850 10.000000000000000
-5.046418074031205 -5.586510089189994 -1.930946308282441 4.000000000000000
-5.100612989313947 -5.576815935288308 -2.070209447654084 6.000000000000000
-5.169352285775731 -5.581149969074622 -2.217732618744551 33.000000000000000
-4.797415111286676 -5.114499759859441 -2.168478834666356 28.000000000000000
-4.823840552754019 -5.076516664682862 -2.290625433108388 17.000000000000000
-4.856066713854430 -5.045125972517079 -2.417391981460317 62.000000000000000
-4.900787087865104 -5.024496309475991 -2.551028568142039 64.000000000000000
-4.940880683299002 -4.999203152133537 -2.684444433602767 10.000000000000000
-4.514139141193827 -5.611649484030392 -0.613124687419518 1.000000000000000
-4.545587324617690 -5.582107319234854 -0.733082362916780 3.000000000000000
-4.610854101444005 -5.593681109300442 -0.860671890241794 3.000000000000000
-4.654974530077826 -5.578422984186181 -0.985207152750145 20.000000000000000
-4.717632859237748 -5.585895485678150 -1.114687323208049 55.000000000000000
-4.781908408931842 -5.593762832080552 -1.246781996590066 20.000000000000000
-4.845311150714608 -5.599017060423670 -1.380214407201054 7.000000000000000
-4.894165225510626 -5.587346424316984 -1.511656932003662 4.000000000000000
-4.952300028177109 -5.584894632949609 -1.647547380128312 12.000000000000000
-5.016907778977154 -5.588838299913221 -1.787154944223242 24.000000000000000
-5.083002164894544 -5.592790937304239 -1.929709440119144 19.000000000000000
-5.150479272932457 -5.596968141384592 -2.074600415361730 12.000000000000000
-5.209034590655879 -5.589540915132126 -2.218316251442627 25.000000000000000
-4.848883987574927 -5.137582625825249 -2.176059015251657 29.000000000000000
-4.851780373754356 -5.074400922786499 -2.287823961688396 61.000000000000000
-4.884112544859853 -5.042814404130063 -2.414796789512727 62.000000000000000
-4.926342813366351 -5.019266604967442 -2.547255235238962 39.000000000000000
-5.541248191260500 -5.571620601139297 -2.990999224308224 5.000000000000000
-4.518133112572518 -5.583625348811820 -0.604040678416481 7.000000000000000
-4.569772011874898 -5.578744879880657 -0.726837894368620 25.000000000000000
-4.637829835762356 -5.593153637360935 -0.854998715430998 66.000000000000000
-4.697430146620659 -5.595924299643448 -0.982937053060566 7.000000000000000
-4.737366529966729 -5.575894438075922 -1.107591791313484 4.000000000000000
-4.801863404013167 -5.583581145921647 -1.239658596593186 23.000000000000000
-4.870646467543214 -5.594589201758206 -1.374521972097680 34.000000000000000
-4.932643901145494 -5.597436172752980 -1.510058421534958 26.000000000000000
-4.996237653752138 -5.600467829753786 -1.648097507771383 9.000000000000000
-5.050699723354141 -5.592432541154645 -1.784563413595889 4.000000000000000
-5.103971264155932 -5.581753618363797 -1.922477536553583 7.000000000000000
-5.169050316486811 -5.582905770422641 -2.066286036396987 8.000000000000000
-5.238303007754485 -5.586551584266184 -2.214363790185191 21.000000000000000
-4.921616864588868 -5.182613482501376 -2.192893278112139 48.000000000000000
-4.877110187774593 -5.069436352059109 -2.283731001831629 64.000000000000000
-4.917467733792452 -5.045815250045872 -2.414738816003638 59.000000000000000
-5.493893292475573 -5.562719968196840 -2.821812723466257 5.000000000000000
-5.600737746796689 -5.596273652657012 -3.003411709403772 6.000000000000000
-4.544637894885370 -5.583447926417121 -0.597956233649450 2.000000000000000
-4.604090204967306 -5.587579999490207 -0.722135121581206 3.000000000000000
-4.652108078540654 -5.577266659263428 -0.846953975753901 28.000000000000000
-4.719559309970921 -5.589001950656507 -0.976328384932319 80.000000000000000
-4.782771309729022 -5.595899342344419 -1.106410931427486 19.000000000000000
-4.842439043363358 -5.597204129268735 -1.237782713810139 5.000000000000000
-4.890805428730972 -5.584149749611441 -1.367332378103481 5.000000000000000
-4.950412010812920 -5.583887101248392 -1.502055179982084 15.000000000000000
-5.014210831786696 -5.586764374456815 -1.640002914233116 30.000000000000000
-5.081935876298693 -5.593007535644984 -1.780980195119153 19.000000000000000
-5.151163147596574 -5.599187540479671 -1.925024964352452 14.000000000000000
-5.219153500118476 -5.602694515511491 -2.070476975978852 7.000000000000000
-5.286059183004378 -5.603022587012376 -2.218101035391367 8.000000000000000
-4.997339467895594 -5.230058971867286 -2.210696133213127 66.000000000000000
-4.907742615562145 -5.069847911457164 -2.282051834224780 60.000000000000000
-4.956188243439902 -5.054085292524710 -2.417192576414534 6.000000000000000
-5.542618494010578 -5.577192099773275 -2.827904615095510 9.000000000000000
-5.623284571790822 -5.583746427692453 -2.995868898314991 7.000000000000000
-4.571169761147212 -5.583167471786651 -0.591817536709406 18.000000000000000
-4.635949909455065 -5.593204513296294 -0.716960047328659 77.000000000000000
-4.696970289371801 -5.597873255685720 -0.844405775700946 6.000000000000000
-4.733976311638828 -5.572935943835782 -0.968106010076171 5.000000000000000
-4.799960064207818 -5.582700858963966 -1.098622092137727 25.000000000000000
-4.864999593331895 -5.589814056010818 -1.231219629515541 43.000000000000000
-4.934344330800616 -5.600214952901210 -1.366595224050453 27.000000000000000
-4.994237598013391 -5.599558168639389 -1.501879865572922 8.000000000000000
-5.045231783525569 -5.587514877639936 -1.636132556566173 4.000000000000000
-5.102704897083619 -5.581961441694319 -1.773677872872281 8.000000000000000
-5.169527020589727 -5.585097987763858 -1.916709380805762 13.000000000000000
-5.237734322266322 -5.588439544699719 -2.062063681021940 14.000000000000000
-5.310145439376106 -5.594183058758314 -2.211797304857433 16.000000000000000
-5.070773968598255 -5.274378800881019 -2.227124519240716 75.000000000000000
-4.941077053560213 -5.072864947799827 -2.281534302210813 29.000000000000000
-5.476424945654855 -5.550079394707649 -2.652750370285674 7.000000000000000
-5.594158341970116 -5.594112509835691 -2.835227269949621 6.000000000000000
-5.669774205486438 -5.594810051197769 -3.000983996927850 8.000000000000000
-4.904637496372150 -4.582603123925306 -3.038371872857296 34.000000000000000
-4.607866564462961 -5.595094234495446 -0.586915863834109 3.000000000000000
-4.652576309789825 -5.580350495026151 -0.709381444812222 43.000000000000000
-4.718917705411275 -5.590944060387138 -0.837649212485606 116.000000000000000
-4.781820804645914 -5.596031768477350 -0.966640697698877 15.000000000000000
-4.840396776336144 -5.596387570762056 -1.096086312958355 4.000000000000000
-4.884948740113052 -5.579376256502636 -1.223965847089920 5.000000000000000
-4.951915546787969 -5.586636889437026 -1.358589225285189 22.000000000000000
-5.011999666502820 -5.585835610062952 -1.493788432251452 34.000000000000000
-5.081553364689268 -5.593929935881316 -1.633887166932291 19.000000000000000
-5.149810576145030 -5.599520307849234 -1.775434412139414 14.000000000000000
-5.222213641768993 -5.607868326760785 -1.921014708281808 7.000000000000000
-5.288071172422486 -5.607862798114558 -2.066053753636876 4.000000000000000
-5.339529555687902 -5.590823768395549 -2.207648911099484 6.000000000000000
-5.360127981119619 -5.541203054134896 -2.337355929007092 65.000000000000000
-5.043787243978303 -5.146468530705079 -2.312724778252707 4.000000000000000
-5.530386481888564 -5.570152000938397 -2.660672104447715 10.000000000000000
-5.619148186183394 -5.584249688000261 -2.828970322181001 8.000000000000000
-5.697679275804777 -5.587318969575171 -2.996146458751674 8.000000000000000
-4.952071820992763 -4.728536368851059 -2.827789328818936 41.000000000000000
-4.935359233434881 -4.646705298670237 -2.928107768552759 9.000000000000000
-4.916406673672657 -4.564433061558347 -3.027291899639022 57.000000000000000
-4.637031008083985 -5.597649563494923 -0.580970562397703 111.000000000000000
-4.699857204658462 -5.604056674184084 -0.706395815639331 5.000000000000000
-4.740854258374373 -5.583938234498817 -0.830854195485472 7.000000000000000
-4.801396119024158 -5.585820314917043 -0.959369958712394 34.000000000000000
-4.867962411446390 -5.594968634105286 -1.090542958403329 49.000000000000000
-4.930957212768757 -5.598496039970732 -1.223152916145726 27.000000000000000
-4.995633616859436 -5.602386441356380 -1.357679979895892 6.000000000000000
-5.042857903077819 -5.586625785238704 -1.489557150656394 5.000000000000000
-5.104763827955491 -5.585759122048849 -1.627354076790073 11.000000000000000
-5.173254327916048 -5.591129093364558 -1.768930501752481 15.000000000000000
-5.240595697250134 -5.593579542266490 -1.912596309287762 19.000000000000000
-5.311979744799083 -5.599021931885532 -2.059603990360543 13.000000000000000
-5.384930366145885 -5.603998237191698 -2.210006495309978 15.000000000000000
-5.360221670729135 -5.507390867055454 -2.320657983874381 42.000000000000000
-5.045388796325559 -5.116469039867013 -2.297331595132677 7.000000000000000
-5.576501108903966 -5.581937688563769 -2.664618363553060 5.000000000000000
-5.665570413370699 -5.595486520682122 -2.833398399096611 8.000000000000000
-5.744365536796765 -5.598030162223104 -3.001069623068080 8.000000000000000
-4.905806837076538 -4.717301391215734 -2.673101356426126 2.000000000000000
-4.931727162008510 -4.679515223666303 -2.798590443595274 2.000000000000000
-4.917617261820033 -4.600762343579544 -2.899698316058085 19.000000000000000
-4.928090694725372 -4.546242710078687 -3.016206777662568 56.000000000000000
-4.650923187044019 -5.581706034494967 -0.573075259192696 85.000000000000000
-4.713931039339020 -5.587978705959992 -0.698343853766786 174.000000000000000
-4.780849794304339 -5.598014552155274 -0.827147095840840 11.000000000000000
-4.833915034700415 -5.590549989604163 -0.954630950176116 3.000000000000000
-4.885125511027216 -5.581529443985643 -1.082632812837483 6.000000000000000
-4.950937182321248 -5.587858195938498 -1.215795130271498 29.000000000000000
-5.013197880562442 -5.588635616751764 -1.349586215659406 43.000000000000000
-5.079035242276633 -5.593103906950626 -1.486805196979614 19.000000000000000
-5.149139513075230 -5.600543559025475 -1.627474767345301 13.000000000000000
-5.223238115711053 -5.611183411780665 -1.771391629747855 6.000000000000000
-5.277564963511475 -5.599012545626364 -1.910903077038367 4.000000000000000
-5.335872881593438 -5.590098670645456 -2.053113110357941 5.000000000000000
-5.401037946954513 -5.586536651721322 -2.200266650779338 10.000000000000000
-5.344051559301910 -5.457205794913746 -2.297083769365549 12.000000000000000
-5.019983912849389 -5.059450384813830 -2.269828918297708 21.000000000000000
-5.585118767783430 -5.556089617701510 -2.650596255528706 8.000000000000000
-5.698670151860839 -5.593317350622218 -2.831032234984054 9.000000000000000
-5.766950544623385 -5.585072308167972 -2.993304650115542 9.000000000000000
-4.925468182911152 -4.706600501557723 -2.666745375521723 5.000000000000000
-4.935306462316903 -4.653496272495107 -2.783154067759661 5.000000000000000
-4.918430731103395 -4.572477516376198 -2.882421292172931 60.000000000000000
-4.939689548327549 -4.528032359776116 -3.005116655799556 58.000000000000000
-4.692928561011504 -5.599350061543021 -0.568581049227519 4.000000000000000
-4.733092433871415 -5.577940118742010 -0.691031145577057 16.000000000000000
-4.797646100822215 -5.584774263613477 -0.819360919098501 51.000000000000000
-4.866494856209046 -5.595144935153125 -0.949819440273377 62.000000000000000
-4.931014848543989 -5.600724287249595 -1.081008798137738 21.000000000000000
-4.994531861004182 -5.603685919380839 -1.214154687981323 4.000000000000000
-5.035988143023333 -5.580681109397444 -1.342876680318377 7.000000000000000
-5.099405023723578 -5.582040152138915 -1.479362073304470 13.000000000000000
-5.167082732252694 -5.586409401010864 -1.619162142082585 18.000000000000000
-5.238751317041635 -5.594021099491285 -1.762075076902467 22.000000000000000
-5.311939591791619 -5.601473287245641 -1.908166341132292 14.000000000000000
-5.381178527936380 -5.603406212974434 -2.054763359337507 15.000000000000000
-5.349964064283211 -5.500043765955996 -2.163374004523227 10.000000000000000
-5.515841059262854 -5.598222697496301 -2.353936285923491 7.000000000000000
-5.029251073701356 -5.037692859769537 -2.258164805389716 33.000000000000000
-5.623274215254217 -5.559575514459236 -2.650567335323215 6.000000000000000
-5.745305958860554 -5.604186526215698 -2.835259568093162 7.000000000000000
-5.816513281055408 -5.598043925414417 -2.999436857217834 7.000000000000000
-4.950504205394882 -4.700968418411590 -2.663266423297605 5.000000000000000
-4.922534483142001 -4.612312462961590 -2.758654020765761 34.000000000000000
-4.927189080299669 -4.551717578047338 -2.869893875506649 59.000000000000000
-4.951203224482256 -4.509802300853134 -2.994021682803298 58.000000000000000
-4.714501412446980 -5.592410349957765 -0.561532643504088 255.000000000000000
-4.780665214166890 -5.601161867714129 -0.687780373171394 7.000000000000000
-4.832591181076666 -5.592544313330861 -0.814620512883559 3.000000000000000
-4.883457714931468 -5.581686077572419 -0.941911502164906 12.000000000000000
-4.950805147082464 -5.590071273687331 -1.073576988723903 37.000000000000000
-5.014531475195362 -5.592854439967300 -1.206696854066132 45.000000000000000
-5.079942270433816 -5.595976012413203 -1.341720908965704 18.000000000000000
-5.148967663692410 -5.602711726814419 -1.480289601553058 10.000000000000000
-5.216964076809631 -5.606602518125092 -1.620764642084475 5.000000000000000
-5.278258999160045 -5.602363933660814 -1.760771504938257 5.000000000000000
-5.332966240959764 -5.589741984495648 -1.900576654478888 6.000000000000000
-5.397050351862055 -5.585914045542497 -2.045100431586846 13.000000000000000
-5.371083593171784 -5.488191745267810 -2.155873002367056 14.000000000000000
-5.545606648068960 -5.594075362167608 -2.349673966166947 15.000000000000000
-5.038413011387614 -5.015929555417634 -2.246504177999201 35.000000000000000
-5.759561101431101 -5.583338171435988 -2.823438822122342 10.000000000000000
-5.841824970017709 -5.587462379170497 -2.992949244646820 11.000000000000000
-4.983681504893263 -4.702920020868890 -2.664088199571364 4.000000000000000
-4.917643966245762 -4.578813154244819 -2.738755907298287 62.000000000000000
-4.938554420092652 -4.533441176369027 -2.858939548186557 61.000000000000000
-4.962631714397418 -4.491552823421028 -2.982922007306851 60.000000000000000
-4.736062601547040 -5.585394913515563 -0.554446295236935 41.000000000000000
-4.797271509484065 -5.587898544495457 -0.679994059325539 68.000000000000000
-4.865005573509557 -5.597164324183856 -0.809365367312203 71.000000000000000
-4.926590824549298 -5.597970829152590 -0.938978936623886 18.000000000000000
-4.986368719292579 -5.597094896952270 -1.069504422511355 3.000000000000000
-5.034499198469362 -5.581958592159300 -1.199208112059918 9.000000000000000
-5.097465444211083 -5.581986952778480 -1.333508044251974 20.000000000000000
-5.166706983104327 -5.588553181907169 -1.471976998371993 24.000000000000000
-5.240264256051897 -5.597992849604657 -1.614002039193256 27.000000000000000
-5.312495285837753 -5.604875984464372 -1.757600363201544 17.000000000000000
-5.383553131087476 -5.608776207337669 -1.903418277930808 16.000000000000000
-5.385880375203691 -5.540638506540845 -2.025280603726945 6.000000000000000
-5.513796283333178 -5.599797075709243 -2.196798410591977 6.000000000000000
-5.580806945809822 -5.595244365738951 -2.347630788958807 5.000000000000000
-5.058318736278235 -5.004895205699667 -2.239650763440824 19.000000000000000
-5.417396492267063 -5.290288590356620 -2.518940625801864 2.000000000000000
-5.817215830695874 -5.604364574029831 -2.832789738131079 6.000000000000000
-5.886156387254506 -5.594892437109960 -2.996110412176551 5.000000000000000
-5.006037792443387 -4.694529508006850 -2.659055907475714 6.000000000000000
-4.928878748733184 -4.560483856238591 -2.727937916682416 61.000000000000000
-4.949834663492086 -4.515145876786026 -2.847980778627961 62.000000000000000
-4.973975010484854 -4.473284217495987 -2.971817777821096 60.000000000000000
-4.999835167609165 -4.431086825666595 -3.097678782595539 47.000000000000000
-4.778319587915417 -5.602583612999933 -0.549704261479273 5.000000000000000
-4.829450424408139 -5.592677080490379 -0.674367608609463 3.000000000000000
-4.881773725119492 -5.583685898137032 -0.801459348737410 24.000000000000000
-4.946176763882445 -5.587314192559134 -0.931480291824068 75.000000000000000
-5.011436653836077 -5.592169678786576 -1.063107213900976 51.000000000000000
-5.078326541653964 -5.597331934956274 -1.197321488261003 12.000000000000000
-5.149588171126021 -5.605666890447735 -1.334250494149051 7.000000000000000
-5.211146063958692 -5.603107107031079 -1.471193884987853 4.000000000000000
-5.266233025993806 -5.592152508603687 -1.608018667941884 5.000000000000000
-5.330635428150400 -5.590307358382788 -1.749053907390802 7.000000000000000
-5.399212221976558 -5.591238033594064 -1.893822756688206 16.000000000000000
-5.328449756207300 -5.448431335350929 -1.988364951295523 13.000000000000000
-5.543395889889441 -5.595690667775849 -2.192255450106836 16.000000000000000
-5.613345588201614 -5.593562926710681 -2.344376482637824 12.000000000000000
-5.501135658159475 -5.339022023446852 -2.540497255199423 3.000000000000000
-5.839613324079006 -5.591178794617649 -2.824841926879600 12.000000000000000
-5.916949417230332 -5.589242428751811 -2.992267144921752 9.000000000000000
-5.039301097865993 -4.696237005742219 -2.659747813410882 6.000000000000000
-4.937299206183830 -4.539626656348688 -2.715614547314278 66.000000000000000
-4.961029805022962 -4.496831969061811 -2.837017715083485 63.000000000000000
-4.987960257949227 -4.457433860945401 -2.962328786683958 57.000000000000000
-5.016609086414247 -4.417622724199149 -3.089779723660782 49.000000000000000
-4.792135539318297 -5.586275726245012 -0.541627624081606 100.000000000000000
-4.859075672831382 -5.594313693284777 -0.668309738687602 85.000000000000000
-4.930011312632742 -5.605999505459445 -0.798637591214960 12.000000000000000
-4.978930844910966 -5.591417810686146 -0.926407312112723 3.000000000000000
-5.031204280801489 -5.581267142547806 -1.055549415404625 14.000000000000000
-5.098311221802683 -5.586241617947601 -1.189732436958409 23.000000000000000
-5.167127420448423 -5.591481935220996 -1.325936645902548 31.000000000000000
-5.236925886598578 -5.597380233598591 -1.465045316293484 31.000000000000000
-5.308363575021335 -5.603273653759296 -1.606877878518979 16.000000000000000
-5.383840463059490 -5.612294704740846 -1.751911531859200 13.000000000000000
-5.379585598220399 -5.537415023052693 -1.871958774623525 6.000000000000000
-5.427941779855162 -5.516648846988341 -2.009987446111290 6.000000000000000
-5.575735256205256 -5.594201386813914 -2.188721817974817 5.000000000000000
-5.654099120462739 -5.599853053484605 -2.344445545403350 5.000000000000000
-5.734265872280882 -5.604462687297712 -2.503635934532510 6.000000000000000
-5.369287008223785 -5.179025771846821 -2.462759646791729 1.000000000000000
-5.881128465917550 -5.596150238362760 -2.826065547195729 5.000000000000000
-5.301500382459378 -4.976800099599223 -2.663661101456459 4.000000000000000
-5.072624893528418 -4.697807309285744 -2.660365985043648 7.000000000000000
-4.953831664079853 -4.526272331857929 -2.707786295448221 41.000000000000000
-4.974877802879133 -4.480965877073699 -2.827606700890634 68.000000000000000
-5.001878511620464 -4.441550243894690 -2.952826914322693 58.000000000000000
-5.027865994828363 -4.399325997440092 -3.078511053463403 36.000000000000000
-4.826735303402763 -5.594099733670316 -0.535853040147342 4.000000000000000
-4.878255984011938 -5.583828468849683 -0.660767875214523 47.000000000000000
-4.946788525353316 -5.592337601990197 -0.790637357325910 99.000000000000000
-5.011742816471257 -5.595385209445573 -0.921261254729875 63.000000000000000
-5.077551475115180 -5.599649077953032 -1.053482425736386 7.000000000000000
-5.144990243210589 -5.604199600118208 -1.188285419965581 4.000000000000000
-5.203399930768779 -5.597454040732772 -1.322374161256877 4.000000000000000
-5.262708031869571 -5.591558160332900 -1.458848008159194 7.000000000000000
-5.326284256963577 -5.588691122280948 -1.598337747086038 8.000000000000000
-5.377598517824476 -5.572248408428458 -1.735389828211089 20.000000000000000
-5.337906813412292 -5.461500812516274 -1.842687093950222 22.000000000000000
-5.541550978508725 -5.598130302543031 -2.036331473100204 16.000000000000000
-5.613571625317729 -5.598029542668119 -2.187248236218889 13.000000000000000
-5.689472617581736 -5.600584626757328 -2.342168476501443 13.000000000000000
-5.764425981452906 -5.599487016691400 -2.499238734946137 16.000000000000000
-5.461303896057315 -5.235416846987721 -2.487944170030018 1.000000000000000
-5.917240502194132 -5.595753121739321 -2.824572859697185 10.000000000000000
-5.335663383341402 -4.977797075771599 -2.663467013520063 5.000000000000000
-5.111504771032275 -4.704298465551204 -2.663774563045246 6.000000000000000
-5.017023891550628 -4.555280052212929 -2.725309325108102 7.000000000000000
-4.983164766586373 -4.460149487710809 -2.815079298407982 63.000000000000000
-5.015729687275813 -4.425633577626074 -2.943312273743424 59.000000000000000
-5.036294459417211 -4.378625845454816 -3.065568434003492 42.000000000000000
-4.861410391025107 -5.601775346026204 -0.529998096870279 79.000000000000000
-4.926337063086127 -5.606206006313667 -0.657055062864989 8.000000000000000
-4.976738013674870 -5.593488012932138 -0.784700320140108 3.000000000000000
-5.028664893876519 -5.581515693834704 -0.913146179190788 32.000000000000000
-5.097343917827246 -5.588545475248932 -1.045820469518673 25.000000000000000
-5.164998921352989 -5.592906742687228 -1.180591508535529 34.000000000000000
-5.234361893490981 -5.597513654977096 -1.317373314711691 32.000000000000000
-5.310110855660684 -5.608474277790575 -1.458540015205634 15.000000000000000
-5.376688620800540 -5.607993554725943 -1.599453583292206 10.000000000000000
-5.314028572816651 -5.473459564236974 -1.700645973138148 41.000000000000000
-5.380310363280444 -5.471836343568527 -1.842533968202395 7.000000000000000
-5.573736573512262 -5.596692891730040 -2.032443181186190 5.000000000000000
-5.651480179142525 -5.601699498650249 -2.185689481966894 5.000000000000000
-5.727643868000809 -5.603857323632730 -2.340936312188040 5.000000000000000
-5.802848821506686 -5.602358158670312 -2.498332367143863 6.000000000000000
-5.396889598373352 -5.141894896766700 -2.441891793993768 1.000000000000000
-5.958913646670282 -5.600388442514842 -2.825615232913502 6.000000000000000
-5.367126736003033 -4.976098053203026 -2.661830716741862 5.000000000000000
-5.147723002723584 -4.708100220604507 -2.665663932301723 4.000000000000000
-5.251387598533644 -4.738196693301545 -2.834928638529256 2.000000000000000
-4.991348453316868 -4.439330178776727 -2.802556722240155 65.000000000000000
-5.024004924204863 -4.404854189622660 -2.930571631905452 59.000000000000000
-5.052875826588901 -4.365054656273157 -3.057626486152546 47.000000000000000
-4.877792928239818 -5.588259763923357 -0.522096696148218 110.000000000000000
-4.942912904809704 -5.592530455855282 -0.649060178871570 206.000000000000000
-5.009379799302455 -5.597481854213980 -0.779111621069602 74.000000000000000
-5.072204303672128 -5.597024628935765 -0.909792726337378 5.000000000000000
-5.135857040645283 -5.597818592963252 -1.041932559395842 3.000000000000000
-5.195736739352453 -5.593135310678595 -1.175301294044811 4.000000000000000
-5.254555442740163 -5.585960976419306 -1.309613328082147 10.000000000000000
-5.322411723986324 -5.588168292656196 -1.448520822537557 10.000000000000000
-5.391891133069394 -5.590398261098318 -1.590012984675452 22.000000000000000
-5.353549254343182 -5.481227099527257 -1.699047928908882 34.000000000000000
-5.376311347944709 -5.434966014829238 -1.826477677830237 9.000000000000000
-5.611443114428706 -5.600602184354323 -2.030472197823998 12.000000000000000
-5.686711632570339 -5.602503024817980 -2.182990303435766 15.000000000000000
-5.763132407532490 -5.604293085043574 -2.338501201663481 15.000000000000000
-5.841341825611375 -5.605069342677629 -2.497340052964057 17.000000000000000
-5.434040364256013 -5.145509971301045 -2.441990265107113 1.000000000000000
-5.992381651523588 -5.597102519235222 -2.822656467169565 11.000000000000000
-5.398628238247954 -4.974273443445473 -2.660127977189236 1.000000000000000
-5.244876119425386 -4.767062794890440 -2.698785430791534 2.000000000000000
-5.370974091022949 -4.815736078657207 -2.881518234243797 2.000000000000000
-5.004959284997973 -4.423396048238151 -2.793125481596502 66.000000000000000
-5.037703643941314 -4.388886927636622 -2.921040487949589 59.000000000000000
-5.061124521258971 -4.344325660026418 -3.044680137542724 52.000000000000000
-4.923085680851148 -5.607683499755928 -0.517216729779196 5.000000000000000
-4.967382628799160 -5.587742917537379 -0.642070795641096 5.000000000000000
-5.026104971034040 -5.583594924746150 -0.770999699413651 69.000000000000000
-5.094465633568266 -5.588854881853914 -0.902539205779753 38.000000000000000
-5.163709570414590 -5.595273415336930 -1.035796736832365 41.000000000000000
-5.234611169100454 -5.601907178377009 -1.171758453426693 29.000000000000000
-5.309951562386593 -5.611581839067648 -1.310518854711498 13.000000000000000
-5.375428904116801 -5.610430550656488 -1.449499614710526 6.000000000000000
-5.434316340638526 -5.600897519069968 -1.588536713691242 4.000000000000000
-5.335670826194793 -5.430313694864043 -1.679263531988293 48.000000000000000
-5.366623967142161 -5.392647505683828 -1.808618277784819 9.000000000000000
-5.481367798665628 -5.437833236347989 -1.968146526410236 6.000000000000000
-5.719238059658513 -5.600462261204992 -2.179163710640434 6.000000000000000
-5.795910294699616 -5.601914062606367 -2.334876161805597 5.000000000000000
-5.866069164590441 -5.594425775621867 -2.490388081664961 6.000000000000000
-5.454643052689256 -5.133326200175405 -2.434585650648089 16.000000000000000
-6.031427513203939 -5.598833384082207 -2.822223749147664 6.000000000000000
-6.123852452447058 -5.607520111596097 -2.997954859350528 6.000000000000000
-5.381357502411174 -4.860636667573056 -2.751497522638764 2.000000000000000
-5.507825576523120 -4.907505658760921 -2.936638491171035 36.000000000000000
-5.012954690757957 -4.402557052243099 -2.780604371382656 44.000000000000000
-5.051335092073488 -4.372887303198107 -2.911496938194458 61.000000000000000
-5.077580140366636 -4.330681700258996 -3.036708733019383 54.000000000000000
-4.986974019518969 -4.192379567259806 -3.093054750997027 29.000000000000000
-4.942107614282642 -5.596984850714670 -0.509498684708811 255.000000000000000
-5.005138553163819 -5.597719734802509 -0.636724300019809 78.000000000000000
-5.069489329348582 -5.599160265760688 -0.766906942169344 3.000000000000000
-5.124764995246783 -5.589390673439975 -0.896655810863596 3.000000000000000
-5.188884748087374 -5.589714408696810 -1.029069434136243 6.000000000000000
-5.251907702883242 -5.587457233395847 -1.163324178966509 13.000000000000000
-5.327472695125803 -5.596944785089677 -1.301975328240317 13.000000000000000
-5.395874077063965 -5.598465824020961 -1.441591953965612 26.000000000000000
-5.465895724424422 -5.599988003693497 -1.583784798578313 25.000000000000000
-5.350464764927209 -5.412889077407446 -1.669857070217565 13.000000000000000
-5.417292755049164 -5.410947443512996 -1.811080056107956 7.000000000000000
-5.477255056744966 -5.401050552238725 -1.951518889358606 8.000000000000000
-5.574734777660253 -5.425954285709554 -2.108305539559057 6.000000000000000
-5.831492994197042 -5.602067726163390 -2.332291287577380 14.000000000000000
-5.910207137134174 -5.602116257990802 -2.491586046702662 12.000000000000000
-5.483547954982676 -5.128874712093177 -2.430845534594176 13.000000000000000
-6.062194307478404 -5.592702386756461 -2.817824726902828 9.000000000000000
-6.146549105936311 -5.593427224141038 -2.989603648738644 9.000000000000000
-5.490719039567947 -4.928521674605214 -2.789663515815596 49.000000000000000
-5.525698307823637 -4.892593128533819 -2.927932835557988 44.000000000000000
-5.026413359650176 -4.386573964686783 -2.771157445953281 55.000000000000000
-5.059336421105874 -4.352070404010820 -2.898753900662267 60.000000000000000
-5.085649058846935 -4.309925018532396 -3.023759247175245 55.000000000000000
-5.011399080670042 -4.185904885405589 -3.090348773940750 29.000000000000000
-4.961097287220829 -5.586224445267944 -0.501751087513501 16.000000000000000
-5.021661296329448 -5.583820606530112 -0.628618532208951 138.000000000000000
-5.091561022600462 -5.590988568974274 -0.759508508665128 49.000000000000000
-5.163181593130424 -5.598565093680682 -0.892103541176357 40.000000000000000
-5.235707610414809 -5.607243980954884 -1.026538239078150 26.000000000000000
-5.304478708048308 -5.610321413598048 -1.162610541834779 12.000000000000000
-5.369496284186179 -5.607903289328950 -1.299351511964476 4.000000000000000
-5.429974692987076 -5.600556593051536 -1.437276828431769 4.000000000000000
-5.456299694505875 -5.556980659384045 -1.567129731377316 6.000000000000000
-5.378965646940357 -5.409284894828648 -1.664701022890936 61.000000000000000
-5.446019162815282 -5.407069047688929 -1.806082941554198 7.000000000000000
-5.517259224709592 -5.407773089111881 -1.950606281142929 6.000000000000000
-5.584547170212882 -5.402657223336021 -2.096290015909632 7.000000000000000
-5.678043555935695 -5.421535285749663 -2.254551068897851 7.000000000000000
-5.934953762777841 -5.591249091142358 -2.484518753096637 6.000000000000000
-5.378632523702919 -4.999897335033631 -2.368120523556342 26.000000000000000
-6.109720159483219 -5.601808878297852 -2.821097811815053 5.000000000000000
-6.194338182728024 -5.601993268109118 -2.993364311616248 6.000000000000000
-5.505647584947029 -4.911140336130044 -2.779568540116150 58.000000000000000
-5.537931462129376 -4.872714760730726 -2.916263016484366 45.000000000000000
-5.037012735612084 -4.368137903975573 -2.760168464629206 62.000000000000000
-5.075605524266611 -4.338406764054945 -2.890783857647707 61.000000000000000
-5.057371141035093 -4.258646652470267 -2.989391548664910 21.000000000000000
-5.016342433885527 -4.163166981883852 -3.075648430323519 19.000000000000000
-5.059526912041619 -5.593525267535704 -0.623126397905125 3.000000000000000
-5.113616779605337 -5.582739121689476 -0.752071359976257 5.000000000000000
-5.182772391701230 -5.587180533918502 -0.884233010705695 14.000000000000000
-5.250097262338382 -5.589876106267933 -1.017575477574940 27.000000000000000
-5.321785356628415 -5.595674675434658 -1.154075190217085 16.000000000000000
-5.389728208737607 -5.595940012547082 -1.291379577007736 31.000000000000000
-5.464128293041806 -5.602506108005360 -1.432886355208494 24.000000000000000
-5.341730686190977 -5.408033157662803 -1.520721750296666 7.000000000000000
-5.404720181865472 -5.402806373198398 -1.658638914731838 11.000000000000000
-5.474763296892826 -5.403079254422589 -1.801027876914578 10.000000000000000
-5.565688446387292 -5.422444483117070 -1.952524505675736 30.000000000000000
-5.616527118514930 -5.400774595571121 -2.092577571995832 6.000000000000000
-5.685220141458061 -5.395440263247002 -2.241115862442788 5.000000000000000
-5.766889332284388 -5.399780520685113 -2.397267977847727 9.000000000000000
-5.166576076238269 -4.773331073322580 -2.259279998781800 25.000000000000000
-6.101364125145910 -5.559677562768841 -2.798570565561494 8.000000000000000
-6.222633915424527 -5.592723761399730 -2.987595033347604 8.000000000000000
-5.526108709354520 -4.898691472571069 -2.772271341148912 60.000000000000000
-5.555677779974110 -4.857714807400956 -2.907520465114465 46.000000000000000
-5.047527009078710 -4.349685549096185 -2.749176370588972 28.000000000000000
-5.086226516096354 -4.319941348186620 -2.879623339116751 57.000000000000000
-5.014774425192284 -4.195861350980838 -2.946925344792883 9.000000000000000
-5.046299519697692 -4.161168110266589 -3.076284303441282 17.000000000000000
-5.092115581232490 -5.597165779406351 -0.616893949728617 47.000000000000000
-5.159931960196294 -5.600761547877976 -0.748115131484668 42.000000000000000
-5.229438425244449 -5.604787873964336 -0.880898770823974 19.000000000000000
-5.297098047710207 -5.607067822077726 -1.014860932130733 6.000000000000000
-5.363655293926914 -5.606710166149145 -1.150799287768993 3.000000000000000
-5.418162563806451 -5.592414776444012 -1.285330852495566 6.000000000000000
-5.481797867099115 -5.587458975140061 -1.424124413593972 9.000000000000000
-5.381104538147991 -5.415607153977774 -1.518410057694509 21.000000000000000
-5.566375134444264 -5.531275719699166 -1.693883341705407 5.000000000000000
-5.481276953809185 -5.377152826960273 -1.788654922323880 5.000000000000000
-5.597533799394030 -5.420699810703888 -1.948500173691612 94.000000000000000
-5.645747547780016 -5.396093903765595 -2.087764643938516 6.000000000000000
-5.720254404927497 -5.395751499488243 -2.238644969323608 5.000000000000000
-5.796578666804262 -5.394485329750601 -2.392736464104491 8.000000000000000
-5.163465760711206 -4.741220891151842 -2.242553410572062 38.000000000000000
-6.098386866049301 -5.522729851043437 -2.778666699046702 2.000000000000000
-6.276218200500796 -5.605945921121372 -2.993840247769610 7.000000000000000
-5.535288602763308 -4.876270567844218 -2.759337136577344 58.000000000000000
-5.570559057293448 -4.840221762034769 -2.897293406531509 45.000000000000000
-5.060766161010925 -4.333623420491693 -2.739702522708007 5.000000000000000
-5.040599498857318 -4.254060566243738 -2.836851316309924 4.000000000000000
-5.025064579410447 -4.177665791659801 -2.935767447525431 13.000000000000000
-5.079097510554472 -4.161343310176719 -3.078553935393507 27.000000000000000
-5.108608061007259 -5.583020283687020 -0.608664267844708 11.000000000000000
-5.173915315270512 -5.583528460850028 -0.739401269465332 32.000000000000000
-5.246328124346575 -5.590303246542988 -0.872471674830237 52.000000000000000
-5.322381565524406 -5.601042600523056 -1.007889010800243 17.000000000000000
-5.394654587829852 -5.606153870138084 -1.145092425240036 32.000000000000000
-5.460388586915088 -5.602913282305988 -1.282459835958451 23.000000000000000
-5.535356690853841 -5.608781711730245 -1.424590472795588 19.000000000000000
-5.473274718692196 -5.475741290365678 -1.530746606956645 6.000000000000000
-5.484052172683209 -5.417045785524495 -1.654763646210501 7.000000000000000
-5.470925692251831 -5.334913681938634 -1.770876640571775 5.000000000000000
-5.609837240489838 -5.399983896222433 -1.937647041065977 83.000000000000000
-5.683390951417181 -5.399287319334020 -2.085978843763323 6.000000000000000
-5.758146865802376 -5.398550715693943 -2.237188155236546 5.000000000000000
-5.831906120044220 -5.394277664376783 -2.390450896085615 10.000000000000000
-5.171440043964393 -4.719446637392672 -2.230725287543171 36.000000000000000
-6.219196060079224 -5.597442152446335 -2.814929078380480 10.000000000000000
-6.298939652738702 -5.591396231503291 -2.985254333132576 8.000000000000000
-5.552821014804235 -4.861251481235229 -2.750597901136546 56.000000000000000
-5.585367905763824 -4.822693094142545 -2.887052593385377 44.000000000000000
-5.071119125360747 -4.315131739360266 -2.728700219585524 4.000000000000000
-5.019885628857067 -4.209728505939527 -2.808436963770852 1.000000000000000
-5.074674263745747 -4.192005044387036 -2.947493651343494 15.000000000000000
-5.140055083216287 -4.184259259970728 -3.097686909106796 37.000000000000000
-5.157452039982556 -5.604035975196197 -0.604209602693117 27.000000000000000
-5.228550123276242 -5.609953633707412 -0.736410100447428 10.000000000000000
-5.290449674851293 -5.604675038481071 -0.868502130620908 4.000000000000000
-5.350405439491860 -5.597790627806088 -1.001381905319968 3.000000000000000
-5.411924159899254 -5.591252231370921 -1.136429220272187 9.000000000000000
-5.480608531620733 -5.590670490156031 -1.274345947388130 14.000000000000000
-5.553031613446301 -5.593534135620287 -1.415725882265554 16.000000000000000
-5.382195240922157 -5.352745058870318 -1.491908416537108 56.000000000000000
-5.378705762579666 -5.281389011401600 -1.609260211972794 40.000000000000000
-5.446348659417515 -5.279212886883845 -1.748671946083820 5.000000000000000
-5.630465734368286 -5.387299940610261 -1.929673279082565 38.000000000000000
-5.718291433455804 -5.399666869803323 -2.083083478215483 7.000000000000000
-5.790474397256562 -5.395941137658784 -2.233472966847346 5.000000000000000
-5.864462130644731 -5.391331639769277 -2.386940105712037 18.000000000000000
-5.190606098380543 -4.707916941406920 -2.223742432087950 19.000000000000000
-6.269914397847082 -5.608332834644618 -2.819070814917022 5.000000000000000
-6.358387012631022 -5.609211612730547 -2.993947842099784 7.000000000000000
-5.567469914407907 -4.843720750363370 -2.740443767834347 53.000000000000000
-5.597275898767878 -4.802702196639031 -2.875345218138314 40.000000000000000
-4.999383516441640 -4.227285642788566 -2.673837046232490 0.000000000000000
-5.038454240230227 -4.198515145930725 -2.802119454715719 2.000000000000000
-5.158326895300198 -4.233925476893972 -2.978657868458676 67.000000000000000
-5.173945298373224 -5.589705755245639 -0.595885575606074 54.000000000000000
-5.245248147429064 -5.595447064892042 -0.727983527205799 73.000000000000000
-5.318269648490259 -5.601549601938278 -0.861762149883842 26.000000000000000
-5.386694878631352 -5.603009348010744 -0.996343580614134 28.000000000000000
-5.459516327876972 -5.607500991433274 -1.134053833254661 17.000000000000000
-5.534062293512697 -5.612102349049427 -1.273859393855885 16.000000000000000
-5.584563919957911 -5.592167394689231 -1.410352315444271 8.000000000000000
-5.379709346259081 -5.318617446087811 -1.477937688789028 63.000000000000000
-5.373329664614937 -5.244747101244884 -1.594030162623195 63.000000000000000
-5.390568280056618 -5.193935489152532 -1.716743356640494 7.000000000000000
-5.606027836468046 -5.331724269200421 -1.906355741713655 8.000000000000000
-5.753241857225813 -5.399902259801825 -2.080111467410342 10.000000000000000
-5.828484013405069 -5.398435714885797 -2.231853475864178 7.000000000000000
-5.874411662536653 -5.367571298312083 -2.374211864301433 25.000000000000000
-5.425040627135367 -4.890408979682210 -2.308340140744928 15.000000000000000
-6.298080751797358 -5.598830949698909 -2.812956956750884 10.000000000000000
-6.386809721984857 -5.599392018813589 -2.987889990412359 6.000000000000000
-5.528127324146255 -4.779537456835451 -2.703903472155483 47.000000000000000
-5.614767952466640 -4.787529794010437 -2.866530186726794 0.000000000000000
-5.006473858069214 -4.206601986052382 -2.661450589323369 1.000000000000000
-5.127857135286749 -4.245918949361400 -2.834951406204795 15.000000000000000
-5.168715071218717 -4.215379614038758 -2.967315153822215 52.000000000000000
-5.186311439084759 -4.167865953553694 -3.089977839730656 38.000000000000000
-5.220278843895899 -5.607437321588477 -0.590924256084949 5.000000000000000
-5.281017763754198 -5.601176091681455 -0.722150793732619 3.000000000000000
-5.340614199284451 -5.592564262744061 -0.854087197819564 4.000000000000000
-5.409260354627486 -5.593809897479413 -0.988700787254005 18.000000000000000
-5.476773598007859 -5.592416254429334 -1.125297913158393 18.000000000000000
-5.548750155062346 -5.594028894627026 -1.264362464949640 24.000000000000000
-5.618919770220035 -5.593451978228047 -1.405610039480072 14.000000000000000
-5.377046647785086 -5.284548324773204 -1.464007633409027 46.000000000000000
-5.376185664637563 -5.216355441451709 -1.581328431345841 62.000000000000000
-5.368071957825097 -5.141378843168145 -1.695701343584654 15.000000000000000
-5.578445989371041 -5.273659984530892 -1.882197309324334 6.000000000000000
-5.757121964737772 -5.370960963040681 -2.065895693549658 6.000000000000000
-5.866559983278715 -5.400769756651202 -2.230147976757274 26.000000000000000
-5.858703411425522 -5.320603962437294 -2.351234529315932 8.000000000000000
-5.723303945294855 -5.127677347846017 -2.418646928792868 8.000000000000000
-6.331927269061574 -5.594252495675409 -2.809315232212984 6.000000000000000
-6.437991905477859 -5.609307284156739 -2.992362948725926 9.000000000000000
-4.981670056297416 -4.280249714056382 -2.421244687244553 5.000000000000000
-4.994704243805864 -4.232136907158428 -2.534234937012582 0.000000000000000
-5.036224920358707 -4.204924857921671 -2.661098549620128 1.000000000000000
-5.146581733703019 -4.234392941019768 -2.828464756604965 70.000000000000000
-5.179017684500998 -4.196818178276464 -2.955969722800650 34.000000000000000
-5.199501452715916 -4.151615624417468 -3.080177973802459 40.000000000000000
-5.239488405112742 -5.595840769279626 -0.582813295624864 97.000000000000000
-5.311373901063772 -5.600970939813283 -0.715496900388616 22.000000000000000
-5.384975586388449 -5.606441973935634 -0.849850767425135 25.000000000000000
-5.459477410571862 -5.612979836155946 -0.986016106543047 10.000000000000000
-5.527323500212993 -5.611134880374403 -1.123297056988463 7.000000000000000
-5.594055758751780 -5.606680385751329 -1.261774631226735 5.000000000000000
-5.460120484982378 -5.403396503289970 -1.352919257646046 8.000000000000000
-5.492198528694633 -5.365814175844907 -1.481955988451195 6.000000000000000
-5.378900315421904 -5.187992364510055 -1.568649936263504 61.000000000000000
-5.379178197943358 -5.121266811234147 -1.685385464195792 17.000000000000000
-5.533535366376086 -5.199826001107698 -1.852471837105595 6.000000000000000
-5.726802551171525 -5.310466662113159 -2.039573575647621 6.000000000000000
-5.879115446911401 -5.379531000273602 -2.218700470767299 22.000000000000000
-5.842725485664062 -5.273769804772598 -2.328341672830776 8.000000000000000
-5.766706976750218 -5.134918830824840 -2.420364279430022 9.000000000000000
-6.183185965058054 -5.429194760051872 -2.725120103579725 7.000000000000000
-4.964760638061517 -4.298914447052283 -2.292688898145618 1.000000000000000
-4.997057724720845 -4.266722713171239 -2.413398306271969 0.000000000000000
-5.012973376849861 -4.220996516088591 -2.527817701924419 1.000000000000000
-5.140220897146770 -4.264692939381106 -2.699655396773555 2.000000000000000
-5.162421369798317 -4.220474120722407 -2.820390717074865 74.000000000000000
-5.183535419405234 -4.173652505934231 -2.941387651344233 41.000000000000000
-5.209777991998870 -4.133077222021280 -3.068690592238497 39.000000000000000
-5.269600911538490 -5.595797204974351 -0.575867930965047 6.000000000000000
-5.333515058239009 -5.591994400863724 -0.707683364398570 7.000000000000000
-5.404587933606414 -5.594377624885266 -0.841631901783098 33.000000000000000
-5.476538813589221 -5.597870183875173 -0.977259447502094 25.000000000000000
-5.547362864295001 -5.598672257154813 -1.115004129501675 28.000000000000000
-5.619888514457800 -5.599607256854622 -1.254701420277492 17.000000000000000
-5.625985033149880 -5.534800373814369 -1.380732135063807 20.000000000000000
-5.641724768428428 -5.479333529669218 -1.508611848005921 6.000000000000000
-5.372994657618111 -5.151528681589675 -1.553543257191820 64.000000000000000
-5.370358216473686 -5.082363691030490 -1.668901416755495 6.000000000000000
-5.235363235235884 -4.890134880021857 -1.738946994687894 9.000000000000000
-5.710360671686741 -5.263303839932385 -2.018412665389897 6.000000000000000
-5.865912463956617 -5.334928922310818 -2.197632444038336 12.000000000000000
-5.832190950442281 -5.232194475121376 -2.307794118219497 5.000000000000000
-5.798774109069469 -5.131847363897774 -2.417210265086810 10.000000000000000
-6.393973107252400 -5.579698455013521 -2.799315819062365 7.000000000000000
-4.968562253748571 -4.275555718079466 -2.279607955816723 16.000000000000000
-5.003803653057251 -4.245860329005348 -2.401408559206349 0.000000000000000
-5.056982608677211 -4.231360421221897 -2.534287253105512 1.000000000000000
-5.164549970166775 -4.257850701008961 -2.696068807276229 2.000000000000000
-5.172488743995673 -4.201861657107303 -2.809188994669019 42.000000000000000
-5.193649528085300 -4.155076187480800 -2.930046152477698 43.000000000000000
-5.225676937707773 -4.119022795999127 -3.060543701493026 40.000000000000000
-5.313461568135544 -5.610111768012890 -0.570329829440701 21.000000000000000
-5.383214946983237 -5.611687851732599 -0.703434637541418 14.000000000000000
-5.446336726379256 -5.605069097547638 -0.836789504361158 5.000000000000000
-5.518604681904964 -5.608177433378838 -0.972898885083612 3.000000000000000
-5.589734249314105 -5.608590168896360 -1.111127058172909 3.000000000000000
-5.662561804941570 -5.609123148782490 -1.251301445299770 5.000000000000000
-5.716644446963147 -5.590935794658888 -1.389557198177680 5.000000000000000
-5.384962429453028 -5.199073713229975 -1.426959059602072 5.000000000000000
-5.372566077389415 -5.120545518889572 -1.540112766346814 66.000000000000000
