# This PCD file was generated using the MATLAB® pcwrite function
# from Computer Vision Toolbox®.
# .PCD v.7 - Point Cloud Data file format
VERSION .7
FIELDS x y z intensity
SIZE 8 8 8 8
TYPE F F F F
COUNT 1 1 1 1
WIDTH 632
HEIGHT 1
VIEWPOINT 0 0 0 1 0 0 0
POINTS 632
DATA ascii
-2.457841965403770 -5.405265973514325 -2.731557912376811 1.000000000000000
-2.368480755515189 -5.144854288630596 -2.722026682366201 1.000000000000000
-2.372556515650724 -5.091554366670715 -2.817038464643265 39.000000000000000
-2.396586994028120 -5.081666004770941 -2.937454918123953 42.000000000000000
-2.422244795697683 -5.075835121802411 -3.062653092662076 1.000000000000000
-2.376364091737611 -4.916397483781244 -3.093558708828640 3.000000000000000
-2.100042662316469 -4.128287512748569 -3.054073841369097 66.000000000000000
-2.109802606997086 -5.541435578826244 -0.942995591308335 16.000000000000000
-2.129798822954498 -5.528015362292020 -1.047501373748529 7.000000000000000
-2.162000179325176 -5.545861228069608 -1.158134043879270 17.000000000000000
-2.180562079332995 -5.528733319671479 -1.263341956134345 15.000000000000000
-2.205951340167614 -5.527880281347354 -1.372582339935863 8.000000000000000
-2.238936208373628 -5.546973233660246 -1.487665486556139 12.000000000000000
-2.258432349189027 -5.531470535996953 -1.595046404821539 18.000000000000000
-2.284911774296686 -5.531823978465980 -1.707711232893074 4.000000000000000
-2.314763191899512 -5.540781083442212 -1.824771862671091 18.000000000000000
-2.336868861504179 -5.529807835204139 -1.936784249689951 13.000000000000000
-2.371700578032013 -5.548270359503864 -2.060366080582155 5.000000000000000
-2.394173715537515 -5.536444282030202 -2.174732381651672 11.000000000000000
-2.416078234705757 -5.522636413002562 -2.289051553276882 6.000000000000000
-2.357871555154592 -5.326449446579263 -2.325373523206181 9.000000000000000
-2.465824704304292 -5.505167439491368 -2.526744939800355 5.000000000000000
-2.501556076118036 -5.517788244126901 -2.658512006933933 3.000000000000000
-2.449543299685343 -5.339365610071006 -2.697074063676731 1.000000000000000
-2.370014264663922 -5.102695603508866 -2.698727471090924 26.000000000000000
-2.389266440321773 -5.082144060702235 -2.810981612074531 36.000000000000000
-2.495715471008698 -5.245161194407902 -3.031236106350890 2.000000000000000
-2.448405433354164 -5.085397055592593 -3.067869557346270 1.000000000000000
-2.400605445284852 -4.922779154545768 -3.097192743701683 3.000000000000000
-2.118973754370023 -4.128864562364162 -3.054760817796446 68.000000000000000
-2.125202438492196 -5.531990192756838 -0.938402420430058 18.000000000000000
-2.158145700590777 -5.551593311206500 -1.049058073696966 6.000000000000000
-2.179135812908721 -5.539994309550578 -1.154091053186815 17.000000000000000
-2.199246719923119 -5.526468208136817 -1.260104364471629 14.000000000000000
-2.230622529660585 -5.540007814687781 -1.372960503207916 6.000000000000000
-2.252151629766169 -5.530159953251985 -1.480624168379531 17.000000000000000
-2.276150554067884 -5.525408026547862 -1.590867937755026 6.000000000000000
-2.313151153651268 -5.550565087269954 -1.711158365652254 15.000000000000000
-2.332834832701103 -5.534599943917921 -1.820511220542230 16.000000000000000
-2.361043064122811 -5.537594250507715 -1.937395562630789 4.000000000000000
-2.390128935170814 -5.541969893504349 -2.056022707255594 14.000000000000000
-2.409721793545679 -5.523200697824368 -2.167651016483832 10.000000000000000
-2.446844155016326 -5.543626610168590 -2.295987301378896 4.000000000000000
-2.451825444868164 -5.489883541735411 -2.395102228732564 13.000000000000000
-2.378414694707351 -5.263265303189509 -2.414287035180692 2.000000000000000
-2.525323982728942 -5.521222272084729 -2.658801873869051 9.000000000000000
-2.367486772180265 -5.115149628346248 -2.582682842158658 18.000000000000000
-2.388108384944707 -5.096509409657640 -2.694462873937568 47.000000000000000
-2.431997834271059 -5.127652267034580 -2.835296238927427 12.000000000000000
-2.543850392974220 -5.299445504395285 -3.061876307774289 1.000000000000000
-2.466977416042880 -5.079054244196276 -3.063495783128517 1.000000000000000
-2.421840518313253 -4.922826698015910 -3.096847720692441 3.000000000000000
-2.137930214412420 -4.129381025481105 -3.055415314601124 67.000000000000000
-2.151981989832803 -5.551977915256821 -0.938775129589495 3.000000000000000
-2.175141771880052 -5.545718717758077 -1.045019701120618 19.000000000000000
-2.193351777322248 -5.526777957339982 -1.148507462395530 23.000000000000000
-2.223764480089290 -5.538674105250364 -1.260143123983261 4.000000000000000
-2.250982708271090 -5.541209989866317 -1.370607418362488 19.000000000000000
-2.269702981869426 -5.524095672617436 -1.476455002315463 13.000000000000000
-2.304231879945382 -5.544285670204694 -1.593849381405364 7.000000000000000
-2.328105230556631 -5.537274702675545 -1.704714316993995 16.000000000000000
-2.352381369841929 -5.531891113006704 -1.817383450089185 5.000000000000000
-2.386790791411668 -5.548795886709036 -1.939182798416218 14.000000000000000
-2.404000404540522 -5.525198877276031 -2.047792817039042 14.000000000000000
-2.437333150031928 -5.537487339423870 -2.171364796959686 4.000000000000000
-2.464073307403384 -5.533738002779971 -2.290122802893087 10.000000000000000
-2.476675490190487 -5.496971998674845 -2.396564491532491 13.000000000000000
-2.379706855288242 -5.220056760083405 -2.393043815813177 3.000000000000000
-2.387895986885580 -5.175131731197002 -2.490856142087226 12.000000000000000
-2.379294162474379 -5.095766459285926 -2.571765829314932 45.000000000000000
-2.403094204673293 -5.083745973741021 -2.686724607758972 38.000000000000000
-2.637300134498572 -5.512034150706505 -3.046918364843246 5.000000000000000
-2.583119487939268 -5.334359112931047 -3.081315719837530 1.000000000000000
-2.491715946084355 -5.085293095983273 -3.066715795761616 1.000000000000000
-2.443098186890551 -4.922806897537615 -3.096466938103518 3.000000000000000
-2.156911797120057 -4.129836761194798 -3.056037274859126 70.000000000000000
-2.168821848495443 -5.546101916148531 -0.934745593828827 31.000000000000000
-2.190665774325691 -5.536132090731932 -1.040269647334815 30.000000000000000
-2.219180130545829 -5.542700971762838 -1.148958435196804 3.000000000000000
-2.245433819310244 -5.543535774697616 -1.258484039527523 21.000000000000000
-2.265450493151651 -5.527913753337343 -1.364656586377241 22.000000000000000
-2.297641383448435 -5.543096022701577 -1.478962662197771 3.000000000000000
-2.323479115578868 -5.541661003442744 -1.590626958903568 16.000000000000000
-2.347498628677847 -5.534579285917932 -1.701524703389223 11.000000000000000
-2.379476369163755 -5.546720609052188 -1.819999641128261 8.000000000000000
-2.400498405337953 -5.531948993749181 -1.931158133485545 11.000000000000000
-2.428436331743557 -5.532681192514921 -2.048544801721349 5.000000000000000
-2.460474131218485 -5.541347772950631 -2.170974875216138 15.000000000000000
-2.479721290602507 -5.520390360555472 -2.282826447196296 10.000000000000000
-2.500055081667218 -5.500590143026718 -2.396504259764046 9.000000000000000
-2.366834423998688 -5.146689834376359 -2.358002238782196 2.000000000000000
-2.376499068893956 -5.105703691665398 -2.456171408607406 41.000000000000000
-2.397187768769836 -5.089532920898272 -2.567489327797293 46.000000000000000
-2.444427964308238 -5.126349854130313 -2.708241699030203 1.000000000000000
-2.669485664787567 -5.530958733847341 -3.056459024749310 5.000000000000000
-2.603963873470816 -5.330831400171393 -3.078549127203523 1.000000000000000
-2.514963330543960 -5.088292733942801 -3.067986391711040 1.000000000000000
-2.464378181610928 -4.922719618879134 -3.096050343890176 3.000000000000000
-2.179037852536879 -4.136153108393209 -3.061008902492878 74.000000000000000
-2.184189134866388 -5.536501911568553 -0.930075484210490 13.000000000000000
-2.207605952957605 -5.530165210000866 -1.036187582709920 5.000000000000000
-2.240707301955696 -5.547600394397870 -1.147094002703800 15.000000000000000
-2.261224865348884 -5.533828706432558 -1.253501478336137 24.000000000000000
-2.284320175729289 -5.525397040699777 -1.361356998506364 4.000000000000000
-2.319721867832563 -5.547655579454104 -1.477589938938120 17.000000000000000
-2.341219166575813 -5.535415962061763 -1.586353977209976 17.000000000000000
-2.372948600071436 -5.545982067428930 -1.702651417400441 5.000000000000000
-2.397557478076425 -5.540357826741850 -1.815645695332693 13.000000000000000
-2.420224627426610 -5.529036859622517 -1.927993816829634 7.000000000000000
-2.454474225239343 -5.543543841566047 -2.050531139551626 10.000000000000000
-2.474421163212706 -5.524504649679064 -2.162469024684395 10.000000000000000
-2.501478714450101 -5.520645579337502 -2.281151601383469 3.000000000000000
-2.528129386415587 -5.514273497197056 -2.400817694797359 10.000000000000000
-2.365911725305537 -5.100242643980116 -2.335322393287165 1.000000000000000
-2.392696797532976 -5.096138441053679 -2.450301006956170 50.000000000000000
-2.430679102171738 -5.116128693021997 -2.579767876903394 6.000000000000000
-2.481387909478415 -5.159016053600421 -2.724493971618855 1.000000000000000
-2.692421299757099 -5.530436510926842 -3.055251797024534 7.000000000000000
-2.631085327319048 -5.339985533303210 -3.083108902468228 1.000000000000000
-2.536684647593049 -5.088064972379561 -3.067315737825159 1.000000000000000
-2.484108012132510 -4.919451151953871 -3.093639886541223 3.000000000000000
-2.196520533536517 -4.133522230359844 -3.059371751989847 81.000000000000000
-2.202434657334854 -5.534206848251555 -0.926617580739702 17.000000000000000
-2.236301310174069 -5.553397983386214 -1.037546764360853 6.000000000000000
-2.256349169120805 -5.537873140786399 -1.142188033365978 23.000000000000000
-2.276970317682813 -5.524080726398704 -1.248500821233928 9.000000000000000
-2.312197919947375 -5.544424684351236 -1.363339905727010 12.000000000000000
-2.335807544035099 -5.537822204447120 -1.472369637408063 17.000000000000000
-2.366525470169579 -5.546910619924973 -1.587147054813199 4.000000000000000
-2.393911794524175 -5.546688055852034 -1.700474619365553 18.000000000000000
-2.414081760298898 -5.530432428350240 -1.810117788997238 13.000000000000000
-2.447646585200176 -5.543497390418090 -1.930871014953032 5.000000000000000
-2.471329393739222 -5.533549825651009 -2.044791763157858 11.000000000000000
-2.494479559589975 -5.521368198860276 -2.159326038235600 5.000000000000000
-2.532597045801973 -5.541266447526955 -2.287877260935800 8.000000000000000
-2.550070816131294 -5.514347230578348 -2.399195167827821 10.000000000000000
-2.389744694266204 -5.107394210970670 -2.337190764565401 2.000000000000000
-2.415129023704670 -5.099794522254002 -2.450785920811405 29.000000000000000
-2.580829591897917 -5.385600693326036 -2.714447234637311 1.000000000000000
-2.513869328807999 -5.181780031763714 -2.735505931284608 0.000000000000000
-2.705898945150341 -5.510540447728537 -3.043346656656460 6.000000000000000
-2.653552183284410 -5.339497998429368 -3.082104140900386 1.000000000000000
-2.555262859624283 -5.081475398180133 -3.062815615722696 1.000000000000000
-2.507004068484807 -4.922342094215269 -3.095109514721097 2.000000000000000
-2.210839692701891 -4.124932790605905 -3.053336097804824 74.000000000000000
-2.228042872087010 -5.550197934938813 -0.926192119996277 3.000000000000000
-2.251802217440064 -5.543651121905247 -1.032716327037920 22.000000000000000
-2.270451837667772 -5.524470901503694 -1.136516480861584 19.000000000000000
-2.310710733970023 -5.557683141173930 -1.253266933349312 6.000000000000000
-2.331134266343644 -5.541768981525455 -1.359965289145572 17.000000000000000
-2.351846870216746 -5.527947113733025 -1.467130875832967 7.000000000000000
-2.387333735425766 -5.547652514192987 -1.584842332052716 19.000000000000000
-2.410285068663557 -5.536733672897076 -1.695019210270247 17.000000000000000
-2.438279865913548 -5.538000484379433 -1.810303270309640 3.000000000000000
-2.467427376161531 -5.540445239982378 -1.927631885533450 14.000000000000000
-2.486579853696915 -5.520055385301009 -2.037756897767236 10.000000000000000
-2.523912878326550 -5.538748457388055 -2.164192530344479 5.000000000000000
-2.546625228926482 -5.524349797435346 -2.279095272025987 10.000000000000000
-2.572033074123873 -5.514351127052483 -2.397535716770020 6.000000000000000
-2.440464594902785 -5.171290320479537 -2.365001687597839 5.000000000000000
-2.625844913646282 -5.497471443926871 -2.640520064814228 7.000000000000000
-2.617172738540562 -5.414904510348328 -2.728008797722150 1.000000000000000
-2.535413363724237 -5.181691145059979 -2.734449113122341 0.000000000000000
-2.739942716596191 -5.532387288756873 -3.054496488289495 4.000000000000000
-2.676039138334941 -5.338939280194095 -3.081061812508821 1.000000000000000
-2.581784621760865 -5.090544738660143 -3.067758535240129 1.000000000000000
-2.525159072194244 -4.915840793232753 -3.090680338647768 2.000000000000000
-2.229896580152585 -4.125152351237754 -3.053832890140098 75.000000000000000
-2.244859434016762 -5.544107297751277 -0.922054441194751 31.000000000000000
-2.267257760695515 -5.533864216213225 -1.027868222624254 33.000000000000000
-2.299535793857045 -5.547341064068573 -1.138282149411475 4.000000000000000
-2.323470425615454 -5.540581178657095 -1.246571852722939 19.000000000000000
-2.345497464999615 -5.528279344824875 -1.353922127473743 16.000000000000000
-2.381632960196083 -5.550174332824339 -1.470389512396477 7.000000000000000
-2.405081959810173 -5.541228057708518 -1.580477263063137 15.000000000000000
-2.426611269557486 -5.526736785623694 -1.689544982795807 5.000000000000000
-2.462544967393873 -5.545484391955184 -1.810441698079382 16.000000000000000
-2.484081740727300 -5.530376694485270 -1.921944724095731 14.000000000000000
-2.515876074999010 -5.537596799475942 -2.042166805547816 4.000000000000000
-2.542461991305863 -5.532040271560978 -2.159633639438079 12.000000000000000
-2.566877527224234 -5.520995149745850 -2.275906921803697 6.000000000000000
-2.601938959742764 -5.531127711574847 -2.403157066864655 9.000000000000000
-2.504356659341037 -5.261670733648542 -2.404877296969765 13.000000000000000
-2.665671204331431 -5.533557416515377 -2.656464445183842 4.000000000000000
-2.655340274819293 -5.447338774533887 -2.743131841596798 0.000000000000000
-2.563378997438349 -5.194503606938271 -2.740197874788837 0.000000000000000
-2.761345642176626 -5.528434499997129 -3.051400698642126 8.000000000000000
-2.698545908761717 -5.338309251179510 -3.079981869601939 1.000000000000000
-2.601975338360352 -5.086967382968688 -3.065084531163411 1.000000000000000
-2.551322636588081 -4.924794322560045 -3.095974432147914 3.000000000000000
-2.248977383947414 -4.125310555688968 -3.054296898733687 73.000000000000000
-2.261652994632522 -5.537968998851185 -0.917893838977546 23.000000000000000
-2.288690688590742 -5.538612718508362 -1.025701753111232 4.000000000000000
-2.318162696582557 -5.544712867485820 -1.134784970516556 25.000000000000000
-2.340716668776482 -5.534278057254247 -1.242299425060674 25.000000000000000
-2.373609626792688 -5.547048861018578 -1.355758928817943 3.000000000000000
-2.399224992410647 -5.543746464566889 -1.466032254895593 16.000000000000000
-2.421253835499854 -5.531207653347525 -1.575078334441504 11.000000000000000
-2.453809955723096 -5.541357122469666 -1.691579718029546 9.000000000000000
-2.474340459277220 -5.524891973789268 -1.801406109000055 12.000000000000000
-2.503835846154881 -5.527212968325210 -1.918650269926101 4.000000000000000
-2.535827896631051 -5.534338650370592 -2.038890036682202 15.000000000000000
-2.559400018563113 -5.521858288716441 -2.153715065720783 10.000000000000000
-2.598264982009393 -5.541332615906709 -2.282471450676267 5.000000000000000
-2.622403384906430 -5.527606241614950 -2.399948692053800 11.000000000000000
-2.525676204755067 -5.261727781386214 -2.403440131004423 15.000000000000000
-2.688117029676304 -5.533143046814417 -2.654873793281614 10.000000000000000
-2.677675635942368 -5.446904335601135 -2.741694065261513 0.000000000000000
-2.588234231103588 -5.200737049628061 -2.742472188659282 0.000000000000000
-2.781130364697087 -5.521212792777259 -3.046504093454103 7.000000000000000
-2.727535564624988 -5.350286188124260 -3.086177481751920 1.000000000000000
-2.622163603551612 -5.083328997380348 -3.062379522626373 1.000000000000000
-2.572721634994061 -4.924363496531270 -3.095375186122647 3.000000000000000
-2.269698449174731 -4.128347686118065 -3.056905352204649 69.000000000000000
-2.279929285999727 -5.535439267425708 -0.914314260789097 10.000000000000000
-2.314717652327666 -5.554207779176427 -1.025511645832832 12.000000000000000
-2.335261046278873 -5.538405680060579 -1.130519512792771 20.000000000000000
-2.362550476862732 -5.538736858792647 -1.240424626217749 4.000000000000000
-2.394122628796350 -5.547791752095178 -1.353162042650462 19.000000000000000
-2.415237556403138 -5.533705496117633 -1.460710453299111 17.000000000000000
-2.449885991175385 -5.549477098334647 -1.577715616105094 4.000000000000000
-2.476406496291735 -5.545320791949350 -1.690338480748259 13.000000000000000
-2.495490443074122 -5.525250643602324 -1.799196702391883 7.000000000000000
-2.529928407092386 -5.537868666661959 -1.920137725734971 10.000000000000000
-2.554185888022294 -5.527576027629386 -2.034315046447994 15.000000000000000
-2.590664452501767 -5.542385301470260 -2.159760835044042 3.000000000000000
-2.616989672515939 -5.534436651036564 -2.277805963994319 11.000000000000000
-2.641257187525388 -5.520662727088847 -2.395251035502838 6.000000000000000
-2.547016715818736 -5.261716561955089 -2.401966833865000 15.000000000000000
-2.705733297744956 -5.522759817107628 -2.648499070042413 9.000000000000000
-2.703269972904605 -5.452933164170811 -2.743506398876893 0.000000000000000
-2.606663590418760 -5.193948136736965 -2.737879412843414 0.000000000000000
-2.807390179993713 -5.526735784562120 -3.048641655707572 3.000000000000000
-2.748499639795981 -5.346330902730820 -3.083185302336988 1.000000000000000
-2.647233381271646 -5.089018885009740 -3.065299041381656 1.000000000000000
-2.595770799044865 -4.926957251530188 -3.096683742396062 3.000000000000000
-2.290465557474305 -4.131314866935739 -3.059475281851392 72.000000000000000
-2.308823148469136 -5.558418096868198 -0.914914165100306 6.000000000000000
-2.330158695986712 -5.544256146956099 -1.020580339050783 18.000000000000000
-2.352335605994450 -5.532050022853808 -1.126230767389126 13.000000000000000
-2.387524254102936 -5.550320662477360 -1.240117929774062 13.000000000000000
-2.409982876420945 -5.537729540076741 -1.347916197810260 17.000000000000000
-2.435902598731531 -5.534300234907061 -1.458183609632415 4.000000000000000
-2.469203586371059 -5.546413909074398 -1.574265034318667 15.000000000000000
-2.491132904020627 -5.531636523073637 -1.683707287833478 16.000000000000000
-2.523020151069713 -5.539503582587309 -1.801491986048936 5.000000000000000
-2.549723461580458 -5.534568060309791 -1.916770892742498 16.000000000000000
-2.575723999647124 -5.527640818493074 -2.032244291262996 5.000000000000000
-2.610825717861630 -5.538902599716199 -2.156434803514690 12.000000000000000
-2.635688349457383 -5.527487607009935 -2.273114972650128 9.000000000000000
-2.673037127322472 -5.540512587945418 -2.402167516801023 6.000000000000000
-2.571624919424235 -5.268288825682505 -2.403492068425682 14.000000000000000
-2.731438882107898 -5.528804981198321 -2.650000210035043 3.000000000000000
-2.727298312935182 -5.455610794690883 -2.743628759346501 0.000000000000000
-2.626701878000333 -5.190336811729158 -2.734963441239887 0.000000000000000
-2.836988227048062 -5.538560594225173 -3.054254138687024 8.000000000000000
-2.769459732629563 -5.342312301381818 -3.080161045115643 1.000000000000000
-2.667450327716566 -5.085245620034935 -3.062523425719433 1.000000000000000
-2.615581397315606 -4.923296820294438 -3.094068256082146 3.000000000000000
-2.308000002054375 -4.128347736748319 -3.057663316161875 68.000000000000000
-2.324118170974311 -5.548451919111030 -0.910061552127190 29.000000000000000
-2.344014644450821 -5.530633340584929 -1.014965121868960 25.000000000000000
-2.383332888613082 -5.558171016557528 -1.128522615083583 5.000000000000000
-2.404788186134679 -5.543837441644060 -1.235752483490338 17.000000000000000
-2.424227135474127 -5.524050948847664 -1.341783853743264 11.000000000000000
-2.462899223747139 -5.549047552129719 -1.459361051237465 14.000000000000000
-2.482174696721863 -5.529159891895115 -1.566780030767603 16.000000000000000
-2.513758941371854 -5.535469183115558 -1.682397369069219 4.000000000000000
-2.542655157816749 -5.536222917002637 -1.798066895775212 16.000000000000000
-2.564691909227547 -5.520823323852721 -1.909781463295354 9.000000000000000
-2.605353151019680 -5.544813765845366 -2.036445742111376 10.000000000000000
-2.627743703608162 -5.528541789871549 -2.150426168412102 12.000000000000000
-2.662488081280688 -5.537388447550127 -2.275344017500798 3.000000000000000
-2.693560388604709 -5.536779484518085 -2.398847509275920 10.000000000000000
-2.597934283176840 -5.278097039279187 -2.406483971325537 14.000000000000000
-2.758848415484996 -5.538051957793096 -2.653028445599480 8.000000000000000
-2.751368536547859 -5.458208418709614 -2.743707716580248 0.000000000000000
-2.653321184798327 -5.199566878716568 -2.738812692400494 0.000000000000000
-2.851859517273081 -5.521553030693946 -3.043969353159367 7.000000000000000
-2.795366075674879 -5.347700902294818 -3.082563796997752 1.000000000000000
-2.687664082688237 -5.081411138185145 -3.059716755413077 1.000000000000000
-2.640346175650571 -4.928829461949315 -3.097236866587350 3.000000000000000
-2.327185253391587 -4.128254935194945 -3.057992803529027 56.000000000000000
-2.337828257144790 -5.534802693272009 -0.904596145605467 34.000000000000000
-2.371753770390305 -5.549624176681779 -1.015310568362433 3.000000000000000
-2.397338050362899 -5.544461277661354 -1.122700054687820 22.000000000000000
-2.418886282174490 -5.530123293878164 -1.229766444661012 20.000000000000000
-2.454204914056315 -5.546051939391300 -1.344295401091531 5.000000000000000
-2.478882948563396 -5.538840222952202 -1.453956090096415 13.000000000000000
-2.503039713630048 -5.529524930836114 -1.564279460727102 6.000000000000000
-2.539638336621388 -5.546237203830108 -1.683173787228681 14.000000000000000
-2.560674848235954 -5.529400537627991 -1.793482092492443 16.000000000000000
-2.597401777133988 -5.545071544602543 -1.915917945367281 4.000000000000000
-2.622110968022108 -5.534425292598526 -2.030510958360946 13.000000000000000
-2.652770031969798 -5.535157832226606 -2.151012535952174 4.000000000000000
-2.687738744870625 -5.543816885194447 -2.276132417666909 11.000000000000000
-2.710795987230489 -5.526289692159819 -2.392597616387514 9.000000000000000
-2.619393205188400 -5.277858617683169 -2.404887450248004 14.000000000000000
-2.773139710781899 -5.520911138122124 -2.643413768111903 8.000000000000000
-2.778788390987262 -5.467234427216136 -2.747013432070740 0.000000000000000
-2.676713958449929 -5.202259133722718 -2.739215634125552 0.000000000000000
-2.878253537909169 -5.526826504132358 -3.045971333537705 4.000000000000000
-2.814690145324553 -5.340390110697766 -3.077649890967839 1.000000000000000
-2.712861292139928 -5.086866268135029 -3.062508641574563 1.000000000000000
-2.663512649415158 -4.931196144528661 -3.098422332509097 3.000000000000000
-2.346393152129641 -4.128100071087472 -3.058289224178566 43.000000000000000
-2.356120540058972 -5.532041221104945 -0.900897290876114 6.000000000000000
-2.391817626108013 -5.550392997953614 -1.012289490070168 26.000000000000000
-2.412846181831035 -5.534325404507931 -1.117593673855360 28.000000000000000
-2.443988212523272 -5.541484382410104 -1.229338218942288 3.000000000000000
-2.474788207330296 -5.546533824882756 -1.341560978222892 17.000000000000000
-2.494819125740706 -5.528591657525877 -1.448532986912505 14.000000000000000
-2.530359110000555 -5.543920330429125 -1.565724798389494 6.000000000000000
-2.557522126295482 -5.539403809796512 -1.678591673254974 19.000000000000000
-2.588411930532693 -5.543393033527098 -1.795631742234266 4.000000000000000
-2.618875397195667 -5.545021450218852 -1.913636530424749 14.000000000000000
-2.642093809291363 -5.530846967808567 -2.027068849740195 8.000000000000000
-2.679503976121445 -5.545086436542505 -2.152870375387634 8.000000000000000
-2.703164351323296 -5.529926031265408 -2.268572365711111 11.000000000000000
-2.739555124555364 -5.539155256829622 -2.396451702050182 4.000000000000000
-2.644187506024857 -5.284177181386063 -2.406271794436549 14.000000000000000
-2.793983463203617 -5.516869498059823 -2.640072602926269 4.000000000000000
-2.802964210833949 -5.469662658800920 -2.746999459720165 0.000000000000000
-2.696811308312481 -5.198439301799021 -2.736189612009599 0.000000000000000
-2.909724512484730 -5.541558056004110 -3.053184169581234 7.000000000000000
-2.845697373917792 -5.355061816327551 -3.085406845034877 1.000000000000000
-2.733102100477997 -5.082896248372149 -3.059631127545785 1.000000000000000
-2.685046372166446 -4.930409549450473 -3.097633234261828 3.000000000000000
-2.367296446556276 -4.130802306835363 -3.060715575803422 55.000000000000000
-2.385338344634231 -5.554670569081688 -0.901298979581882 8.000000000000000
-2.408756744209678 -5.543859302179215 -1.007918143931026 15.000000000000000
-2.433056502768713 -5.534953082627574 -1.114645426782163 6.000000000000000
-2.467583871904948 -5.549171298015824 -1.228065039153856 22.000000000000000
-2.488980453957109 -5.532698754344910 -1.335351936191261 23.000000000000000
-2.521988088498227 -5.543095415704230 -1.449575556454993 3.000000000000000
-2.548068932614398 -5.537093036011174 -1.561156438414125 19.000000000000000
-2.572124346681180 -5.525525364079131 -1.671868953036721 9.000000000000000
-2.611353439684465 -5.546862270969080 -1.794351180774781 14.000000000000000
-2.633800113060699 -5.531108945592154 -1.906564133836548 14.000000000000000
-2.671963056772380 -5.547742385339628 -2.031113942926337 5.000000000000000
-2.698053879874967 -5.537941580332776 -2.148088525669494 10.000000000000000
-2.723496487326423 -5.526102187974096 -2.265139618564062 4.000000000000000
-2.763429778555957 -5.541899256185148 -2.395914959526877 12.000000000000000
-2.669046911662277 -5.290409116209426 -2.407607934542966 12.000000000000000
-2.826536937607229 -5.535707219161579 -2.647672661804011 4.000000000000000
-2.827180875681532 -5.472010158007427 -2.746941777112167 0.000000000000000
-2.725306031874515 -5.210620763616062 -2.741583901762183 0.000000000000000
-2.927865033012656 -5.530743428600301 -3.046322943395262 8.000000000000000
-2.866730146949704 -5.350754650744867 -3.082230836926704 1.000000000000000
-2.758394063419371 -5.088189552940293 -3.062334610104199 1.000000000000000
-2.706599348515927 -4.929553925736592 -3.096807720842242 3.000000000000000
-2.391612817719266 -4.139263523213121 -3.067423286003776 24.000000000000000
-2.400559043282656 -5.544505235423316 -0.896349247825485 24.000000000000000
-2.424087952888364 -5.533663153589093 -1.002868734816232 18.000000000000000
-2.459662760696875 -5.549902465803768 -1.114551803958108 9.000000000000000
-2.483222856441162 -5.538884262786955 -1.222795718302615 13.000000000000000
-2.506330504471870 -5.525948210604189 -1.330844760321110 5.000000000000000
-2.542775367642848 -5.543347004836799 -1.446866066253428 16.000000000000000
-2.567384197897723 -5.533731226531687 -1.557553560200472 17.000000000000000
-2.606325972133586 -5.553527217641934 -1.677796283787806 6.000000000000000
-2.626104295487278 -5.532909456647764 -1.787425291798513 15.000000000000000
-2.658573203811462 -5.537825931170836 -1.906592897298087 4.000000000000000
-2.692006416983758 -5.544016037157132 -2.027592570183370 14.000000000000000
-2.716576909572106 -5.530744114656166 -2.143281463685028 8.000000000000000
-2.758863544422074 -5.552484487920219 -2.274072108501445 7.000000000000000
-2.780640970884301 -5.531226893091283 -2.389573361121891 12.000000000000000
-2.690609883310814 -5.289945801057611 -2.405890246395941 11.000000000000000
-2.840711098203055 -5.518415901773846 -2.637988322869442 6.000000000000000
-2.848061567067347 -5.467794437016548 -2.743587670318699 1.000000000000000
-2.748835836927164 -5.213072807392480 -2.741855839837319 0.000000000000000
-2.947648143618602 -5.523055586939453 -3.041188485608661 5.000000000000000
-2.889453299282148 -5.349523177398166 -3.080830635680472 1.000000000000000
-2.787142671820054 -5.099602680548945 -3.068724853657914 1.000000000000000
-2.731566660153509 -4.934763099784495 -3.099798820914534 2.000000000000000
-2.410932008008764 -4.138904269682474 -3.067608563549628 13.000000000000000
-2.417316281405750 -5.537927557026682 -0.891966573799247 36.000000000000000
-2.450532899394291 -5.548698267235975 -1.002367222208861 4.000000000000000
-2.476746050649524 -5.543196478902508 -1.110083689131054 18.000000000000000
-2.502044920918221 -5.535704499897634 -1.219082812412844 14.000000000000000
-2.536655335764324 -5.547579354683125 -1.333146282683168 8.000000000000000
-2.560313976645992 -5.536464946280688 -1.442280222285658 23.000000000000000
-2.591623102334130 -5.540844373951448 -1.556880637396011 4.000000000000000
-2.622571675643238 -5.543018187614102 -1.672065542343686 17.000000000000000
-2.647414622743602 -5.532781097933823 -1.784957461014002 7.000000000000000
-2.686739492810943 -5.551334923805686 -1.908938831263411 14.000000000000000
-2.707032545732337 -5.529987948201979 -2.020299009821757 14.000000000000000
-2.745134462590792 -5.543813524811966 -2.146316002924147 4.000000000000000
-2.772559484651140 -5.535062373157377 -2.265052412048874 10.000000000000000
-2.801176766016812 -5.527169104193982 -2.386086842336438 4.000000000000000
-2.717267579720395 -5.299312128071922 -2.408635271158817 9.000000000000000
-2.859877711495849 -5.510902658208250 -2.632980700089254 4.000000000000000
-2.872336174305071 -5.469988728166949 -2.743448234522576 0.000000000000000
-2.774109801310149 -5.218649372117975 -2.743769221557752 0.000000000000000
-2.979340179661099 -5.537499668016526 -3.048241053554301 6.000000000000000
-2.919021706223492 -5.360758879388507 -3.086612466062651 2.000000000000000
-2.805753896056454 -5.092313500437819 -3.063865579300559 1.000000000000000
-2.425152808658802 -4.129763588300117 -3.061297528729422 15.000000000000000
-2.438830829546659 -5.542169341912414 -0.889304880465001 4.000000000000000
-2.470663578694036 -5.549210296753734 -0.999210970374681 27.000000000000000
-2.492187942537121 -5.532853929214347 -1.104875855944892 26.000000000000000
-2.527369266753649 -5.546744472404672 -1.218477060644694 4.000000000000000
-2.554043579265742 -5.540695172892271 -1.328568551599702 23.000000000000000
-2.577826730381203 -5.529533135966321 -1.437670562536012 7.000000000000000
-2.614272081794487 -5.544365038400182 -1.555176454077053 17.000000000000000
-2.638768525056634 -5.532467286586419 -1.666316414736872 17.000000000000000
-2.677088536097490 -5.549884004103924 -1.788026988299340 6.000000000000000
-2.701606982672835 -5.537258580313750 -1.901786298697919 14.000000000000000
-2.732080281502458 -5.536380248397970 -2.020457146433522 4.000000000000000
-2.767047644576545 -5.543248373542183 -2.144057089227181 12.000000000000000
-2.794628379850997 -5.534384844113273 -2.262882368966779 8.000000000000000
-2.833599097306935 -5.546324822118300 -2.392609688874417 6.000000000000000
-2.738902086125044 -5.298696335615286 -2.406835371511109 8.000000000000000
-2.877308494941925 -5.500070908316725 -2.626388362071204 2.000000000000000
-2.896650643857737 -5.472101700057634 -2.743264848982854 0.000000000000000
-2.801161626310223 -5.227336780265591 -2.747315003593440 0.000000000000000
-2.997427909036634 -5.526503061805545 -3.041290160110048 12.000000000000000
-2.934950714204216 -5.346842277788280 -3.077915847070546 1.000000000000000
-2.827775757509677 -5.091161388885651 -3.062704683373913 1.000000000000000
-2.774811578522176 -4.932687812916511 -3.097953460593653 2.000000000000000
-2.447916997365874 -4.135095666495586 -3.065727679187546 6.000000000000000
-2.465200995944500 -5.557191327273041 -0.888338112249802 14.000000000000000
-2.485963986717444 -5.538852760479604 -0.994081060312176 18.000000000000000
-2.512464126282438 -5.533222884236103 -1.101791508185520 4.000000000000000
-2.547866541698334 -5.546996688820447 -1.215475141625353 23.000000000000000
-2.571405973880032 -5.533761660854299 -1.323967219516086 19.000000000000000
-2.610219532012343 -5.554270190349210 -1.441267722284596 7.000000000000000
-2.631967686875931 -5.537301501495011 -1.550488367186952 19.000000000000000
-2.663280970016632 -5.539271890716049 -1.665780716502119 4.000000000000000
-2.695131410037494 -5.542684258491368 -1.783248130042847 14.000000000000000
-2.719776739136306 -5.530009590928324 -1.896974542131189 8.000000000000000
-2.758884748612815 -5.546089147381521 -2.021807635055451 13.000000000000000
-2.782180289601695 -5.529102267734086 -2.136540415973828 14.000000000000000
-2.820124882408583 -5.540335578802219 -2.263411876322613 3.000000000000000
-2.852493688359945 -5.538789897925768 -2.387607636212898 11.000000000000000
-2.767413385592923 -5.311173514260410 -2.410973880957619 8.000000000000000
-2.911877551943789 -5.521790068567485 -2.635332912775028 5.000000000000000
-2.921004635091125 -5.474133137607643 -2.743037424739602 0.000000000000000
-2.821396786331696 -5.223148231878634 -2.744092331154380 0.000000000000000
-2.996454938913798 -5.480691362856906 -3.015190870270875 27.000000000000000
-2.964643048297491 -5.357896458053871 -3.083597434970258 2.000000000000000
-2.849815224070032 -5.089938553576230 -3.061506607779409 2.000000000000000
-2.465559948777319 -4.131654954814719 -3.063667324195003 4.000000000000000
-2.481981931024980 -5.550431631636052 -0.883861073132800 18.000000000000000
-2.501217088901417 -5.528456069059245 -0.988934055773956 11.000000000000000
-2.542588480249957 -5.555001303877193 -1.102936232981267 11.000000000000000
-2.563436733140741 -5.536500859796059 -1.210103443785785 29.000000000000000
-2.595375896865551 -5.540941036614527 -1.322723093746559 3.000000000000000
-2.629447714055988 -5.550718495500295 -1.437495357473090 18.000000000000000
-2.649636783048482 -5.530187757615504 -1.545776272115759 8.000000000000000
-2.691224603562394 -5.552939705390608 -1.667283647576770 18.000000000000000
-2.713147263331315 -5.535433320811935 -1.778444792036786 15.000000000000000
-2.749808517506706 -5.546691036781318 -1.900354614154254 5.000000000000000
-2.775545223209174 -5.535300294151378 -2.015674420011423 14.000000000000000
-2.804083436917177 -5.528413912377278 -2.134219223097783 4.000000000000000
-2.847400183743962 -5.549542069233687 -2.265257383923589 10.000000000000000
-2.871359999759002 -5.531201365521330 -2.382579947418127 7.000000000000000
-2.790855364625833 -5.313685956303093 -2.410579161016390 8.000000000000000
-2.918937679420684 -5.491292074544743 -2.619354534174457 3.000000000000000
-2.948865019736415 -5.482529069099123 -2.745994556050335 0.000000000000000
-2.841626858369461 -5.218898066461823 -2.740838515796642 0.000000000000000
-3.017792827259724 -5.475962988530821 -3.011703139418020 38.000000000000000
-2.985737198850320 -5.353234247784507 -3.080236430494985 2.000000000000000
-2.873613595236065 -5.091730772667733 -3.062127143660579 3.000000000000000
-2.821614543979286 -4.936432317729994 -3.099790853860215 3.000000000000000
-2.484941567683639 -4.131053027703596 -3.063724904017807 8.000000000000000
-2.493857164933443 -5.532796927887865 -0.877643774925075 30.000000000000000
-2.532805729014832 -5.553944994947849 -0.990174798792307 4.000000000000000
-2.554721224135716 -5.537337288522680 -1.096225898292319 22.000000000000000
-2.580618374088636 -5.529521111067326 -1.205489564275393 6.000000000000000
-2.621077818120195 -5.551571213829524 -1.322273848012462 19.000000000000000
-2.643636125847395 -5.536562101263397 -1.430967551333158 17.000000000000000
-2.680775864848386 -5.550970866861238 -1.548838015321222 7.000000000000000
-2.704017779089763 -5.535268893782553 -1.659363168173180 18.000000000000000
-2.737946730933266 -5.541917126127280 -1.778040006779657 4.000000000000000
-2.773131443606785 -5.549571401987023 -1.898984794759331 14.000000000000000
-2.795587742328964 -5.531259452140053 -2.011992556659034 7.000000000000000
-2.838058648504925 -5.551234092582730 -2.140954730253207 6.000000000000000
-2.862666788062127 -5.535265992836353 -2.257510409516520 11.000000000000000
-2.904059705470533 -5.550051190926881 -2.388929677733002 7.000000000000000
-2.816074827013292 -5.319400627600412 -2.411629227668795 7.000000000000000
-2.880530266487380 -5.376291428830529 -2.563101998776781 1.000000000000000
-2.971574720643229 -5.481169092063991 -2.744061417650218 0.000000000000000
-2.870592756053535 -5.230513525202462 -2.745915055417241 0.000000000000000
-3.086391187627289 -5.556262924282867 -3.054969026549404 41.000000000000000
-3.013833615341089 -5.360975360788088 -3.084015259375850 2.000000000000000
-2.895698678137529 -5.090361568112275 -3.060851559830710 3.000000000000000
-2.509597628076900 -4.139053086272015 -3.070176427206246 44.000000000000000
-2.520380595008674 -5.547583459804466 -0.876547438994397 3.000000000000000
-2.548073292356337 -5.543425641033748 -0.984964293317232 27.000000000000000
-2.571742799673109 -5.530362655178292 -1.091624420090918 18.000000000000000
-2.612809195636308 -5.554455583323283 -1.207802666037441 9.000000000000000
-2.633419643639507 -5.533854808203894 -1.315057391223750 25.000000000000000
-2.667891035657753 -5.543438480925055 -1.429861262520362 3.000000000000000
-2.701877007874875 -5.550698038618264 -1.545997386283844 17.000000000000000
-2.723542631113301 -5.531438045962737 -1.655585902387542 8.000000000000000
-2.764522305972838 -5.551755090802872 -1.778689357792138 16.000000000000000
-2.784447574232490 -5.528454667785191 -1.889397970940729 15.000000000000000
-2.827716501635726 -5.550893662872491 -2.016904293678567 4.000000000000000
-2.854874571502394 -5.540280324284214 -2.134649645571429 13.000000000000000
-2.884815398116595 -5.534298926520584 -2.255187688575499 4.000000000000000
-2.924703120210715 -5.545625631095587 -2.385248837829165 11.000000000000000
-2.839608229078070 -5.321749587039506 -2.411145461849400 8.000000000000000
-2.964047765101795 -5.488751710118793 -2.615286124091029 2.000000000000000
-2.997812692372337 -5.486163952442733 -2.745306567283381 1.000000000000000
-2.896146851735760 -5.235659498381030 -2.747591496236939 0.000000000000000
-3.038486224924533 -5.362391070164603 -3.084157497852988 1.000000000000000
-2.919564581049526 -5.091997988585922 -3.061388433589901 2.000000000000000
-2.866812266580601 -4.936821021632510 -3.099548616903813 2.000000000000000
-2.536103113963891 -4.149846439184194 -3.078715889219548 18.000000000000000
-2.543711794335590 -5.555068330069522 -0.874259775819879 16.000000000000000
-2.563293033033807 -5.532867304065250 -0.979736812825811 36.000000000000000
-2.602108096892894 -5.551865676082105 -1.092613823281500 4.000000000000000
-2.630037474108606 -5.547337425266004 -1.203115279192961 22.000000000000000
-2.652434867217444 -5.530224186974077 -1.311180276306843 9.000000000000000
-2.692207826769947 -5.550228549922963 -1.428707129225117 18.000000000000000
-2.714448729660841 -5.532935502883681 -1.538277223055704 18.000000000000000
-2.756803527116626 -5.555237070043694 -1.660052833041668 6.000000000000000
-2.779106493945560 -5.537434932955765 -1.771586142018163 17.000000000000000
-2.809503145741767 -5.534621038185750 -1.889128380428079 4.000000000000000
-2.847826546213521 -5.546697965644938 -2.013139250174180 16.000000000000000
-2.873384193245989 -5.532642410814137 -2.129618564923034 7.000000000000000
-2.915731078707857 -5.549916715384461 -2.259608977003158 9.000000000000000
-2.941829541191571 -5.534532687760467 -2.378697727472640 9.000000000000000
-2.863181181418864 -5.324018758660006 -2.410618547137902 7.000000000000000
-2.960165168740549 -5.438754375574687 -2.590041894630747 2.000000000000000
-3.017041514523520 -5.478230006781478 -2.740080380653210 1.000000000000000
-2.914679566155985 -5.228010982093133 -2.742553590679014 0.000000000000000
-2.941694068701164 -5.090481816972351 -3.060035110459072 2.000000000000000
-2.557396886607231 -4.151901889559959 -3.080788188733540 11.000000000000000
-2.557147513507747 -5.540895601256513 -0.868543913764511 26.000000000000000
-2.585149124978753 -5.536585817108945 -0.977018675056752 5.000000000000000
-2.620847063383617 -5.548319153709770 -1.088641005534323 22.000000000000000
-2.645546486251032 -5.536628057894213 -1.197638316698060 19.000000000000000
-2.686769139761322 -5.558236162825970 -1.314772355915594 7.000000000000000
-2.709739022882448 -5.542925871872527 -1.423907021822085 19.000000000000000
-2.740690094644844 -5.542987206502805 -1.538276514044813 3.000000000000000
-2.771220867418503 -5.540879822137307 -1.653097002784736 19.000000000000000
-2.797090632626860 -5.529947413463935 -1.766663974046736 8.000000000000000
-2.839850108009234 -5.550921397702349 -1.892294638942400 8.000000000000000
-2.866180799132061 -5.539059197482152 -2.008117235988739 16.000000000000000
-2.907667750207576 -5.555142954584829 -2.136172045629597 4.000000000000000
-2.932684204775319 -5.538803222695257 -2.253136084510211 10.000000000000000
-2.965970339306358 -5.536585704737769 -2.377791975856659 3.000000000000000
-2.888564386017604 -5.329475541288588 -2.411526952500729 8.000000000000000
-2.973714183035853 -5.421189988543142 -2.580256395347372 8.000000000000000
-3.039798020525457 -5.476650670193042 -2.738032401394043 2.000000000000000
-2.936747648338067 -5.226652888443834 -2.740816818706160 0.000000000000000
-2.970985785440499 -5.101164057546157 -3.066019034629389 1.000000000000000
-2.575163322576468 -4.148135047267431 -3.078553798732216 69.000000000000000
-2.573854232453275 -5.533875720819656 -0.863938595390381 20.000000000000000
-2.615454115949812 -5.558100766200452 -0.977402496478872 11.000000000000000
-2.637888175285243 -5.541158435699567 -1.083943340385378 28.000000000000000
-2.672931833848283 -5.550642950591541 -1.197486637357124 3.000000000000000
-2.700732881797939 -5.543894008223369 -1.308318434770537 20.000000000000000
-2.723797219197286 -5.528579652584675 -1.417290278566762 9.000000000000000
-2.763551766883523 -5.545992396942614 -1.536296183946861 17.000000000000000
-2.787305754583481 -5.529942411056778 -1.647157418360904 20.000000000000000
-2.827278478840678 -5.546404412089337 -1.769372346522993 4.000000000000000
-2.858043816152585 -5.543284489945504 -1.887283393791608 16.000000000000000
-2.888028442363018 -5.538122135370785 -2.005516125544337 4.000000000000000
-2.924453766028690 -5.544007878165299 -2.129776236415861 13.000000000000000
-2.953130924168403 -5.534289823196648 -2.249344326149795 5.000000000000000
-2.997260072572529 -5.551728341229262 -2.382494592345237 9.000000000000000
-2.912226656805321 -5.331579786638221 -2.410910383673196 10.000000000000000
-2.996099320618323 -5.419759391378881 -2.578150693918188 5.000000000000000
-3.042880314693752 -5.439799285662208 -2.718356695166801 0.000000000000000
-2.964211492997894 -5.234723831923158 -2.744022709139799 0.000000000000000
-2.991394320467918 -5.096423497237628 -3.062737918313687 1.000000000000000
-2.592927025740351 -4.144313564372316 -3.076291683073133 80.000000000000000
-2.605664351368389 -5.559086979799387 -0.864329357960778 4.000000000000000
-2.630671063470283 -5.547366556807224 -0.972085407892181 26.000000000000000
-2.654902496327243 -5.533949338181596 -1.079222617180922 7.000000000000000
-2.693563555951692 -5.550421177483244 -1.194234534165877 23.000000000000000
-2.718074605099647 -5.536547202520406 -1.303507389843209 22.000000000000000
-2.758590209586546 -5.556108986041381 -1.421382774203865 5.000000000000000
-2.782966873248512 -5.541978809624015 -1.532354481208504 20.000000000000000
-2.808593410591377 -5.529305392161034 -1.644275200263515 4.000000000000000
-2.850559839769217 -5.549051569501603 -1.767651345403469 17.000000000000000
-2.876208950052527 -5.535595931143712 -1.882247529615305 9.000000000000000
-2.916980643000381 -5.550602846361198 -2.007756950013636 12.000000000000000
-2.942966507720995 -5.536174717464132 -2.124645295606641 11.000000000000000
-2.984273436520397 -5.549616923129958 -2.253603350767015 4.000000000000000
-3.012576643826431 -5.537158208931847 -2.374438235526487 6.000000000000000
-2.937720926858959 -5.336861732637113 -2.411722745799882 11.000000000000000
-2.854900322508879 -5.124592720071898 -2.436390281117705 1.000000000000000
-2.989953919965723 -5.239532777239905 -2.745515585952900 0.000000000000000
-3.106728961421542 -5.314634570083916 -3.054059355469958 23.000000000000000
-3.020840436273425 -5.106910806382135 -3.068612890905718 2.000000000000000
-2.616107899604663 -4.149033476459293 -3.080383850893617 70.000000000000000
-2.620723762177891 -5.548348865752322 -0.859097099437008 34.000000000000000
-2.644135808786515 -5.533028516704805 -0.966129006926256 26.000000000000000
-2.687324395637301 -5.558617623828406 -1.080685756673443 9.000000000000000
-2.710760810845286 -5.543075109865138 -1.189432702080700 23.000000000000000
-2.737124507256241 -5.532659503602624 -1.299496921494175 3.000000000000000
-2.776127059919336 -5.548619570511852 -1.416486995675035 20.000000000000000
-2.798868749127894 -5.530974558655591 -1.526469834834562 11.000000000000000
-2.843993863710344 -5.556138664858692 -1.649532673226017 8.000000000000000
-2.868570468871113 -5.541363693876049 -1.762625279891602 17.000000000000000
-2.910336188605663 -5.558396436943370 -1.887558295541492 4.000000000000000
-2.935337787452873 -5.542769932079729 -2.002635651731025 16.000000000000000
-2.963239350300735 -5.531629350755329 -2.120769973073797 3.000000000000000
-3.004773158752798 -5.544949908711901 -2.249729933639725 11.000000000000000
-3.013417523484248 -5.496286919595014 -2.355113782102008 2.000000000000000
-2.959666414780946 -5.335546697103731 -2.409546877784941 11.000000000000000
-2.863634053540785 -5.100895841080405 -2.423775077405118 1.000000000000000
-3.008494032862897 -5.231621791113051 -2.740343242913087 0.000000000000000
-3.007650295592434 -5.105681256815343 -2.933360292092885 22.000000000000000
-2.981204230525944 -4.937989829598725 -3.099190503772521 2.000000000000000
-2.633898601493562 -4.145088528241263 -3.078057057640897 67.000000000000000
-2.635734844614416 -5.537572480552746 -0.853848260237339 35.000000000000000
-2.678104681012173 -5.561386362734845 -0.967595494991360 3.000000000000000
-2.700930935646225 -5.544184559296957 -1.074518335498474 23.000000000000000
-2.726194178269365 -5.532156543009073 -1.183853574565762 12.000000000000000
-2.768395052260512 -5.553238535276855 -1.301203521719674 20.000000000000000
-2.793635916021026 -5.541080358171565 -1.411567509190628 24.000000000000000
-2.830602805238938 -5.551076616445548 -1.529147526344306 3.000000000000000
-2.860082685339115 -5.545011457032963 -1.643495961174401 20.000000000000000
-2.888333084326868 -5.537038386911704 -1.758659118717743 4.000000000000000
-2.930331555306340 -5.553950377855937 -1.883594482973931 17.000000000000000
-2.953665652258849 -5.534884892280561 -1.997489535359499 7.000000000000000
-2.994308293536645 -5.547035263312524 -2.124528566723691 9.000000000000000
-3.021653121250009 -5.533604991064562 -2.243143378766822 5.000000000000000
-3.032117944778063 -5.488243432326045 -2.349863995316513 2.000000000000000
-2.983443220649460 -5.337408943010116 -2.408799768398446 14.000000000000000
-2.883148669766554 -5.096501493936942 -2.420335156609903 1.000000000000000
-3.027004574278874 -5.223658159925553 -2.735145834418698 0.000000000000000
-3.010794813954596 -5.133294078437184 -2.816640284549281 11.000000000000000
-3.033406969355638 -5.110088836357151 -2.935271408712090 10.000000000000000
-2.655343386440978 -4.146800609174512 -3.079944838440136 58.000000000000000
-2.659264704468273 -5.544620812006427 -0.851325603182743 7.000000000000000
-2.693283990523313 -5.550489440917271 -0.962197647397188 30.000000000000000
-2.717939956315116 -5.536797711855198 -1.069707199125456 27.000000000000000
