# This PCD file was generated using the MATLAB® pcwrite function
# from Computer Vision Toolbox®.
# .PCD v.7 - Point Cloud Data file format
VERSION .7
FIELDS x y z intensity
SIZE 8 8 8 8
TYPE F F F F
COUNT 1 1 1 1
WIDTH 639
HEIGHT 1
VIEWPOINT 0 0 0 1 0 0 0
POINTS 639
DATA ascii
8.892726669020734 -3.941380993876980 -1.967410544648132 47.000000000000000
9.352394808129603 -4.066991063516626 -2.232911785572000 42.000000000000000
9.565413713367956 -4.079708447109064 -2.450856070580064 52.000000000000000
9.567288566614460 -4.001306708439059 -2.619341540946660 51.000000000000000
9.260701706490051 -3.639714354577913 -3.025207979708460 12.000000000000000
8.123531100684353 -4.253309950554645 -0.513276651258236 23.000000000000000
8.246697452937113 -4.246402563759500 -0.670854966603991 29.000000000000000
8.236493692877229 -4.169841689026799 -0.817567083270705 21.000000000000000
8.366064689931726 -4.163327031144781 -0.980043690667314 21.000000000000000
8.643015120392457 -4.227640076978635 -1.166281701901995 1.000000000000000
8.757716510007882 -4.208598136986724 -1.336774944292129 32.000000000000000
8.894842361820666 -4.198691595156018 -1.514949585671656 42.000000000000000
9.029430443910670 -4.185772335813565 -1.696440924794324 25.000000000000000
8.792730224501286 -4.001771026553556 -1.806462800662678 12.000000000000000
8.767923791263934 -3.916982961798039 -1.954675642548332 53.000000000000000
9.423665914550318 -4.131124781587435 -2.266191688691986 37.000000000000000
9.568350592781545 -4.114520706487122 -2.468400755449929 52.000000000000000
9.570187543498841 -4.035997807877907 -2.637212178999701 51.000000000000000
9.263953063587460 -3.673136300039251 -3.043623392764372 11.000000000000000
8.068484576287187 -4.253728899423404 -0.521385742445961 21.000000000000000
8.194880390266524 -4.249341148521539 -0.678653956524818 29.000000000000000
8.184595211501836 -4.173070587474750 -0.824656956445743 22.000000000000000
8.306766146030089 -4.163680494713406 -0.985767179972812 21.000000000000000
8.501283841207471 -4.188795603291863 -1.160374269392218 1.000000000000000
8.697649473091577 -4.210833179360469 -1.341384948039464 40.000000000000000
8.823795155685691 -4.196621276854093 -1.517086981406566 46.000000000000000
8.975981705619631 -4.192917965958939 -1.701145305704494 40.000000000000000
8.843244289888814 -4.056127108753812 -1.831628594170043 8.000000000000000
8.761295178341953 -3.945013783644333 -1.968104937450809 32.000000000000000
8.969479972792540 -3.963663813368219 -2.172494923416130 52.000000000000000
9.556857074461769 -4.143203883665693 -2.482258736853904 50.000000000000000
9.562235935766981 -4.066200578444457 -2.652137395495285 51.000000000000000
9.263506045718081 -3.705200788828932 -3.060888572850375 11.000000000000000
8.013492139822789 -4.253876592352112 -0.529359671713981 22.000000000000000
8.132497870555135 -4.246488049569407 -0.685432440347259 27.000000000000000
8.132739269069150 -4.176045990079370 -0.831620027466010 22.000000000000000
8.254632290156417 -4.167324034291112 -0.992197635316012 21.000000000000000
8.388319338721280 -4.163312234410683 -1.158026731315344 20.000000000000000
8.630522150069247 -4.209297492013059 -1.344737164243134 37.000000000000000
8.770660512317502 -4.202730353139895 -1.522139204038543 57.000000000000000
8.919002473078054 -4.198125479063687 -1.705037638078359 42.000000000000000
8.854227474988416 -4.092671850025766 -1.848750104575245 14.000000000000000
9.029252577087700 -4.097712173614014 -2.043704685459873 72.000000000000000
8.776942339829009 -3.909644579821770 -2.141097480916536 42.000000000000000
9.277933789727580 -4.055030090900051 -2.426194459503678 35.000000000000000
8.945236084927245 -3.835321026446074 -2.497071887034112 68.000000000000000
9.259377246062970 -3.735876997337074 -3.076988800086714 11.000000000000000
7.962076638608574 -4.255635527311572 -0.537436377264457 24.000000000000000
8.084313441587682 -4.250747775912087 -0.693267281604402 25.000000000000000
8.077389075918362 -4.176938575233766 -0.838089407497087 23.000000000000000
8.195451819893364 -4.167108378766991 -0.997637823769959 21.000000000000000
8.328841557308438 -4.163855737069313 -1.162824025434157 23.000000000000000
8.595472646107343 -4.223143187523021 -1.352958095322373 19.000000000000000
8.706889667632000 -4.203427821703968 -1.525192074267423 45.000000000000000
8.847829596908186 -4.196298946184294 -1.706044131412810 35.000000000000000
9.018196906924880 -4.200658838739783 -1.898150117469065 0.000000000000000
8.989912105451234 -4.111865954908377 -2.050184066157660 55.000000000000000
8.759361295925860 -3.932915575472976 -2.152060585494308 41.000000000000000
9.042463441717839 -3.984134956373712 -2.380634275691539 70.000000000000000
8.810034566690902 -3.808466419351048 -2.475200692143334 15.000000000000000
9.272818933613557 -3.773776426654766 -3.099006373991953 11.000000000000000
7.907190849424076 -4.255251504132760 -0.545145400200764 23.000000000000000
8.029113258968419 -4.251042842070180 -0.700370637263863 26.000000000000000
8.025627670858794 -4.179397835325610 -0.844794781483175 22.000000000000000
8.143416327980132 -4.170223382060718 -1.003804489380592 22.000000000000000
8.269429588738259 -4.164103909530528 -1.167474585390519 23.000000000000000
8.539112531287111 -4.226292782774197 -1.357712227346485 1.000000000000000
8.650297682218847 -4.207262714360889 -1.529343147023535 41.000000000000000
8.766087832403294 -4.189016678645952 -1.704798926740906 18.000000000000000
8.957481335509403 -4.204462195499967 -1.900474091013154 0.000000000000000
9.540866464600208 -4.397945753247582 -2.192205340783264 40.000000000000000
8.923009595622501 -4.038179783300572 -2.207850491806754 70.000000000000000
8.789848406390899 -3.904058408471172 -2.329744392827872 31.000000000000000
8.881009697436948 -3.870613635826109 -2.511191119008644 57.000000000000000
7.859383637455911 -4.258400985695824 -0.553214139655778 24.000000000000000
7.977489388651365 -4.252942182950214 -0.707650932619688 27.000000000000000
7.977439362216545 -4.183453862639060 -0.851750551117169 23.000000000000000
8.094959700914051 -4.174906825887799 -1.010285323922388 22.000000000000000
8.217162577404160 -4.167646812958988 -1.172989010579975 22.000000000000000
8.475719150656202 -4.225632498407354 -1.361190239313873 1.000000000000000
8.583117998892794 -4.205606306660994 -1.531457152667301 38.000000000000000
8.723517169849504 -4.200111297479698 -1.711004756312587 42.000000000000000
8.896826961510170 -4.207965551128257 -1.902648663695829 0.000000000000000
9.550257212151774 -4.436501475090282 -2.210801176782918 16.000000000000000
8.993715424470569 -4.102322299957335 -2.241100312550266 63.000000000000000
8.768480279220560 -3.925819864202015 -2.339708526025625 44.000000000000000
9.111091682417793 -4.003275953512565 -2.592768017892337 73.000000000000000
9.634000201148877 -4.070483820586342 -3.084544956814244 7.000000000000000
7.808108648288011 -4.259408056648518 -0.560915629562652 25.000000000000000
7.929426082625333 -4.256475750906855 -0.715122494488168 25.000000000000000
7.925766254021460 -4.185417944965433 -0.858208548416962 23.000000000000000
8.035955450418541 -4.173859813397453 -1.015311901335910 19.000000000000000
8.154342105092887 -4.165520514625368 -1.176846496083700 22.000000000000000
8.288587805303393 -4.162476280376070 -1.344428283354109 8.000000000000000
8.537272695146608 -4.214099590966045 -1.537229835165830 32.000000000000000
8.663236912002263 -4.202413864873159 -1.713605530699311 40.000000000000000
8.825602033988240 -4.206101659318542 -1.902382077591268 0.000000000000000
9.513394794664398 -4.453585770747203 -2.218690889567628 17.000000000000000
9.563676507478782 -4.396594159596079 -2.399930719021724 40.000000000000000
8.849746999104589 -3.993850286479606 -2.377215585727575 31.000000000000000
8.795434946887113 -3.895947084528578 -2.518939540685762 24.000000000000000
9.364141964497493 -3.989671705175257 -3.015762085055939 16.000000000000000
7.753384184833005 -4.258243471465780 -0.568236060190238 24.000000000000000
7.870877301056089 -4.254090363440362 -0.721513472780557 26.000000000000000
7.874142015610080 -4.187129886264507 -0.864540822376032 23.000000000000000
7.987587875292922 -4.178046288315738 -1.021544491035302 5.000000000000000
8.102185269420747 -4.168524347642756 -1.182092476539359 23.000000000000000
8.225554795695235 -4.160834523182092 -1.347427316670978 21.000000000000000
8.498518259761456 -4.225891487304597 -1.544177621268889 1.000000000000000
8.603022457168212 -4.204418282331059 -1.716058130909245 38.000000000000000
8.768630638027387 -4.210675202252379 -1.905013142995163 0.000000000000000
9.441122053606994 -4.453814657352604 -2.218182446699718 14.000000000000000
9.547922630394593 -4.423703903727427 -2.412806087555635 21.000000000000000
8.951824940540739 -4.072034539061670 -2.420691832225163 63.000000000000000
8.773849517627744 -3.917777954081837 -2.528769768985252 48.000000000000000
8.816397720005838 -3.861586310916855 -2.698017495498394 0.000000000000000
9.313422719588388 -4.001196420458821 -3.017011841402408 20.000000000000000
7.705707956937823 -4.260672285474796 -0.575944926335933 25.000000000000000
7.819404893364148 -4.255225680640771 -0.728413015018338 27.000000000000000
7.819058456314424 -4.186710837311607 -0.870356950610181 22.000000000000000
7.932225901572754 -4.178295402108492 -1.026750105496625 3.000000000000000
8.050076852662338 -4.171274036202385 -1.187211683371548 23.000000000000000
8.173181968676564 -4.164267210827044 -1.352020378445179 21.000000000000000
8.424468948377624 -4.219827999842558 -1.544564207006602 1.000000000000000
8.560533166243122 -4.214818844554918 -1.721914637035246 9.000000000000000
8.704647867323192 -4.211551398873159 -1.905958110913072 0.000000000000000
9.372476414458808 -4.455360550419397 -2.218330955060571 12.000000000000000
9.521479605915253 -4.445824564526013 -2.422958120892105 28.000000000000000
9.547572298351133 -4.377398835509485 -2.598969534765323 39.000000000000000
8.752200932121649 -3.939530017360035 -2.538555905645599 17.000000000000000
8.738319302411838 -3.858665388317609 -2.690400191439257 12.000000000000000
9.269761676508232 -4.015525981049748 -3.020431352680233 14.000000000000000
7.661559319934171 -4.264812414887116 -0.583804635948174 25.000000000000000
7.767983596504560 -4.256110191298669 -0.735187652208387 27.000000000000000
7.771045190641606 -4.189798490026847 -0.876829092796705 22.000000000000000
7.880436386288764 -4.180133958700549 -1.032280218242401 3.000000000000000
7.994502512109742 -4.171935241651816 -1.191680294095116 23.000000000000000
8.117337715822709 -4.165638516293092 -1.355898284849432 21.000000000000000
8.241309916162967 -4.158276491707536 -1.524560095327956 8.000000000000000
8.503951043265975 -4.218026722498841 -1.724810488726569 1.000000000000000
8.630163658037688 -4.206951369113494 -1.904410515986415 0.000000000000000
9.310968876909715 -4.459943323700903 -2.219991919488536 12.000000000000000
9.438565355448638 -4.441298003479078 -2.418598783431732 20.000000000000000
9.563301434680449 -4.419151794327044 -2.620515042531702 49.000000000000000
8.624878782745002 -3.913285342365187 -2.517471710304777 2.000000000000000
8.488073540327592 -3.778644793579471 -2.629217963187037 9.000000000000000
9.264720829614367 -4.046520857658362 -3.036404600484840 17.000000000000000
7.603514646912463 -4.260938555073337 -0.590477471269816 25.000000000000000
7.716614664131321 -4.256744188329892 -0.741837610554439 27.000000000000000
7.723072889464309 -4.192654583372886 -0.883185534609657 22.000000000000000
7.832203069555786 -4.183591931535016 -1.038149135546545 1.000000000000000
7.942500630859226 -4.174167598142540 -1.196541930488736 23.000000000000000
8.054526827250701 -4.163102581812444 -1.358454446201753 21.000000000000000
8.181749324283153 -4.158303798070513 -1.527057142855006 21.000000000000000
8.440387661083291 -4.217439938283387 -1.726128760436239 1.000000000000000
8.580442022749795 -4.214077789264514 -1.908158033354914 1.000000000000000
9.238960810205432 -4.459126548926959 -2.218965878093419 11.000000000000000
9.359303120376550 -4.438018159152915 -2.414940148313979 17.000000000000000
9.571794116608809 -4.457765632069943 -2.640177827114878 51.000000000000000
8.522451809464171 -3.897612190851121 -2.503284715147200 6.000000000000000
8.312253191666992 -3.730326259400818 -2.590346864040918 23.000000000000000
8.534069291299495 -3.758060492819706 -2.813226379729618 47.000000000000000
7.559450096264038 -4.264619683572298 -0.598108014142377 25.000000000000000
7.672267802069978 -4.260998085591527 -0.749043448610045 27.000000000000000
7.671650830377890 -4.193370689038559 -0.889021822608715 22.000000000000000
7.777014188174833 -4.183054057924956 -1.042963597353668 19.000000000000000
7.883543412386929 -4.172437862594149 -1.200210626432468 24.000000000000000
8.002327571849690 -4.165731646815798 -1.362647892719025 21.000000000000000
8.125774288096080 -4.159833672987078 -1.530069289934120 21.000000000000000
8.246897025996651 -4.151095277533563 -1.700482707776280 10.000000000000000
8.516695277172209 -4.214009575916660 -1.908635337060293 1.000000000000000
8.558961870263733 -4.162233661194465 -2.070647882425027 18.000000000000000
9.280163224478763 -4.434336576214258 -2.411083917220708 18.000000000000000
9.580108977835463 -4.496476272842483 -2.659879151495598 51.000000000000000
8.504441260967566 -3.920214834562103 -2.513724425952776 35.000000000000000
8.252539864046074 -3.733365391084360 -2.587270501703277 26.000000000000000
8.316585977571995 -3.692272429451043 -2.757460060339682 31.000000000000000
7.515417579366837 -4.268091217797278 -0.605633523102586 26.000000000000000
7.617517216897570 -4.259206679429806 -0.755109205459467 28.000000000000000
7.620283894618630 -4.193836108740549 -0.894733512527526 22.000000000000000
7.721891537394599 -4.182244636617393 -1.047643490982831 23.000000000000000
7.835157065411737 -4.176008545970491 -1.205349071559760 23.000000000000000
7.950180935305601 -4.168106704338485 -1.366714892416092 17.000000000000000
8.062851576105727 -4.157473463102616 -1.531613157845968 23.000000000000000
8.190739529345992 -4.153065293611337 -1.702772629980284 21.000000000000000
8.312674821902485 -4.143659368801261 -1.877258730344334 12.000000000000000
8.449595279229019 -4.140060516712158 -2.059044082867507 19.000000000000000
9.208163437867482 -4.433631856788159 -2.408865845163168 21.000000000000000
9.577728180398353 -4.530308397923839 -2.676679420869069 52.000000000000000
8.510875701725906 -3.954149412306929 -2.531421974883751 5.000000000000000
8.196399152616250 -3.737702794677235 -2.585150430759027 8.000000000000000
8.267368358186799 -3.700327865357284 -2.757030670651329 31.000000000000000
7.461026733498465 -4.265412685516554 -0.612201522585228 27.000000000000000
7.569779315297270 -4.261055320932576 -0.761740552714499 27.000000000000000
7.572453322107958 -4.195979449765077 -0.900734778747513 22.000000000000000
7.677296008446664 -4.186868201410052 -1.053624535928370 24.000000000000000
7.783321739214126 -4.177472173729515 -1.209828476104105 24.000000000000000
7.887599355799820 -4.164689904831658 -1.368835417053313 13.000000000000000
8.014016088965775 -4.162069098369066 -1.535684520400919 22.000000000000000
8.138147643194397 -4.156548304961399 -1.705659733385287 21.000000000000000
8.256344496652289 -4.146077849922731 -1.878828894545622 20.000000000000000
8.382505951516293 -4.138062321489469 -2.057478601653751 20.000000000000000
8.561966281041229 -4.153938230935011 -2.255200783941316 23.000000000000000
9.578704426539892 -4.565844586218192 -2.694473737761631 52.000000000000000
8.513657392734984 -3.986527380377714 -2.548104637692044 2.000000000000000
8.227627242940398 -3.781893961883762 -2.610594570647101 36.000000000000000
8.207729403257309 -3.703426438191152 -2.752974148046466 32.000000000000000
7.417079265669855 -4.268436521772528 -0.619503693587655 27.000000000000000
7.518620388705179 -4.260709791509173 -0.767903329257430 27.000000000000000
7.524668385542742 -4.197892296653826 -0.906621174089841 22.000000000000000
7.625772359363256 -4.187457403898042 -1.058533142471601 22.000000000000000
7.735028308585637 -4.180567458738031 -1.214729924024042 24.000000000000000
7.842560349378323 -4.170240094679360 -1.373859060852904 23.000000000000000
7.958235673566946 -4.162775347900504 -1.538288128693156 22.000000000000000
8.075121666821319 -4.154380631828679 -1.706203865872902 23.000000000000000
8.200078277690357 -4.148220214159593 -1.880262028172798 21.000000000000000
8.329503304444932 -4.142684177270697 -2.059205309975667 20.000000000000000
8.463203797153373 -4.137212369852561 -2.244440084873657 21.000000000000000
9.576031964217080 -4.599757927955354 -2.711297627429462 50.000000000000000
9.584321477894633 -4.522983314251355 -2.886461457801140 45.000000000000000
8.439894545803460 -3.910293842314123 -2.694000393926709 23.000000000000000
8.172531368131152 -3.717310814907509 -2.756990268804736 44.000000000000000
7.366263332265568 -4.267252165596765 -0.626114586101824 27.000000000000000
7.467520000153482 -4.260115250079648 -0.773942571090751 25.000000000000000
7.466526339863859 -4.193731354130596 -0.911123342638716 22.000000000000000
7.574306820440512 -4.187795684379296 -1.063317213122459 23.000000000000000
7.679820580692059 -4.179642753112766 -1.218411385670124 25.000000000000000
7.787101077641596 -4.169979349329653 -1.376927388338735 23.000000000000000
7.899035442984369 -4.161370513448508 -1.540076141065129 23.000000000000000
8.022655500293233 -4.157323524054374 -1.708822939908884 22.000000000000000
8.147368275850290 -4.151865675766367 -1.882364892379097 22.000000000000000
8.273062001310228 -4.145300135072250 -2.059934929226347 22.000000000000000
8.399546945712709 -4.137158822708406 -2.242746526572790 21.000000000000000
9.573216301206077 -4.633706198996669 -2.728130589195111 51.000000000000000
9.577972856694311 -4.555203539155535 -2.902511442404989 31.000000000000000
8.365925314450857 -3.906688890250749 -2.686360278857196 23.000000000000000
8.168596357399345 -3.745375857353225 -2.771535537754794 50.000000000000000
8.289000874889762 -3.729216980133661 -2.962938610764580 6.000000000000000
7.325845276705302 -4.271848403953898 -0.633496799842848 26.000000000000000
7.430296773693493 -4.267207316424293 -0.781311444620550 21.000000000000000
7.418854301873449 -4.195154763405613 -0.916766796218655 22.000000000000000
7.522900643576925 -4.187883362803633 -1.067976987777551 23.000000000000000
7.624683603907203 -4.178446716047675 -1.221958666019056 23.000000000000000
7.742145892335158 -4.175072967755301 -1.381723089376737 19.000000000000000
7.850360377177215 -4.165213807656966 -1.543773262156643 19.000000000000000
7.963278062072559 -4.156375322670026 -1.709819488488050 23.000000000000000
8.087743672241379 -4.151678003036340 -1.882718261244555 23.000000000000000
8.216686350350745 -4.147639784417936 -2.060527514660575 21.000000000000000
8.342946019534939 -4.140245922475837 -2.242769586147521 21.000000000000000
9.580701268575099 -4.672782811887828 -2.747967975659306 50.000000000000000
8.285134288558066 -3.899437619843495 -2.676291476933840 23.000000000000000
8.171480500201712 -3.776667954491014 -2.788451469246648 48.000000000000000
8.315859360558463 -3.771705712887447 -2.989043845577442 7.000000000000000
7.275133156519242 -4.270198557741653 -0.639876419612011 28.000000000000000
7.379292877228025 -4.266154537444567 -0.787122668160990 20.000000000000000
7.378143045843339 -4.200283238547791 -0.923160826209627 11.000000000000000
7.471555078768676 -4.187720763720127 -1.072512708564947 22.000000000000000
7.573086265495205 -4.178893131682243 -1.225933362522962 24.000000000000000
7.679865588905077 -4.170526380333709 -1.383285309432685 3.000000000000000
7.794780764165724 -4.165109481194689 -1.545975371166720 21.000000000000000
7.917891612563550 -4.162445464726792 -1.713681465404571 23.000000000000000
8.024721191897971 -4.149396922701579 -1.882110243895998 22.000000000000000
8.153420886260724 -4.146165799535045 -2.059226314481549 20.000000000000000
8.282933604019295 -4.141317664256143 -2.241714280439862 22.000000000000000
9.584530256281743 -4.710244911836186 -2.766838744296665 51.000000000000000
8.207963475091441 -3.893415917647502 -2.667146805815890 22.000000000000000
8.198457459016732 -3.819310458439639 -2.813706970305638 35.000000000000000
7.128795618272889 -4.275860491418710 -0.502865877563576 27.000000000000000
7.227917466672054 -4.270330566456453 -0.646440985832974 29.000000000000000
7.335235419890222 -4.268860094335509 -0.793555813902032 21.000000000000000
7.416800095593626 -4.250693792608752 -0.939509778277912 1.000000000000000
7.423727485582280 -4.189258522845228 -1.077426214911648 22.000000000000000
7.528472796407031 -4.182934892552715 -1.230915528549492 23.000000000000000
7.631545473658346 -4.173249707587182 -1.387214677549333 3.000000000000000
7.742741804365235 -4.166599161425246 -1.548736510496667 18.000000000000000
7.851711877724293 -4.157273648060183 -1.712892408865087 23.000000000000000
7.979154228576093 -4.155844069485510 -1.885450043548841 23.000000000000000
8.100665306919062 -4.149712893749665 -2.060419492415484 21.000000000000000
8.223000814734625 -4.142093260618879 -2.240512669281150 23.000000000000000
9.581252416712632 -4.744344545124623 -2.783720705168644 51.000000000000000
8.182856547198098 -3.911820559790183 -2.674781231424362 40.000000000000000
8.366899204072771 -3.928683702986703 -2.887957421911392 19.000000000000000
8.430978514787844 -3.885895317578561 -3.064081406230389 10.000000000000000
7.085335947157936 -4.277277121573540 -0.510077387437541 43.000000000000000
7.184181070377849 -4.272273678567909 -0.653204381063380 29.000000000000000
7.294652758495818 -4.273369464924165 -0.800261550509026 15.000000000000000
7.393217146321913 -4.265598603154594 -0.948025729659920 1.000000000000000
7.372500705811547 -4.188606094469133 -1.081719154024859 22.000000000000000
7.473531416221036 -4.180966147822709 -1.234080322149943 22.000000000000000
7.579814965463215 -4.173835861518286 -1.390393933546810 2.000000000000000
7.683837948918670 -4.164082957795499 -1.549975320885594 4.000000000000000
7.806430953209691 -4.162855684430311 -1.716511672950660 23.000000000000000
7.919756966029683 -4.154802761711638 -1.885381555626776 24.000000000000000
8.041035157576143 -4.149427398018702 -2.059710140577096 22.000000000000000
8.166613965838895 -4.144331434368764 -2.240115464673203 22.000000000000000
9.588218329684940 -4.783659891700153 -2.803648213102528 50.000000000000000
8.154251004233702 -3.928462097525841 -2.681226605167220 25.000000000000000
8.403508052829737 -3.977022875223829 -2.917169425311482 15.000000000000000
8.419153029924088 -3.911554206581326 -3.076687495943644 14.000000000000000
7.140859105955178 -4.338601688742907 -0.524452681692266 21.000000000000000
7.140485217389237 -4.274009128765956 -0.659864249274847 28.000000000000000
7.247237892372017 -4.273644213053543 -0.806109218159148 9.000000000000000
7.342100612046242 -4.264438157885809 -0.952922767152558 0.000000000000000
7.328225672904983 -4.191643888158760 -1.086910300732142 22.000000000000000
7.429012881183517 -4.184555593279764 -1.238837397708187 23.000000000000000
7.524693949823465 -4.172255829264908 -1.392809483258612 3.000000000000000
7.635390452492956 -4.166934208427411 -1.553179944699531 3.000000000000000
7.754268609464355 -4.164508573798695 -1.718490812030396 23.000000000000000
7.874283376517033 -4.160780315791788 -1.888487349713277 24.000000000000000
7.988408122366284 -4.152444166909799 -2.060640461412220 22.000000000000000
8.106838581586143 -4.144525825061423 -2.238626788347108 22.000000000000000
9.581176274786825 -4.816117124203402 -2.819542700052047 26.000000000000000
8.139410678507968 -3.951683142924001 -2.692172755326221 16.000000000000000
8.098946182140814 -3.863015194208094 -2.827480919140586 19.000000000000000
8.417543056877820 -3.942020845562427 -3.093065880119481 15.000000000000000
7.127954520743092 -4.358625369345455 -0.533885043727866 11.000000000000000
7.096830935238216 -4.275537161911106 -0.666420778309733 38.000000000000000
7.206723510951012 -4.277755445495255 -0.812615890345244 2.000000000000000
7.297911291535169 -4.267041595641436 -0.958598352778295 0.000000000000000
7.273678805036981 -4.188533159913971 -1.090450645126541 22.000000000000000
7.374206115673235 -4.182076654655384 -1.241749982143697 23.000000000000000
7.473096513912196 -4.172329715085488 -1.395735376913555 7.000000000000000
7.586993558369362 -4.169552932539512 -1.556268963904684 2.000000000000000
7.702168380757609 -4.165908400747111 -1.720344567533592 25.000000000000000
7.811578679518324 -4.157353564992794 -1.887313929725648 23.000000000000000
7.932387680777864 -4.153397940214606 -2.060547313716593 22.000000000000000
8.047147222465815 -4.144425314935725 -2.236992710958311 23.000000000000000
7.875791393843905 -3.921591970581762 -2.476414007576875 1.000000000000000
7.993671877245252 -3.910862425879658 -2.659569326936424 10.000000000000000
8.032523711065734 -3.861322827919443 -2.820257585710035 36.000000000000000
7.101382931489783 -4.370246396356170 -0.542257222618083 4.000000000000000
7.104354237262261 -4.307864730533400 -0.677752414175069 32.000000000000000
7.152569016030045 -4.273510331913363 -0.817465542978253 1.000000000000000
7.253763199821192 -4.269435618810452 -0.964169558611152 0.000000000000000
7.212348865735068 -4.181176144157668 -1.092819239607759 3.000000000000000
7.326350723511318 -4.183252823370652 -1.245698555777707 24.000000000000000
7.431886448930137 -4.177955587637427 -1.400482387585732 22.000000000000000
7.524872908074309 -4.164315959554484 -1.556393364907824 18.000000000000000
7.646685520204288 -4.165178452100727 -1.721297480755096 25.000000000000000
7.762762537295931 -4.161005242155801 -1.889343050985377 24.000000000000000
7.876441163811434 -4.154077647928252 -2.060318783101210 22.000000000000000
7.990987237673250 -4.145818096387404 -2.236177828127712 24.000000000000000
7.840621527043695 -3.933644176795281 -2.480434147487811 24.000000000000000
7.906751699495118 -3.898055736133684 -2.646139648719692 11.000000000000000
8.041688515260933 -3.895861902318969 -2.839521414178803 16.000000000000000
7.098544289337553 -4.396467346111986 -0.552419991387212 2.000000000000000
7.196802067206819 -4.392189673622536 -0.697359216165694 28.000000000000000
7.115550561276788 -4.279256552433441 -0.824159916744951 1.000000000000000
7.206238852136161 -4.269595052147060 -0.969176813922355 0.000000000000000
7.219622189598888 -4.213489035543864 -1.105526836762908 2.000000000000000
7.278549970558784 -4.184199017911823 -1.249533074626056 23.000000000000000
7.380401836276104 -4.177557509564486 -1.403174254814303 23.000000000000000
7.490356185556571 -4.174093969957179 -1.562101066980457 15.000000000000000
7.594719662160472 -4.166063423330904 -1.722896632412265 23.000000000000000
7.703675267041907 -4.158850816736015 -1.888725301387409 24.000000000000000
7.820569936808242 -4.154483678780283 -2.059955151511645 22.000000000000000
7.938340935986142 -4.148733957780799 -2.236196264106332 23.000000000000000
7.826054694929562 -3.955954984904096 -2.490932369492072 29.000000000000000
7.607371386869180 -3.779159150084198 -2.560906226432153 19.000000000000000
7.749340367034375 -3.783376181272792 -2.751816226936168 22.000000000000000
7.098986033588005 -4.424821608742639 -0.562856132352363 2.000000000000000
7.197086658736099 -4.420743617873924 -0.708198765651158 31.000000000000000
7.092170012563686 -4.293077349357603 -0.832367337973526 2.000000000000000
7.162182651678295 -4.271561376659225 -0.974535309484280 0.000000000000000
7.206237864361247 -4.233831415739028 -1.115092545642516 3.000000000000000
7.230804997289284 -4.184915542187735 -1.253253763581754 6.000000000000000
7.328984922528024 -4.176909352558013 -1.405742602993267 23.000000000000000
7.431824620822558 -4.170240921225196 -1.562680218174677 23.000000000000000
7.546252957928325 -4.168592918692473 -1.725156043140722 24.000000000000000
7.654981314941833 -4.162006091210167 -1.890508493665357 23.000000000000000
7.768209584602529 -4.156453939312780 -2.060367564309987 22.000000000000000
7.885757352398608 -4.151395278420297 -2.236088598736855 23.000000000000000
7.831975989881303 -3.988700389375952 -2.507991486770824 2.000000000000000
7.675284345668873 -3.841959567889099 -2.598919177626683 29.000000000000000
7.700627246470565 -3.788662288544538 -2.750004013501735 16.000000000000000
7.099308480644446 -4.453216758737361 -0.573305848871749 1.000000000000000
7.159959268635064 -4.426284663096594 -0.715326046445054 24.000000000000000
7.095945824651045 -4.323370069630555 -0.843758315301305 2.000000000000000
7.121576635894866 -4.275363713202848 -0.980258812204568 2.000000000000000
7.203019535022916 -4.260192211000613 -1.126236166799835 3.000000000000000
7.237793379612445 -4.217261145421866 -1.266427820822532 2.000000000000000
7.284480051598446 -4.179938141959352 -1.409511797487942 23.000000000000000
7.383660919129750 -4.171903389329415 -1.565295352774599 24.000000000000000
7.490986951386877 -4.167077673697687 -1.725721343531975 23.000000000000000
7.602912854043000 -4.163051345282918 -1.891323248513009 24.000000000000000
7.719342118213591 -4.160018054630391 -2.061570044195163 22.000000000000000
7.829811136317135 -4.151985341064675 -2.234877020596041 24.000000000000000
9.455923511448042 -4.851807636773487 -3.046409230781475 8.000000000000000
7.790649621135249 -3.929317405301524 -2.653421038791183 12.000000000000000
7.669024181467632 -3.802171251917067 -2.754201495018131 19.000000000000000
7.099511365975354 -4.481652397385282 -0.583768921232965 1.000000000000000
7.136386007625156 -4.440077704672795 -0.723740786911605 26.000000000000000
7.099588846200836 -4.353722923191547 -0.855171867508018 1.000000000000000
7.121796320942583 -4.303627697637571 -0.991567346747285 1.000000000000000
7.169040948009031 -4.268325269016886 -1.132541956680507 0.000000000000000
7.220758058128784 -4.235680663697337 -1.275416159984142 3.000000000000000
7.233189372099149 -4.178810231910038 -1.411842963305720 7.000000000000000
7.335553665582449 -4.173334880366362 -1.567796031273638 24.000000000000000
7.446063265446940 -4.171039578083820 -1.728535416189089 24.000000000000000
7.547490468482632 -4.161957739188847 -1.891156102856096 25.000000000000000
7.663685479580520 -4.159634611909513 -2.060816528823248 22.000000000000000
7.770523014175597 -4.150475297659119 -2.232548071081302 23.000000000000000
9.296883330734419 -4.885378440317557 -2.841731484428619 4.000000000000000
9.352610982658948 -4.834596327986787 -3.031382877906370 7.000000000000000
7.745154220905025 -3.935919724697853 -2.653333378060781 18.000000000000000
7.576120032000013 -3.784924296382526 -2.736193218941482 24.000000000000000
7.106330284817660 -4.514407183768422 -0.594808929172562 1.000000000000000
7.143177989789236 -4.472810973388922 -0.735234794145561 23.000000000000000
7.096327407546394 -4.379956109657389 -0.865781613561293 1.000000000000000
7.118502189882961 -4.329868567953667 -1.002411470843356 1.000000000000000
7.138468777394676 -4.278344135569082 -1.139313377347524 3.000000000000000
7.213878139360543 -4.260075659711541 -1.286193439568612 1.000000000000000
7.212647662775555 -4.195277100117199 -1.420091456875419 2.000000000000000
7.284092250790915 -4.172581336137691 -1.569447378946843 23.000000000000000
7.394355578495924 -4.170937991065912 -1.729646742386798 24.000000000000000
7.498979449731431 -4.164385592925472 -1.892579151829705 25.000000000000000
7.608109468592142 -4.158979045206616 -2.059929031653970 22.000000000000000
7.728395526019376 -4.157855460718247 -2.235011534909634 19.000000000000000
9.279134960936995 -4.911815446284266 -2.854141446803241 1.000000000000000
9.321101355886075 -4.854122006635949 -3.039435647943761 7.000000000000000
7.733738796385936 -3.959735823962003 -2.664867807923493 18.000000000000000
7.677153285824083 -3.864707196304442 -2.788306244441800 34.000000000000000
7.109642000314553 -4.545090476903867 -0.605593249732095 1.000000000000000
7.180162279570956 -4.524740577243156 -0.749928228349666 25.000000000000000
7.099716643474210 -4.410408826719745 -0.877230621654226 1.000000000000000
7.125259491362903 -4.362350703395540 -1.014706618351971 1.000000000000000
7.148604979245104 -4.312793436608491 -1.152581287310716 1.000000000000000
7.172922934765252 -4.264272123892333 -1.290850814507017 2.000000000000000
7.219278191967741 -4.227606840090639 -1.433703872003494 4.000000000000000
7.239513074761523 -4.175506185228413 -1.572454939728395 7.000000000000000
7.373384385298928 -4.188003552573273 -1.737862178155561 8.000000000000000
7.453933591002527 -4.168487369541955 -1.894753564686804 23.000000000000000
7.559431879241221 -4.161804522281259 -2.060766066643851 21.000000000000000
7.785100903502768 -4.218580698188899 -2.266137863226431 2.000000000000000
7.732426002661190 -3.988789215342303 -2.679918787750478 19.000000000000000
7.628421509225068 -3.869408511468952 -2.786194366688003 20.000000000000000
7.102755135494020 -4.569356652202266 -0.615526823288954 1.000000000000000
7.203425480837008 -4.568382799479679 -0.763305927820761 30.000000000000000
7.106344797198100 -4.443029047328745 -0.889123449206305 1.000000000000000
7.125109421735315 -4.390745089567484 -1.026059104894886 1.000000000000000
7.148421531460874 -4.341170756570722 -1.164234542882905 2.000000000000000
7.162523943714973 -4.286544737803957 -1.300956942606051 1.000000000000000
7.201990720767838 -4.246001743932059 -1.442586166750481 2.000000000000000
7.211974028277132 -4.188088545685160 -1.579078512600582 2.000000000000000
7.416980807641192 -4.241946686602479 -1.761380142701872 2.000000000000000
7.487172009075395 -4.216437589604047 -1.916852983275430 2.000000000000000
7.572040725467655 -4.198346288663863 -2.078293456738393 3.000000000000000
7.742840316151887 -4.225851981556355 -2.268537605716333 1.000000000000000
7.727593421787159 -4.016117876842310 -2.693799010108113 7.000000000000000
7.596672389182992 -3.882527401336338 -2.790183791311478 26.000000000000000
7.105819343232719 -4.600127476849716 -0.626340688501059 1.000000000000000
7.202970008185320 -4.597193590907589 -0.774231327770303 29.000000000000000
7.102727094360334 -4.469372030987596 -0.899767454215479 1.000000000000000
7.128211211280383 -4.421271349281629 -1.037915499160730 1.000000000000000
7.151495708676554 -4.371653606182416 -1.176456491474777 1.000000000000000
7.168965699737989 -4.318995416252305 -1.314151205292518 1.000000000000000
7.194812803390551 -4.270374622519393 -1.453490043828903 2.000000000000000
7.221729720559493 -4.222372494765414 -1.593877774058034 2.000000000000000
7.375427460240555 -4.247314474666747 -1.764724775146504 1.000000000000000
7.476015883948976 -4.239589876107341 -1.927674294415618 1.000000000000000
7.584469472441468 -4.235003340011512 -2.095868681882235 1.000000000000000
7.697215348469468 -4.231062717487263 -2.269838796032732 1.000000000000000
7.739565616323190 -4.052323748196166 -2.713613883814944 3.000000000000000
7.548020692488129 -3.886810675576100 -2.787863410929354 27.000000000000000
7.105407522756594 -4.628778333507363 -0.636876027816093 1.000000000000000
7.205743892324848 -4.628195231606489 -0.785534121701989 25.000000000000000
7.109080035707423 -4.502117973597452 -0.911707627321893 1.000000000000000
7.134544911096509 -4.453957576284767 -1.050288922250653 1.000000000000000
7.147688079228861 -4.398043579357113 -1.187578964164209 1.000000000000000
7.165123801828877 -4.345377299909819 -1.325501047111523 1.000000000000000
7.190920418085930 -4.296769403267096 -1.465077552862849 1.000000000000000
7.221165740197140 -4.250774655880241 -1.606457026356227 3.000000000000000
7.323745178541029 -4.246597204318840 -1.765523362651546 1.000000000000000
7.427500010702824 -4.241437767638401 -1.928800988764808 1.000000000000000
7.522173402823397 -4.229857531554009 -2.092752388748393 1.000000000000000
7.644859743452564 -4.232308989421791 -2.269022723772932 1.000000000000000
7.455590574890401 -3.868117818494262 -2.769146027542170 25.000000000000000
7.936567816858067 -4.047781207350457 -3.096608238998478 8.000000000000000
7.103182629983737 -4.720744087078459 -0.509222730650447 1.000000000000000
7.158244473270296 -4.692452897047352 -0.652286647025013 3.000000000000000
7.205037310058936 -4.657091431886458 -0.796487762434810 20.000000000000000
7.111931870625885 -4.532803158289794 -0.923242436077253 1.000000000000000
7.130649002683549 -4.480386166179131 -1.061192066705541 1.000000000000000
7.153870611092622 -4.430708340519543 -1.200399467259055 1.000000000000000
7.178029879887037 -4.382070253346665 -1.340001245590161 1.000000000000000
7.193669290744160 -4.327245073482638 -1.478055550182271 1.000000000000000
7.220477832642912 -4.279215568862877 -1.619048480902866 1.000000000000000
7.272137377104914 -4.245630121138244 -1.766198981711089 1.000000000000000
7.385807945031878 -4.246943341031902 -1.931582060687244 1.000000000000000
7.476898454985588 -4.233977291245726 -2.094221046367736 0.000000000000000
7.606097616586361 -4.240842216920775 -2.272121550036823 1.000000000000000
7.444162215975500 -3.891160953455142 -2.780363166305580 25.000000000000000
7.880493238712202 -4.049748888984047 -3.091410074833775 7.000000000000000
7.112464816732160 -4.756194293031904 -0.520234637137772 0.000000000000000
7.190775727563476 -4.743288896821361 -0.665999157037882 17.000000000000000
7.187516174425984 -4.675167661721824 -0.805582135573610 13.000000000000000
7.081183516785755 -4.542079903034066 -0.930401072686268 3.000000000000000
7.136704981020455 -4.513196593452820 -1.073611905077297 1.000000000000000
7.153183919158687 -4.459260309312758 -1.212111097415352 1.000000000000000
7.173934951561458 -4.408538746863361 -1.351379823798371 1.000000000000000
7.199650142344358 -4.359818361186038 -1.491752554985564 1.000000000000000
7.219665740344664 -4.307694817818502 -1.631651909640398 1.000000000000000
7.271217013238719 -4.274164173177283 -1.779135679793848 1.000000000000000
7.344150424203238 -4.252256146128889 -1.934266841566717 1.000000000000000
7.441795477536001 -4.243658055326778 -2.098439034135815 1.000000000000000
7.631456012180106 -4.285194488641733 -2.294404351607328 0.000000000000000
7.424519011999515 -3.974339876957449 -2.648532420583821 0.000000000000000
7.419212291757377 -3.907108678163660 -2.786518750493967 30.000000000000000
7.536195087456654 -3.902161800637634 -2.972366209846742 14.000000000000000
7.111649167435152 -4.785051149520377 -0.530542755857254 1.000000000000000
7.199795654303619 -4.778911554482425 -0.677621495161614 29.000000000000000
7.146615977004033 -4.677921076077296 -0.811994139894201 14.000000000000000
7.063791805793088 -4.559848653422649 -0.939268642237188 4.000000000000000
7.139264523599184 -4.543952284780023 -1.085552253795527 1.000000000000000
7.162433630665031 -4.494162153926452 -1.225555800660939 1.000000000000000
7.179804331724842 -4.441258005815993 -1.364676182806936 1.000000000000000
7.202117815078271 -4.390418003589512 -1.504776638404937 1.000000000000000
7.228825332268719 -4.342276617866185 -1.646566758283020 1.000000000000000
7.276906296764309 -4.306721823657050 -1.793744095947929 1.000000000000000
7.349684937887528 -4.284868691271322 -1.949362873441471 1.000000000000000
7.453855096081025 -4.280261938929271 -2.115964541475202 0.000000000000000
7.653210500610546 -4.327832270921403 -2.315750605768197 0.000000000000000
7.396171467958557 -3.988274760473395 -2.653611887885382 10.000000000000000
7.333895732240339 -3.890949259480306 -2.769835960625938 13.000000000000000
7.504287735307642 -3.914978123102260 -2.975801720770722 15.000000000000000
7.114017584964861 -4.816182509982991 -0.541113510591511 1.000000000000000
7.198705524684518 -4.807982610893395 -0.688329849870892 29.000000000000000
7.112402548900408 -4.684866794897839 -0.819078199232898 4.000000000000000
7.073010009011822 -4.594883681145824 -0.951691845692900 5.000000000000000
7.141687623643266 -4.574764171461907 -1.097512943800239 1.000000000000000
7.161480157401710 -4.522817782438399 -1.237304029735844 1.000000000000000
7.182171463230667 -4.471965899610428 -1.377359090969579 1.000000000000000
7.201092092910836 -4.419014959979436 -1.517114185845929 1.000000000000000
7.231102448163911 -4.372890929238856 -1.659977802604126 1.000000000000000
7.282443141686048 -4.339354956705481 -1.808381720717560 1.000000000000000
7.361789207283540 -4.321503027509356 -1.966283614016821 1.000000000000000
7.475817402790975 -4.322809982744920 -2.136418501419717 0.000000000000000
7.688181502442458 -4.378293930262754 -2.341262788694581 0.000000000000000
7.364454531382808 -4.000272973900383 -2.657421605518671 18.000000000000000
7.262171465260128 -3.881499230538919 -2.758021996374818 11.000000000000000
7.505762382500555 -3.945207854903219 -2.992478912047596 12.000000000000000
7.109652512802866 -4.842873956114929 -0.551192337010970 1.000000000000000
7.207419857289310 -4.843761402145891 -0.700013199756559 28.000000000000000
7.101428841602922 -4.707058929624520 -0.828797104659672 1.000000000000000
7.062106771725199 -4.616963675538114 -0.961435574292258 4.000000000000000
7.140640300577020 -4.603482633940703 -1.108975985665012 1.000000000000000
7.160402887481076 -4.551510377629403 -1.249063557744172 1.000000000000000
7.184400881164689 -4.502729752101452 -1.390062141870089 1.000000000000000
7.209988199734059 -4.453854992332122 -1.531597162106873 1.000000000000000
7.229889110580750 -4.401520705397060 -1.672633530892779 1.000000000000000
7.287827098321878 -4.372063041855873 -1.823048255807641 1.000000000000000
7.367002972436855 -4.354284538128067 -1.981446281160659 1.000000000000000
7.487492727918738 -4.359667923887732 -2.154050195048490 0.000000000000000
7.719519224048697 -4.427077578856712 -2.365855249233730 0.000000000000000
7.319358126492129 -4.004817294429606 -2.656307786080367 18.000000000000000
7.240680672135722 -3.898646013539473 -2.765154365541458 21.000000000000000
7.507094683459852 -3.975492140135616 -3.009175245360229 12.000000000000000
7.111763500777981 -4.874095612419541 -0.561793440683254 1.000000000000000
7.202760689195506 -4.870698453196697 -0.710430174054537 28.000000000000000
7.096996030691819 -4.733649064159847 -0.839284145997725 1.000000000000000
7.127475212382306 -4.689258380723843 -0.981680668897467 1.000000000000000
7.142796231922636 -4.634396112405928 -1.120972195261144 1.000000000000000
7.162534533240824 -4.582371850324788 -1.261421137243081 1.000000000000000
7.179816443579226 -4.529337712121258 -1.401481974934204 1.000000000000000
7.208692592284960 -4.482554044330841 -1.543970320177543 1.000000000000000
7.238585451756584 -4.436337259903783 -1.687639882797076 1.000000000000000
7.286363770041790 -4.400802549483458 -1.836056625238529 1.000000000000000
7.378758224543515 -4.391124843717593 -1.998450817662916 1.000000000000000
7.515723873258508 -4.406451470391614 -2.176575314574642 0.000000000000000
7.763975605094818 -4.483816968343534 -2.394674967064873 0.000000000000000
8.263904690083100 -4.699919040230798 -2.704088809284662 0.000000000000000
7.277649406431155 -4.010988602714455 -2.656306749222876 19.000000000000000
7.189163011178255 -3.899452040872329 -2.760730515577898 38.000000000000000
7.534885832871806 -4.020022983085117 -3.036611055281065 13.000000000000000
7.113738670094837 -4.905371007791914 -0.572413669920502 0.000000000000000
7.194695482552637 -4.895409446501791 -0.720518746763537 30.000000000000000
7.099063683819812 -4.764692811354489 -0.850565239412914 1.000000000000000
7.122877685243096 -4.715900841352346 -0.992417621567735 1.000000000000000
7.144814714290738 -4.665364395971788 -1.132987974893535 1.000000000000000
7.171180564435138 -4.617571723566569 -1.274981054755794 1.000000000000000
7.191776254750700 -4.566538558967469 -1.416183565455858 1.000000000000000
7.210606942546335 -4.513376849176253 -1.557074480370939 1.000000000000000
7.243776930805010 -4.469187266529000 -1.701899219528629 1.000000000000000
7.308154881628336 -4.443794891864653 -1.855010292469979 1.000000000000000
7.390331226809698 -4.428076718838090 -2.015501161033043 1.000000000000000
7.533679927159715 -4.447524263593659 -2.196268353334003 0.000000000000000
7.778051269095613 -4.523376755168909 -2.414298487370139 0.000000000000000
8.233526031206443 -4.715801093524250 -2.710662859848383 1.000000000000000
7.242638683557417 -4.020664336884497 -2.658654394527962 18.000000000000000
7.121102893127519 -3.890926223905872 -2.749765572846612 44.000000000000000
7.569060415716815 -4.068326711820497 -3.066825425275562 16.000000000000000
7.115577684463879 -4.936699675734645 -0.583052766017889 0.000000000000000
7.156932099818285 -4.899852090983116 -0.727590822563759 25.000000000000000
7.104292797468273 -4.798018074095796 -0.862265857198612 1.000000000000000
7.124782348430817 -4.746965679890932 -1.004088303599955 1.000000000000000
7.143382148329292 -4.694209735066839 -1.144492221963131 1.000000000000000
7.166383734584135 -4.644259138338337 -1.286194862627270 1.000000000000000
7.196907797862797 -4.599601383332669 -1.429610178862003 1.000000000000000
7.219038655317051 -4.548448306989753 -1.571647190587069 1.000000000000000
7.252146187838505 -4.504179751423296 -1.716975374630573 1.000000000000000
7.306390383723063 -4.472672129880078 -1.868070549854362 1.000000000000000
7.398387231778112 -4.463128189449088 -2.031681356218908 1.000000000000000
7.554757851953156 -4.490727092823637 -2.217002475445598 0.000000000000000
7.204316275808387 -4.028327502372721 -2.659697075185430 13.000000000000000
7.099639572326485 -3.907620316394434 -2.756668533929547 72.000000000000000
7.107463271381197 -4.961228622592210 -0.592891558667435 1.000000000000000
7.148734115850807 -4.924474806000378 -0.737626210175793 24.000000000000000
7.099497099667357 -4.824705139339714 -0.872780184378486 1.000000000000000
7.133148045630338 -4.782508380334317 -1.016718521102135 1.000000000000000
7.148437964822635 -4.727463487629445 -1.157077195442410 1.000000000000000
7.171413036691232 -4.677444486861988 -1.299210579351720 1.000000000000000
7.188617175725548 -4.624201357533754 -1.440405812903646 1.000000000000000
7.217339080976746 -4.577292225499201 -1.584069592091939 1.000000000000000
7.257023346672020 -4.537185642392445 -1.731295062178909 1.000000000000000
7.317803953050412 -4.509783934260028 -1.884567369719091 1.000000000000000
7.416255096667008 -4.504333361951263 -2.050657773879749 1.000000000000000
7.572281944340326 -4.532105090155157 -2.236824894176376 0.000000000000000
8.230760359109384 -4.709002711692309 -2.899471222859099 2.000000000000000
7.192548395002001 -4.050757900059011 -2.670502578291892 1.000000000000000
7.101308212803892 -3.937084874822817 -2.772577204552721 94.000000000000000
7.076394079808143 -4.969701334868185 -0.600782381121157 5.000000000000000
7.176469173097279 -4.974067147999871 -0.751426786036309 26.000000000000000
7.111014005224725 -4.862638355747443 -0.885340634282430 1.000000000000000
7.131470930260605 -4.811477378315141 -1.027960995762774 1.000000000000000
7.146742542644223 -4.756397410672133 -1.168610585657431 1.000000000000000
7.172984060237167 -4.708532213805913 -1.311649367451344 1.000000000000000
7.196780546864184 -4.659515095556713 -1.454539389138834 1.000000000000000
7.225456733555816 -4.612518462913645 -1.598702105082014 1.000000000000000
7.261746115142790 -4.570263935185427 -1.745642266316900 1.000000000000000
7.329034526258362 -4.547005713901040 -1.901109136968248 1.000000000000000
7.433910938998794 -4.545685940375400 -2.069696471105720 0.000000000000000
7.586272223760303 -4.571629065071266 -2.255721932862849 0.000000000000000
8.183608816326458 -4.715290113076379 -2.899825148326711 2.000000000000000
7.069800441163193 -3.948154652566758 -2.775535364852011 52.000000000000000
7.110498344567032 -5.024093076154423 -0.614236154949112 1.000000000000000
7.210493997019953 -5.028417586672540 -0.766008415738041 30.000000000000000
7.109241327582714 -4.891658584687427 -0.896292383680558 1.000000000000000
7.136240377817118 -4.844941831350933 -1.040171101712819 1.000000000000000
7.151507337987112 -4.789776112794277 -1.181241543471042 1.000000000000000
