# This PCD file was generated using the MATLAB® pcwrite function
# from Computer Vision Toolbox®.
# .PCD v.7 - Point Cloud Data file format
VERSION .7
FIELDS x y z intensity
SIZE 8 8 8 8
TYPE F F F F
COUNT 1 1 1 1
WIDTH 634
HEIGHT 1
VIEWPOINT 0 0 0 1 0 0 0
POINTS 634
DATA ascii
1.060238894582101 -4.605571304129531 -2.309157086253323 28.000000000000000
1.088786474089111 -4.710763040128342 -2.467071055645011 5.000000000000000
1.176957919080220 -4.998977156741375 -3.086917790141530 31.000000000000000
1.060229049182428 -4.864520539563730 -1.528272974122202 28.000000000000000
1.026947244125707 -4.691770596247992 -1.566962676634443 6.000000000000000
1.026482237372603 -4.670809317612901 -1.653322271929775 3.000000000000000
1.029365198294468 -4.662911494599309 -1.744912514160474 4.000000000000000
1.029317322647097 -4.642397443324410 -1.832448587959179 6.000000000000000
1.032988165239406 -4.638567608048088 -1.926917226048482 20.000000000000000
1.077185062864336 -4.816053381096781 -2.101855887250177 60.000000000000000
1.054232666037243 -4.693282257511100 -2.147910411816917 40.000000000000000
1.044472056645236 -4.630507778305348 -2.219251188563598 85.000000000000000
1.044072496684678 -4.608905649397627 -2.309870415546566 28.000000000000000
1.073680889379072 -4.721151386460545 -2.471443896572169 6.000000000000000
1.159355788939174 -5.006107072113442 -3.089789982699310 28.000000000000000
1.044453113720190 -4.867721956900896 -1.528942328390813 30.000000000000000
1.029219800023786 -4.776665723898562 -1.594920426031227 4.000000000000000
1.030251625179797 -4.762613832345163 -1.685356660404229 2.000000000000000
1.033785492224182 -4.757843442152063 -1.779907114440921 3.000000000000000
1.032825131319009 -4.733079297612409 -1.867644669263588 3.000000000000000
1.022036013804595 -4.663485436810552 -1.936607850635309 0.000000000000000
1.061517239470620 -4.822993123488777 -2.104125110606937 57.000000000000000
1.037263070898969 -4.693006129765544 -2.146968744004502 44.000000000000000
1.027579306900885 -4.630245548884978 -2.218243206922981 87.000000000000000
1.027114175327371 -4.608687559366459 -2.308803034254418 28.000000000000000
1.060848755330334 -4.741932697231037 -2.481251743222617 7.000000000000000
1.078212104378653 -4.779388608616724 -2.720242486580204 1.000000000000000
1.140195164023561 -5.006506504652403 -3.088512847117599 27.000000000000000
1.028667356829381 -4.870879395585941 -1.529588631838636 2.000000000000000
1.026215027458901 -4.839307020610597 -1.615427583547623 0.000000000000000
1.035787427043326 -4.865584236480099 -1.721316485628179 0.000000000000000
1.041512400245578 -4.871222546278606 -1.821773538275733 4.000000000000000
1.043570121014080 -4.860324311075220 -1.917235768938670 6.000000000000000
1.043478440706232 -4.819102869420532 -2.101666071887751 54.000000000000000
1.020307968215602 -4.692679965885286 -2.146002420262989 42.000000000000000
1.012246528976146 -4.637012893896178 -2.220600906605313 87.000000000000000
1.010170378635721 -4.608419440018707 -2.307711002483765 28.000000000000000
1.029512591809601 -4.679197095849849 -2.447369682229436 3.000000000000000
1.059599331118083 -4.794591377585322 -2.616722908425461 1.000000000000000
1.059458997937686 -4.776014166569576 -2.717066674267601 7.000000000000000
1.112221655112029 -4.991981456633113 -2.957625420253723 18.000000000000000
1.116554444578591 -4.986782187913756 -3.074834236604940 27.000000000000000
1.027011537714489 -4.822354504357551 -2.102318799731324 54.000000000000000
1.004131138248158 -4.695874844156436 -2.146643916726577 43.000000000000000
0.994598057022050 -4.633113793296306 -2.217849247206735 86.000000000000000
0.993241289029958 -4.608101362287362 -2.306594367601607 29.000000000000000
1.019721548679818 -4.713801148148130 -2.464407169863660 6.000000000000000
1.040217797221161 -4.787627243584669 -2.611757322346436 12.000000000000000
1.036274653379514 -4.752084096026589 -2.702207909664672 16.000000000000000
1.044421847186451 -4.768958947637857 -2.824148289460818 31.000000000000000
1.054036113605832 -4.789580712958376 -2.951796142227957 21.000000000000000
1.062379255145598 -4.800497353990983 -3.076780049428600 31.000000000000000
1.010534700111743 -4.825560227021987 -2.102947482761655 49.000000000000000
0.986441969574997 -4.691877813462335 -2.143995994446094 43.000000000000000
0.977737205250542 -4.632704670892221 -2.216768230952944 63.000000000000000
0.976327088542087 -4.607733397646845 -2.305453177227590 41.000000000000000
0.999327554661663 -4.699629144751144 -2.455941029483315 7.000000000000000
1.021636984380213 -4.784052647366671 -2.608646035661113 11.000000000000000
1.019138358345571 -4.755417292966695 -2.702861331312060 43.000000000000000
1.027064419882144 -4.772335437232777 -2.824810286009379 31.000000000000000
1.034266108954428 -4.782957313942538 -2.946278491397553 36.000000000000000
1.038089691796438 -4.774148838657977 -3.058360452616183 43.000000000000000
0.985146167319073 -4.785477737066218 -2.084714334641592 27.000000000000000
0.961402743874334 -4.652068567495140 -2.124989131123877 38.000000000000000
0.952062429563616 -4.589683144852089 -2.195304480037807 82.000000000000000
0.949174530246514 -4.558077130589814 -2.279661506172668 51.000000000000000
0.951365612512609 -4.552913227709134 -2.378247382481418 18.000000000000000
0.979902395772781 -4.669890932765078 -2.545265009942437 4.000000000000000
1.009195295679823 -4.792913366388762 -2.722925323520580 7.000000000000000
1.013277185056588 -4.792598504486629 -2.835466261664267 21.000000000000000
1.018831319787882 -4.796381306464093 -2.953114475400689 23.000000000000000
1.021799910842218 -4.784178049623872 -3.063257960358540 33.000000000000000
0.960043479917638 -4.745293502395229 -2.066446731177278 32.000000000000000
0.945369640397275 -4.655095470209189 -2.125553670518111 41.000000000000000
0.934656525595826 -4.585597621873500 -2.192472492285648 113.000000000000000
0.933183444690373 -4.561096358075098 -2.280224697460733 65.000000000000000
0.935964428150860 -4.559443728230729 -2.380635939897932 21.000000000000000
0.954670600450327 -4.631563746513665 -2.523256092158728 4.000000000000000
0.988375483777542 -4.779057273311369 -2.713813088898571 0.000000000000000
0.943116239779784 -4.744698219060372 -2.065422612520007 29.000000000000000
0.929327353838839 -4.658077658705382 -2.126094822644720 40.000000000000000
0.918712998061582 -4.588561451513880 -2.193010312988412 121.000000000000000
0.916475496126669 -4.560549328832781 -2.279004713527871 65.000000000000000
0.919121781974882 -4.558952319091168 -2.379358086155295 21.000000000000000
0.936726504351716 -4.627721812064960 -2.520047278561104 4.000000000000000
0.926909405604987 -4.747663604627133 -2.065945122964286 28.000000000000000
0.912574062481844 -4.657432463194423 -2.124977983713739 38.000000000000000
0.902760501334730 -4.591480812952880 -2.193524885091445 125.000000000000000
0.900478601457395 -4.563477072125599 -2.279520848884979 66.000000000000000
0.903677596636755 -4.565397447092959 -2.381700432760997 20.000000000000000
0.920885738097738 -4.634207532099266 -2.522464272651372 4.000000000000000
0.910001078348455 -4.746971172459550 -2.064872568766089 30.000000000000000
0.896526229329430 -4.660322911975382 -2.125471965527102 36.000000000000000
0.886799192859982 -4.594355677377577 -2.194016203516127 120.000000000000000
0.885155860244116 -4.569886341452492 -2.281774294114441 64.000000000000000
0.887520725732370 -4.568306757689414 -2.382197374073930 20.000000000000000
0.904335740551370 -4.637188428010786 -2.522973712008166 3.000000000000000
0.895149250683972 -4.757073524975092 -2.068491067658011 30.000000000000000
0.880469695047138 -4.663168594000555 -2.125942562730818 33.000000000000000
0.870829230169009 -4.597186016414221 -2.194484263413343 121.000000000000000
0.868458458558233 -4.569198667752987 -2.280483159412272 62.000000000000000
0.870688413997628 -4.567673544352676 -2.380847764547529 20.000000000000000
0.887113754837303 -4.636657791769635 -2.521574450219625 4.000000000000000
0.877567980960369 -4.752671458178666 -2.065798743684152 29.000000000000000
0.863074764847855 -4.658791066597773 -2.123118401802313 34.000000000000000
0.855512420082361 -4.603532151820557 -2.196627921665206 133.000000000000000
0.851777274982529 -4.568461967506815 -2.279167989698675 68.000000000000000
0.854526562695371 -4.570490527745949 -2.381297270277820 20.000000000000000
0.870558347164181 -4.639544166316305 -2.522035307640066 3.000000000000000
0.861994165728962 -4.759072795997002 -2.067798873355555 27.000000000000000
0.848331157063272 -4.668725545882720 -2.126813584961736 32.000000000000000
0.838214697169915 -4.599150535658193 -2.193651401614054 92.000000000000000
0.836404231139068 -4.574741554604638 -2.281352158415310 58.000000000000000
0.838356279518855 -4.573262418584196 -2.381723241553632 19.000000000000000
0.853356037684578 -4.638914705820022 -2.520586801733680 3.000000000000000
0.845101029357240 -4.758190715652400 -2.066630437126734 28.000000000000000
0.830969086755238 -4.664249935108847 -2.123941364467080 35.000000000000000
0.822868993387300 -4.605409604051689 -2.195748846892613 140.000000000000000
0.820364731135166 -4.577445913581333 -2.281751655230488 64.000000000000000
0.822807262901494 -4.579493009716336 -2.383949660138771 20.000000000000000
0.837421775303839 -4.645178315770229 -2.522884695134726 3.000000000000000
0.828855258717855 -4.760882390426960 -2.067010842888408 28.000000000000000
0.814904086970379 -4.666912171616644 -2.124317799072303 35.000000000000000
0.806865990833056 -4.608061566591672 -2.196123828780540 135.000000000000000
0.804317184645914 -4.580105513856871 -2.282127811587501 63.000000000000000
0.805991056001343 -4.578670813611155 -2.382504564157477 19.000000000000000
0.822067905183873 -4.654873607619387 -2.527044925670115 3.000000000000000
0.811983087085980 -4.759903514868920 -2.065794277130427 29.000000000000000
0.798831191406743 -4.669529574444938 -2.124670864162204 36.000000000000000
0.790855122971023 -4.610668868472009 -2.196475531339591 137.000000000000000
0.787044357389940 -4.575642768828120 -2.278955557173414 63.000000000000000
0.789191690501619 -4.577799372181969 -2.381035359605890 18.000000000000000
0.804853036876859 -4.654103286401839 -2.525523745390984 3.000000000000000
0.795733886893578 -4.762502507671083 -2.066127161061459 36.000000000000000
0.782147515123586 -4.668502655420679 -2.123363421771239 35.000000000000000
0.774236829131731 -4.609660871355998 -2.195103638442956 121.000000000000000
0.772198585820425 -4.585290333749757 -2.282810088307384 59.000000000000000
0.773594021168699 -4.583898515919378 -2.383191701513786 18.000000000000000
0.788832341383828 -4.660238206637426 -2.527750659100637 3.000000000000000
0.781258013960068 -4.775943554334599 -2.071157908377092 23.000000000000000
0.767843645467543 -4.681832595552698 -2.128581613031409 24.000000000000000
0.758810423482842 -4.615749387762714 -2.197109084816211 53.000000000000000
0.757879498011864 -4.598443646215559 -2.288405274218937 35.000000000000000
0.756804047669298 -4.582932716694560 -2.381674903861141 9.000000000000000
0.772202727257929 -4.662850926204829 -2.528067283124837 1.000000000000000
0.799251662861411 -4.992689301095784 -2.164312898389914 2.000000000000000
0.804922087612143 -5.015824833927305 -2.279523122986958 2.000000000000000
0.762898573592727 -4.743329203192996 -2.256917773545745 1.000000000000000
0.738906768746175 -4.583206549657890 -2.279872476757002 0.000000000000000
0.738896418919219 -4.574890356435546 -2.376483601605826 0.000000000000000
0.728423627856393 -4.631380027053338 -2.202752383585579 0.000000000000000
0.722846209424960 -4.585638210264599 -2.280131479121600 0.000000000000000
-0.123032108528388 -9.511611333582005 -3.084495572884717 4.000000000000000
-0.153820542275650 -9.500337157410465 -3.078973389995451 4.000000000000000
-0.184976226937253 -9.511804334243831 -3.080805430813236 3.000000000000000
-0.215944437587839 -9.511770559026155 -3.078894092416648 3.000000000000000
-0.213596364402393 -8.938083090937145 -3.066814512261474 12.000000000000000
-0.231107455801959 -8.902904337850995 -2.880014530336033 20.000000000000000
-0.239548843671679 -8.813147826598348 -3.022158456802090 47.000000000000000
-0.235831650204181 -7.988338115175396 -3.055482546243389 24.000000000000000
-0.250377650778805 -8.932924725833278 -2.715836312185795 15.000000000000000
-0.259976700364007 -8.898905564790434 -2.876912905217969 35.000000000000000
-0.273436000784558 -8.975596909568548 -3.076029400122583 26.000000000000000
-0.249149874955183 -7.875177172128591 -2.853753466470880 27.000000000000000
-0.264102594343603 -8.036712853611302 -3.072321651171936 19.000000000000000
-0.267513066460127 -8.894441065294005 -2.533151968454464 15.000000000000000
-0.279088047584323 -8.928823295650249 -2.712769879062545 19.000000000000000
-0.265371593670355 -7.863331055264649 -2.693224578935705 14.000000000000000
-0.274827309341685 -7.863655402689879 -2.847949728802511 42.000000000000000
-0.279436951259059 -8.736679546517255 -2.320836377631587 0.000000000000000
-0.295718916849611 -8.886396079456009 -2.529041526200422 31.000000000000000
-0.325183608133369 -9.429593141057900 -2.862975517728917 3.000000000000000
-0.281749300640202 -7.886327973411764 -2.546313497464887 12.000000000000000
-0.290620738465188 -7.847885194405635 -2.686305560021566 41.000000000000000
-0.327176167445849 -8.551191816961417 -3.095169505049365 8.000000000000000
-0.325432663651823 -9.986485995579985 -2.277212120447568 2.000000000000000
-0.330784508426352 -9.758266111856480 -2.406233591981153 4.000000000000000
-0.304166358320408 -8.651250932048219 -2.296361499677459 20.000000000000000
-0.295538169484984 -8.101567387627972 -2.304006739161232 0.000000000000000
-0.300501871915281 -7.967902710376947 -2.417529528866842 16.000000000000000
-0.307264986087951 -7.882135783435837 -2.543318249807661 51.000000000000000
-0.319273914466124 -7.919352721924739 -2.709112886773956 7.000000000000000
-0.341573673680348 -8.216253394895645 -2.972211899632037 4.000000000000000
-0.343314921218518 -8.005862864839905 -3.055498429756772 5.000000000000000
-0.335195918182849 -9.747210278262491 -2.039811630461893 2.000000000000000
-0.337790699858158 -9.459731913897700 -2.155141192654145 2.000000000000000
-0.339191456232252 -9.156101029075343 -2.255849973155233 3.000000000000000
-0.319317889631917 -8.330070483206001 -2.209374986321055 21.000000000000000
-0.321152642554540 -8.093409322842447 -2.299997068064910 34.000000000000000
-0.325740138625082 -7.955965223731670 -2.412241845433579 42.000000000000000
-0.334680249441509 -7.923518804984965 -2.555007412451758 9.000000000000000
-0.350043774717774 -8.028556573317644 -2.744779172323228 4.000000000000000
-0.350885014394911 -7.817382947669807 -2.826270255328458 4.000000000000000
-0.351744071157017 -7.609599517494406 -2.902649701868067 3.000000000000000
-0.353715091757993 -7.435226263700883 -2.985413881095091 4.000000000000000
-0.356372727453634 -7.278670289109328 -3.070899103123445 6.000000000000000
-0.343043418548995 -9.151846933378994 -1.913309938559808 4.000000000000000
-0.348072567468378 -8.964138676176315 -2.040358616041770 4.000000000000000
-0.350985065912244 -8.732459290131795 -2.149642814445574 3.000000000000000
-0.346221873353582 -8.341109037808293 -2.210548898758938 13.000000000000000
-0.347208477054262 -8.096713337329895 -2.299229307086587 23.000000000000000
-0.354617174163542 -8.028101128367174 -2.432417507850577 3.000000000000000
-0.357691497170397 -7.862125908451487 -2.533546327286691 3.000000000000000
-0.358126960903236 -7.638521669070619 -2.609814512760016 4.000000000000000
-0.359366677949577 -7.456071601585656 -2.694057880374400 3.000000000000000
-0.361043064325692 -7.284253928622163 -2.776996328599464 3.000000000000000
-0.361932674015040 -7.104693362499056 -2.851180977128981 2.000000000000000
-0.362196460130052 -6.917385665845426 -2.916992504999885 2.000000000000000
-0.364319800229581 -6.770439917369704 -2.994354422650664 3.000000000000000
-0.366202337736422 -6.619184500933410 -3.066057466917295 6.000000000000000
-0.354828724963487 -8.744282927365283 -1.826256461214800 4.000000000000000
-0.354445097647240 -8.449050061478426 -1.921329157480636 3.000000000000000
-0.359272168601726 -8.289395881968121 -2.038817162199243 3.000000000000000
-0.360939289628407 -8.077789979101929 -2.139048359136139 3.000000000000000
-0.363363430895427 -7.884663209170812 -2.237335266569618 3.000000000000000
-0.362204763721969 -7.641221703933190 -2.313569229670357 3.000000000000000
-0.364356131438752 -7.473581930859633 -2.406744218277339 4.000000000000000
-0.366495444525774 -7.305190302162193 -2.494365598371117 3.000000000000000
-0.366811412721214 -7.121048288994132 -2.571482189965784 3.000000000000000
-0.366589610797158 -6.929021281328785 -2.640085631215090 2.000000000000000
-0.368528564593161 -6.785265409612083 -2.721536334168749 3.000000000000000
-0.369466286542900 -6.626030121375440 -2.792708272221352 2.000000000000000
-0.370565933260761 -6.473969181643215 -2.861843448590514 2.000000000000000
-0.371595326282906 -6.321430007902310 -2.926775626637081 3.000000000000000
-0.372804456749258 -6.179569471775850 -2.992208879828383 3.000000000000000
-0.375855765642332 -6.062249723988506 -3.066313214176708 5.000000000000000
-0.373126062454454 -5.869978894467267 -3.098391311636745 7.000000000000000
-0.362897205963208 -8.309321491417583 -1.733637208348382 2.000000000000000
-0.364806020426127 -8.093738589734023 -1.838797489804450 2.000000000000000
-0.366756562003027 -7.889014540901040 -1.938649838851685 2.000000000000000
-0.366960933830940 -7.667654498502262 -2.028796235367154 2.000000000000000
-0.370582943071173 -7.518817198048882 -2.131908118242682 3.000000000000000
-0.370781144286346 -7.323169409980176 -2.215696535126663 2.000000000000000
-0.372843855214365 -7.168699218792356 -2.307019499292271 3.000000000000000
-0.371665805233175 -6.952941979726200 -2.372593171148706 2.000000000000000
-0.372656685836595 -6.797286281692622 -2.453104604213726 4.000000000000000
-0.374594230762961 -6.659640999722098 -2.536012010440712 2.000000000000000
-0.374898578848674 -6.499193644528610 -2.605393833280519 3.000000000000000
-0.376064087528986 -6.356744972375731 -2.677841137604478 2.000000000000000
-0.375224675256818 -6.184792480176198 -2.732678616345939 2.000000000000000
-0.377187023351040 -6.059908300135554 -2.804386803449874 3.000000000000000
-0.378277776466441 -5.927391396543404 -2.868824350847370 3.000000000000000
-0.372181558657415 -5.680387849260437 -2.871941985724943 6.000000000000000
-0.368107519717922 -5.484497665857014 -2.893739139441576 7.000000000000000
-0.376282315507381 -5.461074326431175 -3.003766771943304 9.000000000000000
-0.369739556616968 -7.905657002534358 -1.647706290135525 2.000000000000000
-0.369382899065312 -7.664384858962710 -1.739593345463608 2.000000000000000
-0.373648774176556 -7.527435045417239 -1.848163475069435 3.000000000000000
-0.374914693302998 -7.346359339193723 -1.942191399472945 2.000000000000000
-0.377883090352192 -7.199092263668035 -2.039690895508659 2.000000000000000
-0.376069890499761 -6.982165302350151 -2.111008083385075 2.000000000000000
-0.377246248087613 -6.825779384772383 -2.195181327070769 3.000000000000000
-0.379672996508476 -6.691424837681643 -2.281903165644736 3.000000000000000
-0.379854371579935 -6.533634230705887 -2.356537798495906 2.000000000000000
-0.381023339871304 -6.393980460027447 -2.433462366929171 3.000000000000000
-0.379342911564325 -6.213113387211645 -2.489364777025927 2.000000000000000
-0.379682324122777 -6.069047188835795 -2.555332376117253 2.000000000000000
-0.382117654302200 -5.961360899592926 -2.632669049287282 2.000000000000000
-0.376210059965093 -5.725897615104825 -2.648577446879353 2.000000000000000
-0.369172066447305 -5.484712149071640 -2.653386633564919 7.000000000000000
-0.376893694511395 -5.458889622414965 -2.758778576350004 10.000000000000000
-0.385809489236239 -5.459218069067894 -2.879226478132261 9.000000000000000
-0.395822630696493 -5.460508885750746 -3.002282990270182 8.000000000000000
-0.375841518658680 -7.537202806820278 -1.569261291727056 2.000000000000000
-0.377680530649733 -7.359721235352125 -1.668830954493332 2.000000000000000
-0.379905636092609 -7.196896754037142 -1.765431624106329 3.000000000000000
-0.379783940949914 -7.005751013884865 -1.850608788925349 3.000000000000000
-0.380783774201318 -6.837089952422697 -1.935629277466532 3.000000000000000
-0.384179632273432 -6.729102376137691 -2.033024156670138 3.000000000000000
-0.383868600027314 -6.558910646869368 -2.107922205466020 3.000000000000000
-0.384830024133922 -6.410998035138745 -2.184872089155844 2.000000000000000
-0.381844737948057 -6.213623644541208 -2.239761549830654 2.000000000000000
-0.383330868535425 -6.090991554640125 -2.316821815878500 3.000000000000000
-0.385921716822419 -5.990046840555562 -2.398686990091700 3.000000000000000
-0.380133926089289 -5.762950397772303 -2.425200385752072 2.000000000000000
-0.369969016917035 -5.478597903232592 -2.418282022679918 7.000000000000000
-0.377688129843881 -5.460749319070198 -2.524748017297844 11.000000000000000
-0.386751990510590 -5.462544629404337 -2.641482362159915 11.000000000000000
-0.396078429884014 -5.458281105238992 -2.757294553284366 9.000000000000000
-0.405691064707402 -5.465666566729828 -2.881452366663095 9.000000000000000
-0.414826982797853 -5.452893226598093 -2.996926764814827 8.000000000000000
-0.381944249392173 -7.211779872886442 -1.499908549007661 2.000000000000000
-0.382594179871467 -7.027787112055903 -1.592006909893746 1.000000000000000
-0.383650336293933 -6.858605967293930 -1.680928494868730 3.000000000000000
-0.387811999455278 -6.757831428026079 -1.783624468171906 3.000000000000000
-0.388385816934064 -6.594230275693963 -1.865416717070363 3.000000000000000
-0.389043107086700 -6.449272510291925 -1.947057664482805 3.000000000000000
-0.387345927544669 -6.269228813012688 -2.013442132892347 2.000000000000000
-0.386472623187815 -6.104115975945786 -2.078943737509449 3.000000000000000
-0.389016859134115 -6.006314495173641 -2.163716263371066 3.000000000000000
-0.384111628173810 -5.795476199693092 -2.203147266047501 2.000000000000000
-0.371399362560389 -5.477883413578861 -2.192395908755382 8.000000000000000
-0.379273786424988 -5.467906188473922 -2.299845496762647 13.000000000000000
-0.388204835684818 -5.470647214535845 -2.413582412026185 12.000000000000000
-0.396807349677383 -5.463722206711869 -2.524937142806845 11.000000000000000
-0.405512606783440 -5.458295394705093 -2.638246938760825 11.000000000000000
-0.415801367734083 -5.464743564838567 -2.759380907585239 9.000000000000000
-0.424794992166081 -5.461467919079770 -2.878065562750977 7.000000000000000
-0.434613092657928 -5.455716220004475 -2.997310792438848 7.000000000000000
-0.385158864503213 -6.870725405855553 -1.427434428065135 2.000000000000000
-0.389699038008650 -6.769875578416458 -1.532065048402176 2.000000000000000
-0.390769093585118 -6.613424057795170 -1.619358436935666 3.000000000000000
-0.391929879301191 -6.471297090743409 -1.706552352858484 3.000000000000000
-0.392287596787041 -6.316786724315555 -1.785522870454983 3.000000000000000
-0.390158836123193 -6.138869858140274 -1.851979737311349 3.000000000000000
-0.391906723613923 -6.025174241925026 -1.933722957000149 3.000000000000000
-0.391891778941386 -5.884171350928320 -2.002731221735093 2.000000000000000
-0.373082539535268 -5.479753495807158 -1.972817032540818 8.000000000000000
-0.380842909881728 -5.470126819798637 -2.078260631709238 19.000000000000000
-0.389565496877959 -5.473488700484381 -2.189434668884190 17.000000000000000
-0.397829037594892 -5.467213475187055 -2.298356994372152 14.000000000000000
-0.406386647747622 -5.462645743531032 -2.408860181333640 12.000000000000000
-0.415947560634370 -5.466641227474460 -2.525097486608952 10.000000000000000
-0.424803079756242 -5.461179440696711 -2.638458159596465 10.000000000000000
-0.434719551426983 -5.460464468654814 -2.756042579164085 9.000000000000000
-0.444443965332576 -5.464275592489277 -2.878372076540038 7.000000000000000
-0.454420050107038 -5.458483515698189 -2.997665112535397 7.000000000000000
-0.392742319244355 -6.639173630501356 -1.377821096779265 2.000000000000000
-0.394014816053029 -6.492494022281789 -1.467820729982357 2.000000000000000
-0.393933179430784 -6.329460555593097 -1.548395855501648 3.000000000000000
-0.393001163277726 -6.165472801546669 -1.624511994123348 3.000000000000000
-0.395419490646522 -6.054723062171937 -1.710084227989991 3.000000000000000
-0.396165605149525 -5.931682597555108 -1.788143835142576 3.000000000000000
-0.375409476312492 -5.496060996365547 -1.762678997811037 6.000000000000000
-0.382928621203537 -5.479073717058225 -1.863630026079458 18.000000000000000
-0.390400022202262 -5.467756819610707 -1.967282182165305 20.000000000000000
-0.399088268897498 -5.469392289407854 -2.076769736440297 20.000000000000000
-0.407702572859012 -5.469043248027525 -2.186449304989414 16.000000000000000
-0.416940542766876 -5.473825961397162 -2.299933461674858 14.000000000000000
-0.425650869245868 -5.469197706900224 -2.410552173330327 11.000000000000000
-0.434532265523868 -5.462261903753922 -2.521884336169538 9.000000000000000
-0.443822340950222 -5.460416730808866 -2.636905545440730 9.000000000000000
-0.454200588309995 -5.463255357562049 -2.756272614174518 8.000000000000000
-0.463514393267681 -5.459969120349809 -2.874932279560724 7.000000000000000
-0.473944038599339 -5.457698731887572 -2.996070359692666 7.000000000000000
-0.395001276711490 -6.345072594220755 -1.315329527329556 2.000000000000000
-0.394365831294173 -6.180080343180947 -1.395774531554481 2.000000000000000
-0.396580817355430 -6.064905068178602 -1.482290851785576 3.000000000000000
-0.398334108152973 -5.952317882827113 -1.566992584557609 3.000000000000000
-0.380296165280181 -5.550673485578455 -1.566460559085196 5.000000000000000
-0.383711927834082 -5.479926080938201 -1.650718420534268 21.000000000000000
-0.391645288509330 -5.472486220319833 -1.753883843473670 23.000000000000000
-0.400616319968005 -5.474518938439466 -1.860850600355363 20.000000000000000
-0.409041502663902 -5.474486435302159 -1.968478427311589 20.000000000000000
-0.417329359241355 -5.468606531177030 -2.075252951590030 19.000000000000000
-0.426099102419278 -5.468251946268147 -2.184920183222284 16.000000000000000
-0.435219589962186 -5.469349885790949 -2.296845605457987 13.000000000000000
-0.444367422439345 -5.468394105063100 -2.408997199165196 9.000000000000000
-0.453688867034802 -5.465073969758922 -2.521989079475194 9.000000000000000
-0.463141661027897 -5.463192462939585 -2.637059710112841 8.000000000000000
-0.473702166479217 -5.465991305110527 -2.756473346493487 9.000000000000000
-0.484115936382656 -5.473253610431192 -2.880753838154567 8.000000000000000
-0.495676304221104 -5.481329350620573 -3.007875920223297 6.000000000000000
-0.396976341674111 -6.074451207694040 -1.257818869907536 2.000000000000000
-0.400328885344712 -5.980614876814674 -1.349340016001024 2.000000000000000
-0.385076071785367 -5.618139492806012 -1.371802120683498 2.000000000000000
-0.384459957498650 -5.484439111447244 -1.442558204686352 22.000000000000000
-0.392802785658838 -5.476879872532007 -1.544379756870842 27.000000000000000
-0.401374765707345 -5.479111286974766 -1.649222181029315 25.000000000000000
-0.410003125010926 -5.479266250121882 -1.754811328250577 26.000000000000000
-0.418563719388663 -5.473692423381699 -1.859330972964552 24.000000000000000
-0.427142299798137 -5.473654557369893 -1.966946680087426 20.000000000000000
-0.435863112750742 -5.471499272883693 -2.075124828480555 18.000000000000000
-0.445093440954861 -5.474817401315935 -2.186323455270787 17.000000000000000
-0.453774320001822 -5.468500343372305 -2.295277077183465 14.000000000000000
-0.463079420260653 -5.467537948281806 -2.407415675497158 8.000000000000000
-0.472865881046675 -5.467831945469595 -2.522064962415550 9.000000000000000
-0.482481367601672 -5.465913658547448 -2.637184788220511 8.000000000000000
-0.494508525217232 -5.482913547931100 -2.763823500949560 6.000000000000000
-0.504163548158362 -5.479422615554022 -2.882826896791323 7.000000000000000
-0.514621239798721 -5.473440583168848 -3.002383913171047 7.000000000000000
-0.385508903732407 -5.631890404066252 -1.164855940333187 2.000000000000000
-0.384319948770527 -5.485285426607036 -1.236300111473539 24.000000000000000
-0.392721532663327 -5.477713655231635 -1.336236097802876 30.000000000000000
-0.401555676270952 -5.479728089484538 -1.440046215983610 29.000000000000000
-0.410593108892242 -5.479861857531132 -1.543953147380342 25.000000000000000
-0.419033105908377 -5.478246892191351 -1.647700896506579 23.000000000000000
-0.427515797576945 -5.474596414962670 -1.752061738666774 25.000000000000000
-0.436506553627652 -5.472815508513288 -1.857785896818185 24.000000000000000
-0.445238498724161 -5.472771848996202 -1.965389266300328 19.000000000000000
-0.454417110709539 -5.474339591046911 -2.074968706123232 18.000000000000000
-0.463192135694224 -5.470217982231319 -2.183261842359761 15.000000000000000
-0.472324347780412 -5.467598696046432 -2.293682238123921 12.000000000000000
-0.482108297975193 -5.470278530216552 -2.407413631031299 8.000000000000000
-0.493040073841351 -5.481397155131948 -2.527119449748650 6.000000000000000
-0.503159297068326 -5.482942874090486 -2.644207284089895 6.000000000000000
-0.514434227113957 -5.489096614801506 -2.765754829942149 8.000000000000000
-0.523919119001459 -5.482007042284366 -2.883012928359733 5.000000000000000
-0.535557929745794 -5.486466589875219 -3.008365347172677 5.000000000000000
-0.391998828132827 -5.478587845200859 -1.131846341673593 38.000000000000000
-0.401406593357494 -5.484398920398700 -1.234802505965514 33.000000000000000
-0.410509765116470 -5.484572628641663 -1.336616928629403 28.000000000000000
-0.418917351486530 -5.478827858430120 -1.438524782655324 27.000000000000000
-0.427803333186525 -5.475114432657548 -1.541337814179458 24.000000000000000
-0.436991297708906 -5.481152523602526 -1.647302527993063 22.000000000000000
-0.445308094923858 -5.473676366734527 -1.750503851137495 22.000000000000000
-0.455071898385390 -5.479440843210202 -1.858777451191990 21.000000000000000
-0.463647705422004 -5.475591294420421 -1.965153119154896 19.000000000000000
-0.472669181603498 -5.473398916275400 -2.073372168250927 17.000000000000000
-0.481261069727378 -5.465568136043712 -2.180176307785341 16.000000000000000
-0.492189919242145 -5.481350117346291 -2.298226702147597 7.000000000000000
-0.502493639997023 -5.487559865370057 -2.413802573895036 6.000000000000000
-0.512294809072135 -5.484044733872321 -2.527134223875932 9.000000000000000
-0.522247177178446 -5.481962116718183 -2.642539164666407 5.000000000000000
-0.534058747717355 -5.491663941122278 -2.765861965421248 4.000000000000000
-0.545093150259757 -5.498643779547030 -2.890585761258202 7.000000000000000
-0.556235806684796 -5.495938562829077 -3.012395233194005 8.000000000000000
-0.408917720804620 -5.477662268340000 -1.130339051619575 35.000000000000000
-0.418488540806656 -5.483464423348328 -1.233280689497211 31.000000000000000
-0.427435102394248 -5.479754534898304 -1.334138475010255 27.000000000000000
-0.436581491267514 -5.481736525278567 -1.437990705432237 25.000000000000000
-0.445608750509086 -5.477996809656563 -1.540859433842767 23.000000000000000
-0.454652427176822 -5.480188281316441 -1.645730102958616 22.000000000000000
-0.463416882889840 -5.476504199087282 -1.750134437702439 21.000000000000000
-0.472377818253296 -5.470910514461059 -1.854619459506905 23.000000000000000
-0.481746577156285 -5.474606276669280 -1.963543315247089 20.000000000000000
-0.491250668780986 -5.476134775544506 -2.073161040656117 12.000000000000000
-0.502008139782643 -5.490486244037925 -2.188874740962189 7.000000000000000
-0.511465016453526 -5.487692811240521 -2.299655440800490 11.000000000000000
-0.521612338830135 -5.490190002820090 -2.413738656299494 8.000000000000000
-0.532621276816799 -5.497495290999744 -2.532120870124032 5.000000000000000
-0.543102371066754 -5.498874466704127 -2.649491161331000 6.000000000000000
-0.554061611990197 -5.497734168798158 -2.767730973080307 10.000000000000000
-0.563851866220667 -5.490534695973947 -2.885148839360933 6.000000000000000
-0.574786631295020 -5.484391909393499 -3.004906939102052 5.000000000000000
-0.426439257522045 -5.484501848562041 -1.130418078749455 34.000000000000000
-0.435874753556986 -5.486372989352326 -1.232608867774708 30.000000000000000
-0.444960107311108 -5.482638763946270 -1.333522660840599 25.000000000000000
-0.453945673217066 -5.480738074412664 -1.436418979772571 24.000000000000000
-0.462784647662721 -5.473152409119601 -1.538196696276517 22.000000000000000
-0.472637667635579 -5.482992670723466 -1.645278398303690 20.000000000000000
-0.481545295573550 -5.479280652813643 -1.749737596330687 22.000000000000000
-0.490644269963647 -5.473657390209942 -1.854276941277089 20.000000000000000
-0.501895857672623 -5.496079963786950 -1.969976035313808 7.000000000000000
-0.510545509220009 -5.486272133827451 -2.075742121893677 12.000000000000000
-0.520467573329771 -5.489431771009900 -2.187207428786611 14.000000000000000
-0.530429666542109 -5.490305539327916 -2.299514177750859 6.000000000000000
-0.541468806895036 -5.500060498214957 -2.416851267069427 6.000000000000000
-0.551952905785324 -5.500031668877018 -2.532074175679894 11.000000000000000
-0.561875103477910 -5.494194304192383 -2.646035017884618 7.000000000000000
-0.572624548943804 -5.489516609633098 -2.762407015359837 5.000000000000000
-0.582180458110399 -5.478848095761315 -2.877836940788515 7.000000000000000
-0.593635553445206 -5.476286874038100 -2.999310404563659 6.000000000000000
-0.443372466070112 -5.483479778138401 -1.128860655297255 31.000000000000000
-0.452637669971902 -5.481451494087469 -1.230164483997430 25.000000000000000
-0.462504373543206 -5.485473176860872 -1.332880238578580 26.000000000000000
-0.471304738177083 -5.479690845164485 -1.434822666810212 22.000000000000000
-0.480604454503212 -5.475935078047030 -1.537666537102809 22.000000000000000
-0.489959440228414 -5.478110981765711 -1.642510218655875 21.000000000000000
-0.500385242350016 -5.489598439571352 -1.751736162067252 10.000000000000000
-0.511034653251735 -5.498997566514156 -1.861572815295518 10.000000000000000
-0.520058662959469 -5.494988812088622 -1.968308142060505 17.000000000000000
-0.529191005437427 -5.488901057452318 -2.075472491087982 9.000000000000000
-0.540011790398129 -5.499427922441256 -2.189935111391307 6.000000000000000
-0.550516284827421 -5.503886968765338 -2.303958344934844 11.000000000000000
-0.560651539751262 -5.502580743358774 -2.416727335425273 10.000000000000000
-0.570177110841490 -5.491660184095523 -2.527004251023804 6.000000000000000
-0.579858271351592 -5.482286104290841 -2.639099743443718 6.000000000000000
-0.591515461107875 -5.484804756322845 -2.758849442120507 7.000000000000000
-0.601976902982836 -5.481210916235008 -2.877907347365682 5.000000000000000
-0.615166335594397 -5.492572226960548 -3.007072448607284 5.000000000000000
-0.460300514161990 -5.482410136012907 -1.127279263184215 31.000000000000000
-0.469704514649868 -5.480373081743783 -1.228570125721643 24.000000000000000
-0.479051345304204 -5.476638222594804 -1.329390682747498 26.000000000000000
-0.488658514820596 -5.478594847869760 -1.433201782300127 23.000000000000000
-0.498443448152465 -5.478667082572377 -1.537109341371574 15.000000000000000
-0.509019902106671 -5.492264838229666 -1.645436624730767 7.000000000000000
-0.518577010665750 -5.492270300470695 -1.751282053404452 17.000000000000000
-0.529050928800364 -5.497862560342471 -1.859891497458928 12.000000000000000
-0.538950716958394 -5.501346766639549 -1.969299336788242 6.000000000000000
-0.548970827923775 -5.502653731153948 -2.079398217058539 9.000000000000000
-0.559249210160873 -5.505667499116402 -2.191157162347736 16.000000000000000
-0.568797126642606 -5.499042969233344 -2.300682562034241 7.000000000000000
-0.578317477269596 -5.490463672943566 -2.410172929806402 6.000000000000000
-0.588345645413305 -5.483238521031162 -2.521912116431338 9.000000000000000
-0.598936653329520 -5.481090184116514 -2.637322369161577 6.000000000000000
-0.611167734680646 -5.487152638654575 -2.758842858915935 4.000000000000000
-0.622591657409042 -5.490565866884557 -2.881647113983059 7.000000000000000
-0.635605308636876 -5.498321757013023 -3.009063599857909 8.000000000000000
-0.477563137313509 -5.485196987537898 -1.126475680067907 29.000000000000000
-0.486765988117119 -5.479246718291463 -1.226951617996654 24.000000000000000
-0.496597109710690 -5.479375135836876 -1.328698397455045 21.000000000000000
-0.507431200153973 -5.492868672074168 -1.435586057488879 9.000000000000000
-0.517385352406123 -5.492855709562515 -1.539750808099178 14.000000000000000
-0.527441110159170 -5.498730810137246 -1.646044152798290 16.000000000000000
-0.536787835459656 -5.494890433222875 -1.750800373137457 6.000000000000000
-0.548563431128037 -5.511767332344544 -1.863286085422349 7.000000000000000
-0.557886635321136 -5.507650448926530 -1.970260143881884 18.000000000000000
-0.568076046578472 -5.508898994859811 -2.080475298996926 11.000000000000000
-0.576977480680117 -5.497054957316655 -2.186462847392657 7.000000000000000
-0.586654807836070 -5.490475614881650 -2.295847046044834 9.000000000000000
-0.596695676331540 -5.485588452397980 -2.406797374264226 9.000000000000000
-0.608461180410470 -5.492847373738637 -2.525109645291874 5.000000000000000
-0.619626889609048 -5.494185794619142 -2.642417259230390 5.000000000000000
-0.632064668984671 -5.500110801726098 -2.764167039626438 9.000000000000000
-0.642038952697165 -5.489291478530245 -2.879807119748605 6.000000000000000
-0.653175789168755 -5.479581600095134 -2.997656897702376 5.000000000000000
-0.494844364527973 -5.487934629751455 -1.125645838827505 30.000000000000000
-0.505252218426628 -5.493624075357828 -1.228787497667444 10.000000000000000
-0.515977145566685 -5.501419623845317 -1.332668641344318 10.000000000000000
-0.525559297921991 -5.499379421572241 -1.435923884457494 22.000000000000000
-0.535672464106442 -5.499318529922987 -1.540209958948389 11.000000000000000
-0.546284049478455 -5.508958768019924 -1.647763038043343 4.000000000000000
-0.556549668278046 -5.512634615038977 -1.755122807046183 12.000000000000000
-0.566229813931157 -5.506755956599583 -1.860274880836298 18.000000000000000
-0.575297577949529 -5.498906052971683 -1.965830337897144 8.000000000000000
-0.585242449342300 -5.496469856340251 -2.074494250132020 8.000000000000000
-0.594650041553612 -5.488393824007065 -2.181747134908491 13.000000000000000
-0.605266390089132 -5.489202699573867 -2.294058918166544 7.000000000000000
-0.616678639027885 -5.495238411940803 -2.409789669680121 5.000000000000000
-0.628645439541215 -5.502397966647703 -2.528273230482666 8.000000000000000
-0.639159988163997 -5.496464701931629 -2.642304730713293 6.000000000000000
-0.650107837607894 -5.488126607657095 -2.756955229561595 5.000000000000000
-0.660206257319899 -5.477395125404107 -2.872398011765600 8.000000000000000
-0.671900716310012 -5.471262742186845 -2.991958795401464 6.000000000000000
-0.512872011079874 -5.498427696057210 -1.126388552623776 8.000000000000000
-0.523090198225242 -5.500172469089090 -1.228852902016794 22.000000000000000
-0.532870426453340 -5.496310828793519 -1.330043751873799 19.000000000000000
-0.543349882190211 -5.501984872362985 -1.435227288554936 6.000000000000000
-0.554388481605518 -5.509562625038728 -1.541712389597840 7.000000000000000
-0.564413581728749 -5.511503311486116 -1.647169862593927 18.000000000000000
-0.574451969677854 -5.511354404368484 -1.753374336524104 11.000000000000000
-0.583465278164413 -5.497924746452872 -1.855967605190791 8.000000000000000
-0.592652921423186 -5.490114063788233 -1.961379637225599 13.000000000000000
-0.602737202746702 -5.487717457852055 -2.069898781875783 10.000000000000000
-0.613919276855792 -5.494474292467525 -2.182886018764689 7.000000000000000
-0.625958301383409 -5.506231590380521 -2.299910841320766 7.000000000000000
-0.636730107472093 -5.504830344178274 -2.412748153465810 10.000000000000000
-0.647621677774694 -5.501046934802838 -2.526422922547329 5.000000000000000
-0.656564631392209 -5.480765404223932 -2.633550734021823 6.000000000000000
-0.668503250966187 -5.479647092295436 -2.751507795254413 7.000000000000000
-0.680477464893544 -5.483057233484973 -2.874198635115564 4.000000000000000
-0.694097056940286 -5.490799909362617 -3.001493233523992 5.000000000000000
-0.529837952763812 -5.497163390853484 -1.124705471699715 30.000000000000000
-0.540207128564930 -5.498896912181996 -1.227154842488482 7.000000000000000
-0.551283094777556 -5.506634258606129 -1.331138644678985 5.000000000000000
-0.562336940891907 -5.516095644866023 -1.437515217866724 15.000000000000000
-0.573171891381427 -5.519751904510599 -1.543182716201115 17.000000000000000
-0.581755812026085 -5.506369625006805 -1.644271792611028 8.000000000000000
-0.591125094688901 -5.498647371219530 -1.747984041520282 10.000000000000000
-0.601882735291419 -5.500356370682195 -1.855454922237109 15.000000000000000
-0.611620187792443 -5.496261099976481 -1.962258562669576 6.000000000000000
-0.622703948219104 -5.501249818979776 -2.073700610514287 6.000000000000000
-0.634082995094134 -5.507892392465563 -2.186929388058156 13.000000000000000
-0.644189760428814 -5.501179583097819 -2.296531895503823 7.000000000000000
-0.653812903729772 -5.488868208985624 -2.404503788997506 5.000000000000000
-0.665277496533852 -5.488802280530691 -2.519569681085785 8.000000000000000
-0.676956103832020 -5.490105087962148 -2.636827744964908 5.000000000000000
-0.689518178389679 -5.492433180482456 -2.756736918823695 4.000000000000000
-0.700791899786986 -5.488661137893581 -2.875966902898863 7.000000000000000
-0.712808732187159 -5.482370943123354 -2.995739733907887 6.000000000000000
-0.547574028106030 -5.503652468790547 -1.124592453522366 5.000000000000000
-0.559287310244869 -5.516999301359086 -1.229762746794029 9.000000000000000
-0.568963402055996 -5.509165974980839 -1.330333381988997 27.000000000000000
-0.579795819431560 -5.514745608828354 -1.435758223963234 11.000000000000000
-0.589150577214634 -5.503060567467747 -1.537127837282643 7.000000000000000
-0.598652050282433 -5.497375634893651 -1.640213660341321 18.000000000000000
-0.608977964585863 -5.497269403296987 -1.746188691471700 10.000000000000000
-0.620318508700304 -5.502735486399672 -1.854914314592889 6.000000000000000
-0.631489119982478 -5.509844648367479 -1.965779601633920 10.000000000000000
-0.641462278348932 -5.503559754168472 -2.073261242041742 12.000000000000000
-0.651711677081516 -5.499077262654004 -2.182137747557963 6.000000000000000
-0.661947576119578 -5.492408097933298 -2.291598283344213 9.000000000000000
-0.672128362069824 -5.483784715228098 -2.401025752034331 7.000000000000000
-0.684653584934094 -5.490959952890086 -2.519326946705050 4.000000000000000
-0.696961296886595 -5.495802777776079 -2.638350389624336 6.000000000000000
-0.709709115094042 -5.498054119666365 -2.758365071772071 9.000000000000000
-0.721149344220003 -5.494206642520469 -2.877702728326020 5.000000000000000
-0.731929539876826 -5.477377228417057 -2.991867952680058 6.000000000000000
-0.566552372107181 -5.521788721233344 -1.126837933209546 26.000000000000000
-0.576858324089612 -5.519506936056192 -1.228874955703841 21.000000000000000
-0.586249993884472 -5.507779348984572 -1.328568247238182 8.000000000000000
-0.595997115385867 -5.501796192992628 -1.430972427834844 11.000000000000000
-0.605447491923432 -5.490158784082178 -1.532127233648997 15.000000000000000
-0.616347596800014 -5.495958439395505 -1.638407907804456 7.000000000000000
-0.628985799010901 -5.514792432021569 -1.750383185579734 6.000000000000000
-0.640521270811807 -5.520134041558463 -1.859422669772814 17.000000000000000
-0.649683757692982 -5.508390640598599 -1.963924531532640 8.000000000000000
-0.658454307728812 -5.490935619916986 -2.067191317357983 7.000000000000000
-0.669283979694572 -5.490214083314439 -2.177325027160617 13.000000000000000
-0.680103511487971 -5.487256131807608 -2.288172930003662 6.000000000000000
-0.693164594833674 -5.500492267084703 -2.407081981198488 4.000000000000000
-0.704510599439275 -5.496673925682194 -2.520711123870248 7.000000000000000
-0.716542600061601 -5.497861151861775 -2.638122335515560 6.000000000000000
-0.728530111211373 -5.492964747124065 -2.754619059672423 5.000000000000000
-0.739177379945144 -5.482100162388339 -2.870194873265432 7.000000000000000
-0.751975034859915 -5.479301569736108 -2.991777373875746 5.000000000000000
-0.582759686364532 -5.512577274406608 -1.123485176423848 9.000000000000000
-0.592356894923003 -5.502548123255248 -1.223642701239759 7.000000000000000
-0.602682454065925 -5.498610500857575 -1.324915249900863 23.000000000000000
-0.613835800626502 -5.504200149879311 -1.430170031827611 11.000000000000000
-0.624707579759730 -5.504025252356294 -1.534584784629045 5.000000000000000
-0.635795290780951 -5.509732809682962 -1.641116910559346 11.000000000000000
-0.646442415683974 -5.509519804547730 -1.747329312551305 14.000000000000000
-0.657244239471926 -5.507335831295104 -1.853749187731186 7.000000000000000
-0.666055495154290 -5.491910952363491 -1.956708503759491 11.000000000000000
-0.677199143246070 -5.493142592781687 -2.066700214291968 11.000000000000000
-0.688188157358453 -5.492383879769339 -2.176883179530193 6.000000000000000
-0.701029901746068 -5.504055458690997 -2.293893324571073 7.000000000000000
-0.711962313359373 -5.498940502930878 -2.405140122650292 9.000000000000000
-0.723459685125651 -5.495109666068685 -2.518753628657715 5.000000000000000
-0.734224652595792 -5.485541177852206 -2.630995276622221 6.000000000000000
-0.746352216907439 -5.480723820361217 -2.747289714107798 6.000000000000000
-0.759557905536259 -5.487533422911770 -2.871871988888711 3.000000000000000
-0.774492159781259 -5.498591510847380 -3.001165988624170 7.000000000000000
-0.598912356311834 -5.503322078182648 -1.120113428740334 12.000000000000000
-0.609472689338450 -5.501078140674236 -1.221845461237490 21.000000000000000
-0.620803575993793 -5.504860332954153 -1.324964767343343 6.000000000000000
-0.632575016131971 -5.514249164599266 -1.431338184945099 6.000000000000000
-0.644058707932573 -5.517834069972464 -1.537007337974461 17.000000000000000
-0.653978421574305 -5.512021212495717 -1.640389702818336 10.000000000000000
-0.663410666400825 -5.500410799249090 -1.743052301914548 8.000000000000000
-0.673886284111387 -5.494493157787731 -1.848057957724908 15.000000000000000
-0.685119689399222 -5.497844053612766 -1.957472291847898 7.000000000000000
-0.696903497745103 -5.502732164792803 -2.068976615959049 6.000000000000000
-0.709010912633510 -5.509269873585191 -2.182263271416446 12.000000000000000
-0.720155538497183 -5.506128452013256 -2.293466692651529 7.000000000000000
-0.729785589997738 -5.490059473865925 -2.399990826242185 5.000000000000000
-0.740938174253931 -5.482663965697109 -2.511808603612086 8.000000000000000
-0.753791518309548 -5.487492142161444 -2.630713275262242 5.000000000000000
-0.768554797640565 -5.500372747619976 -2.755943243294959 4.000000000000000
-0.781478848204196 -5.503457633144698 -2.879035409645182 7.000000000000000
-0.793628370442877 -5.493429387226045 -2.997207296332613 5.000000000000000
-0.615882597343063 -5.501816290734045 -1.118306813581786 11.000000000000000
-0.628350484674825 -5.515084554174191 -1.223468033386317 5.000000000000000
-0.640758723384806 -5.526516151385676 -1.328701428794117 13.000000000000000
-0.650473186379364 -5.516548807727962 -1.430478900842887 17.000000000000000
-0.660286455735969 -5.504788234664051 -1.531937429491123 7.000000000000000
-0.669858016004984 -5.495216647499097 -1.633973144039601 12.000000000000000
-0.681261072285041 -5.498830020115745 -1.741153571992696 13.000000000000000
-0.692344103322607 -5.496665706423611 -1.847410553835026 6.000000000000000
-0.704226164789288 -5.503721808364824 -1.958205240764000 8.000000000000000
-0.716191672462332 -5.508546777695307 -2.069822670239712 13.000000000000000
-0.726049548309156 -5.496561494125550 -2.175913554049512 7.000000000000000
