# This PCD file was generated using the MATLAB® pcwrite function
# from Computer Vision Toolbox®.
# .PCD v.7 - Point Cloud Data file format
VERSION .7
FIELDS x y z intensity
SIZE 8 8 8 8
TYPE F F F F
COUNT 1 1 1 1
WIDTH 632
HEIGHT 1
VIEWPOINT 0 0 0 1 0 0 0
POINTS 632
DATA ascii
-5.367382160369921 -4.588539187415549 -1.446299025130898 35.000000000000000
-5.343940764050013 -4.506483835102329 -1.549032134684743 18.000000000000000
-5.429606316246625 -4.515555411987797 -1.684260838422146 0.000000000000000
-5.483835299317301 -4.497438129650932 -1.811905262402937 14.000000000000000
-5.566999169100641 -4.500834530763645 -1.951258255054511 6.000000000000000
-5.585002657843062 -4.451485776286090 -2.070293625408859 24.000000000000000
-5.586987262513817 -4.388108734837126 -2.182819062532325 1.000000000000000
-5.433335114212794 -4.205291194356559 -2.231719406047596 6.000000000000000
-5.551343105271512 -4.233799081026030 -2.392056660921223 18.000000000000000
-5.722421196648035 -4.234217281811093 -2.695893851501862 6.000000000000000
-5.456782313362674 -3.975413422375237 -2.680543024420817 6.000000000000000
-5.406560498426651 -3.876009794621598 -2.764646025958839 49.000000000000000
-5.449070484014937 -3.845714076401400 -2.898292273530283 15.000000000000000
-5.925583207849740 -5.603426160166786 -0.579702436089147 13.000000000000000
-6.007432964036927 -5.605615136722021 -0.719258035447260 13.000000000000000
-6.090183737399648 -5.608731428104739 -0.860679854593454 5.000000000000000
-6.171690106910018 -5.609027900735125 -1.004513430992315 5.000000000000000
-6.266713282059345 -5.619763905886009 -1.152637966822981 4.000000000000000
-6.356898091520979 -5.625420060601192 -1.303165298725611 5.000000000000000
-5.973492482932728 -5.215585414455667 -1.349441492197232 24.000000000000000
-5.433763494149289 -4.680879205242685 -1.339850796013167 8.000000000000000
-5.322502213932676 -4.523005360707240 -1.421891940231513 21.000000000000000
-5.367695593805568 -4.499324575841747 -1.543213003271671 27.000000000000000
-5.468596113139134 -4.520489032051983 -1.683121939271566 0.000000000000000
-5.519992334432660 -4.499550085628189 -1.810203760555151 6.000000000000000
-5.600385857039399 -4.500100487162679 -1.948822685036095 9.000000000000000
-5.618440546458340 -4.450531136964885 -2.068211407187131 26.000000000000000
-5.587256934523601 -4.361082115020356 -2.168240469520737 1.000000000000000
-5.421090081421461 -4.169587747912070 -2.212162819861008 26.000000000000000
-5.569573662933744 -4.220962167846507 -2.384697798624244 14.000000000000000
-5.756160047949671 -4.231968237782688 -2.695470707833145 6.000000000000000
-5.483738040634346 -3.969327706952692 -2.677957179739338 5.000000000000000
-5.424316720958562 -3.863499205666355 -2.757793683099734 54.000000000000000
-5.587146107626852 -3.917360259984711 -2.955026728393946 4.000000000000000
-5.982734900820958 -5.625212337413728 -0.574189224478484 6.000000000000000
-6.064991279562927 -5.626875604954265 -0.714540205444200 9.000000000000000
-6.142267434935944 -5.624083486366362 -0.855932062786879 16.000000000000000
-6.218233652568438 -5.618559656577407 -0.999478677884688 15.000000000000000
-6.301778840911481 -5.618252954770402 -1.145956882458484 18.000000000000000
-6.380380244269335 -5.613080362325694 -1.294331018175505 9.000000000000000
-6.046552878213548 -5.248223808602962 -1.352680725737035 22.000000000000000
-5.505483191236587 -4.714507986640440 -1.345159200583674 21.000000000000000
-5.337140857605659 -4.508356314119058 -1.413518592385381 14.000000000000000
-5.367431322794876 -4.472064066591354 -1.530499258210486 13.000000000000000
-5.522703761277030 -4.537604928773453 -1.686481744801117 0.000000000000000
-5.556210303711378 -4.501503046964586 -1.808417368612695 4.000000000000000
-5.624763533334184 -4.491993700912717 -1.943183929800376 9.000000000000000
-5.651922038039889 -4.449433285326558 -2.066053415414793 25.000000000000000
-5.554130883948973 -4.308295391528321 -2.140870136953669 2.000000000000000
-5.426793258639744 -4.147861871366724 -2.200030187075708 38.000000000000000
-5.548436825905832 -4.178446688393511 -2.360577908306634 8.000000000000000
-5.817152214261324 -4.249453592905039 -2.707637397780768 8.000000000000000
-5.516748093841657 -3.967479088649342 -2.678248709553430 5.000000000000000
-5.439017964184050 -3.848793889960588 -2.749387782377240 43.000000000000000
-6.002155520916997 -5.611296314597836 -0.564959089232466 21.000000000000000
-6.081701268228386 -5.610028196189996 -0.704917954078667 9.000000000000000
-6.159170936690589 -5.607044053215175 -0.846199951506926 15.000000000000000
-6.241236377375611 -5.606641553383186 -0.990577091194995 6.000000000000000
-6.339845911944527 -5.619223281016589 -1.139731341536856 4.000000000000000
-6.439557186922664 -5.631902150709650 -1.292627324941216 9.000000000000000
-6.066102125224895 -5.234114291013705 -1.343811219981477 7.000000000000000
-5.559486873749451 -4.732481738250690 -1.345919127485482 22.000000000000000
-5.369745839123411 -4.508795194457291 -1.409857977831692 10.000000000000000
-5.376062124852809 -4.452322224104697 -1.520367995738693 4.000000000000000
-5.555856896999922 -4.537220353477406 -1.683303182450731 0.000000000000000
-5.604573767383937 -4.513028260629502 -1.810449890140918 2.000000000000000
-5.724779562323589 -4.543833165692180 -1.963441653107599 2.000000000000000
-5.694533466992072 -4.455301468304389 -2.067118143656039 14.000000000000000
-5.529782313586055 -4.262740057482820 -2.117113782176628 15.000000000000000
-5.435426982629838 -4.128446678192796 -2.189128945909392 39.000000000000000
-5.536149187004798 -4.142895533138128 -2.340399278057112 7.000000000000000
-5.902585784668818 -4.284250731688883 -2.730864464349863 23.000000000000000
-5.558890226276280 -3.971982785201791 -2.682851506563615 5.000000000000000
-5.465771866978508 -3.842556782029874 -2.747047738031230 16.000000000000000
-6.056608876084474 -5.629922142104745 -0.558936128706587 7.000000000000000
-6.136538508387848 -5.628156972372000 -0.699628636787748 7.000000000000000
-6.214373195574337 -5.624676035911937 -0.841642012476295 9.000000000000000
-6.293841156698379 -5.621106063832380 -0.986278922717331 13.000000000000000
-6.380938070119898 -5.622650005839605 -1.133947202089421 10.000000000000000
-6.457104011236478 -5.614105791646119 -1.282469472650049 9.000000000000000
-6.076622676833128 -5.212233860036239 -1.332940745753204 5.000000000000000
-5.601633229023562 -4.740031030999623 -1.343655831178393 21.000000000000000
-5.399384227121042 -4.506579316941087 -1.405338688016272 13.000000000000000
-5.390643503256185 -4.437540435907818 -1.511930388769581 0.000000000000000
-6.263489908793550 -5.084140164460544 -1.882782236627618 10.000000000000000
-5.692445615810882 -4.555847455847005 -1.824985717776398 1.000000000000000
-5.776654416954476 -4.556871285125123 -1.966886839114659 2.000000000000000
-5.764570805378862 -4.482230155994139 -2.077931726133093 5.000000000000000
-5.532525130685596 -4.238315313688240 -2.103865247606909 18.000000000000000
-5.440933215921364 -4.106726608735411 -2.177011323118959 38.000000000000000
-5.532785079360890 -4.114235289856865 -2.324119886171516 7.000000000000000
-5.921461534215457 -4.270395094043473 -2.723101731404127 14.000000000000000
-5.588974418525779 -3.967670090904754 -2.681521769220657 5.000000000000000
-5.595712004836079 -3.908273156227207 -2.796208879044485 2.000000000000000
-6.078967520807132 -5.618489885053907 -0.549855701542602 15.000000000000000
-6.156175992507045 -5.613793157181291 -0.690234407766218 30.000000000000000
-6.234216425212497 -5.610095316620302 -0.832201959890555 12.000000000000000
-6.313892776360987 -5.606303408993129 -0.976790711938124 6.000000000000000
-6.422095851946972 -5.625895063405029 -1.128066311863102 4.000000000000000
-6.519486584454868 -5.635067766209676 -1.281112776197976 13.000000000000000
-6.504465238644340 -5.546262397215947 -1.412728346319934 23.000000000000000
-5.646881933240214 -4.749920918989342 -1.342004357441768 21.000000000000000
-5.413952987869640 -4.491712724803903 -1.396858562264654 12.000000000000000
-5.477805359139111 -4.482148340288879 -1.523678018162780 0.000000000000000
-6.428942578360274 -5.186821655200252 -1.917284131601797 8.000000000000000
-5.680410330419678 -4.518485986450625 -1.807380111739287 1.000000000000000
-5.804331280761378 -4.550585227022675 -1.961972597866229 1.000000000000000
-5.822663756094310 -4.499402311007714 -2.084195198911114 5.000000000000000
-5.522956279717876 -4.204632245297260 -2.086031067393626 17.000000000000000
-5.470732738087359 -4.103312031936062 -2.174601038578789 25.000000000000000
-5.584165150022963 -4.126194917188650 -2.330791943232078 3.000000000000000
-7.070359060675663 -5.146878157854099 -3.092546520478864 31.000000000000000
-5.943343379258555 -4.258661122288089 -2.716702950588350 26.000000000000000
-5.603857086469929 -3.952491419203514 -2.672863134457758 6.000000000000000
-6.118930833597975 -5.623182493547819 -0.542298900885201 3.000000000000000
-6.202349307096697 -5.623465323894632 -0.683740318916292 3.000000000000000
-6.289614936697757 -5.627302058900119 -0.827414941832069 8.000000000000000
-6.372627741224549 -5.625625285329050 -0.973186426560570 9.000000000000000
-6.457336588922429 -5.623748482047248 -1.121050038149459 13.000000000000000
-6.540026823402662 -5.619625113931811 -1.271423897856473 11.000000000000000
-6.497855368266396 -5.507886813085827 -1.397312587550410 6.000000000000000
-5.695256281441239 -4.762126009510973 -1.340950319080907 20.000000000000000
-5.389109381343152 -4.444345350455545 -1.378294047655796 6.000000000000000
-6.627383339554749 -5.390115277176570 -1.828152993964096 5.000000000000000
-6.452218302539151 -5.174038766183810 -1.909016978029762 7.000000000000000
-5.716904851324936 -4.519757824501245 -1.805229106999211 0.000000000000000
-5.886919812117463 -4.586967699795909 -1.975424624410641 1.000000000000000
-5.865659731613478 -4.504571915172533 -2.084879798445693 5.000000000000000
-5.534595744405252 -4.187224424409868 -2.076279741662166 18.000000000000000
-5.576998785161928 -4.156745107855106 -2.202310300258576 48.000000000000000
-5.644858720384730 -4.144647896715271 -2.341136441805596 3.000000000000000
-7.086058300952625 -5.125414048312695 -3.080242293855996 22.000000000000000
-5.965199353882594 -4.246848397794416 -2.710265550566895 41.000000000000000
-5.649221254180091 -3.958667966506368 -2.678665181069905 6.000000000000000
-6.147172020810736 -5.616926009109690 -0.533623795148531 35.000000000000000
-6.230850880570878 -5.616907469174341 -0.675206477177626 21.000000000000000
-6.312435541367501 -5.615138404346555 -0.818243384399039 12.000000000000000
-6.395676154841888 -5.613205541673903 -0.964025969208437 4.000000000000000
-6.501605853763640 -5.629242124767971 -1.115499181104203 6.000000000000000
-6.587602726291621 -5.627251452520745 -1.266912550517338 15.000000000000000
-6.527281135983548 -5.500121719338638 -1.389664004100520 7.000000000000000
-5.737695962707474 -4.769070792966899 -1.338360493738675 21.000000000000000
-5.397394432674235 -4.424526173353250 -1.368300215394715 9.000000000000000
-5.516216574510989 -4.459353677770891 -1.508980940781384 0.000000000000000
-6.347416696994832 -5.059115701047219 -1.863124686683290 2.000000000000000
-5.765671674617045 -4.530467273717302 -1.806820528523844 0.000000000000000
-6.012622880422376 -4.656093960855351 -2.002910663386579 2.000000000000000
-5.905682149937939 -4.507209711353720 -2.084378795176898 5.000000000000000
-5.549228706382882 -4.172094609496185 -2.067661319865765 26.000000000000000
-5.613185641113828 -4.157412205132100 -2.202055111710918 45.000000000000000
-5.607628795456483 -4.091228173548751 -2.310888860228509 2.000000000000000
-7.089411771472295 -5.095101162711032 -3.062627773048947 17.000000000000000
-5.977837164489245 -4.228454959010708 -2.699638400687936 7.000000000000000
-5.817157492283107 -4.049896743481799 -2.742082252068677 11.000000000000000
-6.181324195529706 -5.615925324969608 -0.525393123407654 4.000000000000000
-6.271230756680068 -5.620881248823928 -0.667879317758460 3.000000000000000
-6.359086311167372 -5.623996147091497 -0.812079198492208 5.000000000000000
-6.451639686029217 -5.629451699520127 -0.959726484172851 12.000000000000000
-6.530919746177906 -5.621595337652951 -1.107292702343021 14.000000000000000
-6.608116551882524 -5.611599492370313 -1.257118440706942 11.000000000000000
-6.698980056859597 -5.611415823629492 -1.411942864324866 5.000000000000000
-5.780223356652788 -4.775821377607957 -1.335666169515573 22.000000000000000
-5.423855886201493 -4.419579699923339 -1.362896401691244 31.000000000000000
-5.424028450911453 -4.358383388093593 -1.471378131580361 7.000000000000000
-5.771165776442412 -4.571893914428099 -1.680516473003208 0.000000000000000
-6.420816386369670 -5.014412331789303 -1.996829962547158 5.000000000000000
-6.006994270683739 -4.623094792339393 -1.986431567665274 6.000000000000000
-5.936566721885042 -4.502684025559348 -2.080554763177298 6.000000000000000
-5.582240407149862 -4.170694757318087 -2.065846382977870 26.000000000000000
-5.624840659915888 -4.139821965682923 -2.192131757674746 36.000000000000000
-5.579292006950271 -4.044735239006205 -2.284560690268968 2.000000000000000
-5.516137092110777 -3.939058900869002 -2.368215901585901 0.000000000000000
-5.789379905375974 -4.004365540330616 -2.712945434512379 2.000000000000000
-6.224396490381193 -5.622807246170894 -0.517825262939520 19.000000000000000
-6.305719650583377 -5.619368625403290 -0.659833266878672 20.000000000000000
-6.384897699672409 -5.614232350542867 -0.803166532442601 6.000000000000000
-6.483720288588535 -5.624591283732631 -0.951756329269362 4.000000000000000
-6.581335886054696 -5.631891189575389 -1.102562281103317 7.000000000000000
-6.664884951136685 -5.626528641254247 -1.254124410597840 8.000000000000000
-6.753059567198627 -5.623242448962388 -1.409017686920417 14.000000000000000
-5.838056625586898 -4.794876972050118 -1.336350874338178 24.000000000000000
-5.447276006470950 -4.412053120073155 -1.356676591888663 8.000000000000000
-5.410749422796681 -4.321473655981795 -1.455483467566944 3.000000000000000
-5.783242942582638 -4.553621602210427 -1.670609281355353 0.000000000000000
-6.431502818284535 -4.992024034644513 -1.984909956630176 5.000000000000000
-6.053458310262175 -4.630143380338479 -1.987156451672992 6.000000000000000
-5.945929938530778 -4.481791024195545 -2.069166591051487 11.000000000000000
-5.615293563317936 -4.169151960840495 -2.063955940707070 25.000000000000000
-5.651832794139603 -4.133474964523248 -2.188165163955329 14.000000000000000
-5.550675816830378 -3.998434606556900 -2.258347775153899 5.000000000000000
-5.542817474963217 -3.932775297707748 -2.364924712751364 8.000000000000000
-6.246754519768619 -5.610817251912708 -0.508460161063855 5.000000000000000
-6.340239724406305 -5.617708626521091 -0.651710077082404 3.000000000000000
-6.440677105108993 -5.630583203330591 -0.797919305504164 7.000000000000000
-6.524848262927397 -5.627388842478708 -0.945025905104976 17.000000000000000
-6.604656308356601 -5.618809664658773 -1.093203092212297 18.000000000000000
-6.685394030480558 -5.610641880801918 -1.244210730787376 7.000000000000000
-6.801177007086415 -5.629778999728881 -1.404699160849303 5.000000000000000
-5.893003522837553 -4.811161922723722 -1.336191016717883 24.000000000000000
-5.553301126554961 -4.470944780027620 -1.370802455406025 5.000000000000000
-5.400339446257641 -4.287108710936099 -1.440475187502206 1.000000000000000
-5.779883020203354 -4.523298712758017 -1.656290140019740 1.000000000000000
-6.442093657423672 -4.969620807170245 -1.972988175819170 5.000000000000000
-6.029128134555851 -4.583086847900422 -1.964664063322088 2.000000000000000
-5.973716088048963 -4.474754916382916 -2.064175510389537 7.000000000000000
-5.654563961847717 -4.172023050767712 -2.064244671843896 24.000000000000000
-5.654115892452425 -4.109055146354258 -2.174635435868852 2.000000000000000
-5.527961297481074 -3.956750821415318 -2.234748941331121 10.000000000000000
-5.575685391675387 -3.930738424161374 -2.364197084398640 4.000000000000000
-6.298863008578144 -5.625344086174299 -0.501426675905623 14.000000000000000
-6.377783136267258 -5.618537589811493 -0.643811788196078 10.000000000000000
-6.460520834838871 -5.615313156432893 -0.788127336034300 8.000000000000000
-6.553961678977923 -5.619649513390485 -0.936472987938772 4.000000000000000
-6.652187358298188 -5.626150039102392 -1.087767938305742 4.000000000000000
-6.742346819479568 -5.625135095037700 -1.240982888048408 11.000000000000000
-6.831079794643456 -5.621033226347696 -1.396520786636970 12.000000000000000
-5.948098548277245 -4.827183799135398 -1.335887805673391 25.000000000000000
-5.629072597403921 -4.504740427392568 -1.377118504331159 15.000000000000000
-5.408195989035104 -4.267394175556278 -1.430405220422854 2.000000000000000
-5.822581176674159 -4.528977857851737 -1.655145916264925 0.000000000000000
-6.449503034226702 -4.944837011717262 -1.960126919118159 5.000000000000000
-6.063247459020885 -4.580562707047866 -1.961269878797689 3.000000000000000
-5.998413616014582 -4.465303665102124 -2.058065419182883 5.000000000000000
-5.700098665508758 -4.179257078656592 -2.066683689867423 20.000000000000000
-5.532374282919021 -3.995182746154411 -2.113784667019408 7.000000000000000
-5.532882686313646 -3.935057372118620 -2.222446547754434 11.000000000000000
-5.605497082338081 -3.926389814449292 -2.362089220348824 4.000000000000000
-6.427374455933536 -5.629715072364849 -0.637016331973601 3.000000000000000
-6.522513049661004 -5.636442693791050 -0.783373012434952 12.000000000000000
-6.598205957958117 -5.624694611786199 -0.929993903479644 22.000000000000000
-6.678540223231939 -5.615389315051272 -1.078780481414590 10.000000000000000
-6.775044953422444 -5.619128326080603 -1.233169385828106 5.000000000000000
-6.882389768449755 -5.629683409585970 -1.392614728835873 22.000000000000000
-6.009475614885080 -4.847891218953340 -1.336805731322509 25.000000000000000
-5.674350119896131 -4.513691763555132 -1.375767923906253 18.000000000000000
-5.434462253934711 -4.262178419000990 -1.425187403523153 6.000000000000000
-5.868453377105788 -4.536849077370689 -1.654767479102850 0.000000000000000
-6.459894807516242 -4.922413335689507 -1.948206875167730 5.000000000000000
-6.100500595421281 -4.580217985629587 -1.958793426928898 4.000000000000000
-6.035505672130528 -4.464934658237742 -2.056133696856226 5.000000000000000
-5.938191894029484 -4.326500701054774 -2.138310714899749 22.000000000000000
-5.527890883957133 -3.966695341682943 -2.098130225065753 8.000000000000000
-5.559442986035186 -3.928737319370909 -2.218832296593520 6.000000000000000
-5.647752471644655 -3.930558703143384 -2.365116551076390 4.000000000000000
-6.453005189681892 -5.619701755907219 -0.627754885757103 12.000000000000000
-6.533301947768201 -5.613135982209333 -0.772382097484838 10.000000000000000
-6.627352580621782 -5.616680719012253 -0.921298796700531 4.000000000000000
-6.738382678953895 -5.632538142293848 -1.075089274236842 6.000000000000000
-6.826095710260649 -5.628109273003091 -1.228587548975559 11.000000000000000
-6.906204242448988 -5.615653897839168 -1.383053961804578 7.000000000000000
-6.049501150556516 -4.851036760217029 -1.332817384504898 19.000000000000000
-5.713562512683387 -4.517555621675077 -1.372821408170419 21.000000000000000
-5.463828344251112 -4.259263554603606 -1.420717352953642 8.000000000000000
-5.920618902183087 -4.549265755822569 -1.656006309774343 0.000000000000000
-6.460885909018247 -4.892928746022363 -1.933500855184063 6.000000000000000
-6.131592019548004 -4.575073940600141 -1.954250174326902 5.000000000000000
-6.063320888472894 -4.457544453442002 -2.050960079815484 10.000000000000000
-6.177366145075030 -4.472479080326203 -2.209225743495975 24.000000000000000
-5.526371683012801 -3.940488846438539 -2.083689917499175 12.000000000000000
-5.576670724933243 -3.915749516337253 -2.211457743430131 14.000000000000000
-5.683869020813259 -3.930229103528248 -2.365448825914200 3.000000000000000
-6.505762823760705 -5.633094070277858 -0.621035648230904 5.000000000000000
-6.595498163180634 -5.633808054670607 -0.767381771095384 14.000000000000000
-6.674748997818018 -5.623930218171500 -0.915046838836593 10.000000000000000
-6.761727649132818 -5.618945930908441 -1.065467889933923 9.000000000000000
-6.877250697212845 -5.636853730931132 -1.223878614803459 21.000000000000000
-6.960726679556642 -5.626390887456308 -1.379545459220882 13.000000000000000
-6.061842280080107 -4.831882371831064 -1.322677933671462 8.000000000000000
-5.746661597883709 -4.516382469356085 -1.368307666390007 23.000000000000000
-5.502513865214281 -4.263425084476270 -1.418578059954088 8.000000000000000
-5.926348654760559 -4.525872539195022 -1.644191406490774 0.000000000000000
-6.464843888147199 -4.865822076048602 -1.919746083763135 9.000000000000000
-6.140903459874544 -4.553635651685408 -1.942743176078729 3.000000000000000
-6.094256693802516 -4.452319010199290 -2.046775703749985 16.000000000000000
-6.189862653735855 -4.453330030330326 -2.198533140265168 26.000000000000000
-5.555932470108019 -3.936441648700647 -2.080971295807398 7.000000000000000
-5.578251561239909 -3.891814642331907 -2.197906346789030 32.000000000000000
-5.720039867139990 -3.929739240759558 -2.365695969046663 3.000000000000000
-6.531426058894739 -5.622808752379868 -0.611633363503903 18.000000000000000
-6.612300287691542 -5.615487266886128 -0.757001757484162 14.000000000000000
-6.713083885835395 -5.623297155817684 -0.907441369516452 4.000000000000000
-6.821778403213937 -5.635623443827704 -1.061523347281394 10.000000000000000
-6.894711132552066 -5.617822792448326 -1.213095821157880 23.000000000000000
-7.003038114795381 -5.626966304433902 -1.373481478392994 6.000000000000000
-6.064834113259722 -4.805352740872564 -1.310525167415602 3.000000000000000
-5.795293173799431 -4.527169675090696 -1.367374039044519 24.000000000000000
-5.771121321564722 -4.444421293246043 -1.475093915627819 49.000000000000000
-5.959983021728269 -4.523747454770346 -1.640094919865795 0.000000000000000
-6.478027433560757 -4.845732060220281 -1.908765404806863 7.000000000000000
-6.159488531387830 -4.539088380494520 -1.934177268442952 3.000000000000000
-6.137711413485922 -4.456039170021216 -2.046692336429997 16.000000000000000
-6.202282512309743 -4.434152872103891 -2.187830876532631 28.000000000000000
-5.591775363151463 -3.936674653988293 -2.080515550698547 7.000000000000000
-5.589103085165714 -3.874415223545449 -2.188051502810286 44.000000000000000
-5.756264226870822 -3.929088790464673 -2.365857862825262 2.000000000000000
-6.578290296795140 -5.630588135935998 -0.604130792583604 5.000000000000000
-6.662531697802155 -5.625399108298128 -0.750373405805503 6.000000000000000
-6.748402218220455 -5.619950043892085 -0.899340316718090 14.000000000000000
-6.851282359971416 -5.626803961340967 -1.052706608976182 10.000000000000000
-6.952146308245895 -5.631176097531343 -1.209256576304069 10.000000000000000
-7.036134162670147 -5.619949901287735 -1.365519370760455 16.000000000000000
-7.087251059106730 -5.581829899980844 -1.516559063429562 4.000000000000000
-5.840932144426102 -4.535314403503572 -1.365589596322019 23.000000000000000
-5.888372584400206 -4.507183298912834 -1.492133712937705 56.000000000000000
-6.608305844967404 -4.985157159049216 -1.803686768524392 5.000000000000000
-6.488006068410945 -4.823288640293381 -1.896860550667755 6.000000000000000
-6.193676961877174 -4.535939405643032 -1.930459893457172 2.000000000000000
-6.178113566182915 -4.457300508983705 -2.045465457044001 18.000000000000000
-6.211490127036406 -4.412720319355973 -2.176020630617317 28.000000000000000
-5.624535739914231 -3.934553151624291 -2.078815337510965 8.000000000000000
-5.606158473806213 -3.861313994037463 -2.180629589366622 48.000000000000000
-5.795677503767009 -3.930404273169269 -2.367215351796653 2.000000000000000
-6.603967939261801 -5.620046792206502 -0.594596931216149 25.000000000000000
-6.685391117070361 -5.612013310396949 -0.740575597575410 7.000000000000000
-6.799072587262940 -5.629141665874126 -0.893174147996634 3.000000000000000
-6.890011573266859 -5.625403948747769 -1.045230564833298 36.000000000000000
-6.972657634009845 -5.614419904716752 -1.198898933357010 9.000000000000000
-7.094020370234452 -5.632473760604256 -1.362246058097867 9.000000000000000
-6.797413045899101 -5.321481824154241 -1.440316312008150 8.000000000000000
-5.889783346816455 -4.545649437280415 -1.364411712393218 22.000000000000000
-5.921794415920638 -4.505214585589479 -1.487661397416414 56.000000000000000
-6.618518274742797 -4.962287898399954 -1.791706075306154 6.000000000000000
-6.479091273533109 -4.786943971612144 -1.879501977086816 5.000000000000000
-6.240447721650665 -4.541776546061628 -1.930547600809044 2.000000000000000
-6.215438830007348 -4.456128343785539 -2.043109476789740 14.000000000000000
-6.226892035560793 -4.395715172362054 -2.166397863028766 25.000000000000000
-5.660478928880829 -3.934474188637816 -2.078194205226966 8.000000000000000
-5.620029398644971 -3.846003128222822 -2.171965353330136 47.000000000000000
-5.832014286501566 -3.929423131010027 -2.367201558702802 3.000000000000000
-6.650952127277074 -5.627451734721846 -0.586895880071277 3.000000000000000
-6.744938104125554 -5.629194043844455 -0.734738312776255 10.000000000000000
-6.831405398855813 -5.622920484055363 -0.884493926759404 10.000000000000000
-6.934949595384294 -5.628842629832191 -1.038589792970758 4.000000000000000
-7.036454316616084 -5.632286894281709 -1.195875825776811 14.000000000000000
-7.117875942873151 -5.617762599297913 -1.352334810539599 9.000000000000000
-6.739555986294647 -5.244546720165490 -1.414019380207144 10.000000000000000
-5.935624161798841 -4.553358003066135 -1.362392273092945 18.000000000000000
-5.958380034918316 -4.505466463819080 -1.483891944478567 55.000000000000000
-6.628634182325372 -4.939405380811054 -1.779724518267491 6.000000000000000
-6.460565921803794 -4.743771816958113 -1.859489424186488 5.000000000000000
-6.287312171398640 -4.547396883647373 -1.930518904848301 2.000000000000000
-6.249663066674526 -4.452548129747653 -2.039638866398916 9.000000000000000
-6.235930529395318 -4.374244770951536 -2.154578640096151 8.000000000000000
-5.699627451231644 -3.936411711039848 -2.078637476414539 6.000000000000000
-5.640150486475916 -3.834939346186318 -2.165705127891963 46.000000000000000
-5.865250524867488 -3.926170712121678 -2.365830894172195 13.000000000000000
-6.679695852673501 -5.619223046296127 -0.577494304518143 12.000000000000000
-6.773951688647311 -5.620632519650578 -0.725460266946880 5.000000000000000
-6.885311117265758 -5.634211173914659 -0.878496025142829 39.000000000000000
-6.967585959731247 -5.622096124699580 -1.030012164197084 13.000000000000000
-7.066274570208114 -5.622683771246793 -1.186951939628592 5.000000000000000
-7.179049963647346 -5.632275318489532 -1.349404445001081 8.000000000000000
-6.743703952387047 -5.216274394147469 -1.400906295053593 10.000000000000000
-5.981560395662595 -4.560851990075334 -1.360257460066507 18.000000000000000
-5.995014752574138 -4.505555131445079 -1.480036173182045 54.000000000000000
-6.635510290075906 -4.914182027777146 -1.766905257270139 6.000000000000000
-6.432361145533013 -4.693850578429103 -1.836867126609323 5.000000000000000
-6.346881013887475 -4.561864721611023 -1.934217065707847 2.000000000000000
-6.299699294107123 -4.459992250303328 -2.041204039546387 7.000000000000000
-8.525504418784937 -5.942393161954169 -2.925295525932173 18.000000000000000
-5.802046606815817 -3.981542863103273 -2.101881919045044 6.000000000000000
-5.653926268141569 -3.819531086801655 -2.156996993826025 43.000000000000000
-5.870087486913567 -3.903863616617632 -2.352986561548932 8.000000000000000
-6.729865889939517 -5.628804622110390 -0.569848777779944 4.000000000000000
-6.827562065203030 -5.632250688875390 -0.718713032762911 9.000000000000000
-6.902271445414673 -5.615099391624613 -0.867702550411228 14.000000000000000
-7.025030642442603 -5.635108611415531 -1.024983614646100 7.000000000000000
-7.120973257153961 -5.632647455866814 -1.182099195844076 12.000000000000000
-7.224762814863805 -5.634326858834282 -1.343414722555855 9.000000000000000
-6.744593835318182 -5.185616548926369 -1.387167979766296 17.000000000000000
-6.005626821004437 -4.551484915967919 -1.353058589473725 21.000000000000000
-6.031697772004575 -4.505480281072784 -1.476093975348231 54.000000000000000
-6.651727513310299 -4.895921074974575 -1.756591562171067 6.000000000000000
-6.432282728826909 -4.664725548176366 -1.822410068186008 6.000000000000000
-6.381317807752954 -4.557985134250172 -1.930111538851959 5.000000000000000
-6.340351307659847 -4.460524169131946 -2.039589525381480 8.000000000000000
-8.292921753559240 -5.743599005967769 -2.825791083571116 1.000000000000000
-6.155098192323115 -4.196785707396582 -2.214890509495335 9.000000000000000
-5.670814564705441 -3.806209300371051 -2.149472710804573 37.000000000000000
-5.868486758608416 -3.877381812167672 -2.337630733608073 8.000000000000000
-6.755579564335652 -5.617732121676180 -0.560041569009089 10.000000000000000
-6.875119403299759 -5.638558298038688 -0.711191612710840 18.000000000000000
-6.962504410787569 -5.630991331265983 -0.862255737569193 11.000000000000000
-7.048417288984203 -5.620587605870758 -1.014885552700677 11.000000000000000
-7.166428094559507 -5.634997679818382 -1.175573695669333 6.000000000000000
-7.245513457774948 -5.616770346967935 -1.332712122937207 4.000000000000000
-6.764164540628691 -5.169383283164384 -1.377291014652332 6.000000000000000
-6.073714817684959 -4.575194198596232 -1.355640940133319 33.000000000000000
-6.071580725069539 -4.507581993365159 -1.472829953543254 53.000000000000000
-6.661561655920520 -4.872991999773797 -1.744603471998728 6.000000000000000
-6.444719360659949 -4.644762582621306 -1.811539928739044 6.000000000000000
-6.412615380584853 -4.551707711626178 -1.924977113788467 4.000000000000000
-6.377892039820866 -4.458655679916537 -2.036864908710850 17.000000000000000
-8.268521213269723 -5.690301434527758 -2.797932545634341 1.000000000000000
-6.160426108616813 -4.173491681447464 -2.201980323518153 21.000000000000000
-5.687662464135419 -3.792830450851769 -2.141921769149513 34.000000000000000
-5.879450594675392 -3.859280589894822 -2.327332815312900 9.000000000000000
-6.821269043971355 -5.639630082885894 -0.553430355118459 6.000000000000000
-6.894943785885744 -5.621966649842533 -0.700726178713107 65.000000000000000
-6.982535545960922 -5.614156315390345 -0.851731304904842 5.000000000000000
-7.109147714053281 -5.635617521823679 -1.010058378255896 11.000000000000000
-7.202569707074725 -5.629811574317886 -1.167419056040238 9.000000000000000
-7.272479344797785 -5.603978563185530 -1.323119209612881 0.000000000000000
-6.097860000580719 -4.565516793815382 -1.348278835666941 39.000000000000000
-6.102045476704050 -4.502507113686995 -1.467190066567263 52.000000000000000
-6.658634329507647 -4.840843401444641 -1.729325888487227 5.000000000000000
-6.472934290321184 -4.636129303822734 -1.805082477733444 6.000000000000000
-6.431222408300844 -4.536337828232423 -1.915989938156424 3.000000000000000
-5.964040912500884 -4.143023244640411 -1.890923157715531 11.000000000000000
-5.962535293916968 -4.077226059647350 -2.003600890229151 4.000000000000000
-5.955563641932144 -4.008795469548727 -2.114492040708960 10.000000000000000
-5.704469737982122 -3.779394624704730 -2.134344226969771 32.000000000000000
-5.925346247028623 -3.863982697084648 -2.330796767085080 15.000000000000000
-6.843949622929205 -5.625712810169401 -0.543217209137434 8.000000000000000
-6.948792153782878 -5.632934048609762 -0.693632184618271 5.000000000000000
-7.039842170876488 -5.627093767628807 -0.845660652662781 13.000000000000000
-7.138789863155294 -5.625746363240206 -1.000696330662218 5.000000000000000
-7.241863874340215 -5.626906013881042 -1.159686309514561 10.000000000000000
-6.103026933230736 -4.541632862467427 -1.336715824255909 31.000000000000000
-6.148363902980877 -4.508917563946595 -1.465257560313426 51.000000000000000
-6.661897562476608 -4.813339145786147 -1.715722336134528 6.000000000000000
-6.497967073925624 -4.625118472232855 -1.797687131841601 6.000000000000000
-6.475249216385953 -4.538757327933269 -1.914503983757970 7.000000000000000
-5.959163550753918 -4.113464114520016 -1.875681943699953 14.000000000000000
-5.970376550338854 -4.056554779139556 -1.992262826788659 15.000000000000000
-5.864458308615581 -3.922078425825853 -2.068171551922396 9.000000000000000
-5.724427031531344 -3.768002244823754 -2.127926277782288 28.000000000000000
-5.961765980763913 -3.862270781826815 -2.330404857198205 15.000000000000000
-6.888233139056037 -5.629399947975107 -0.534644225394862 112.000000000000000
-6.971695759993287 -5.618619129609950 -0.683357378296881 12.000000000000000
-7.091036422041549 -5.634801873126890 -0.838705140013993 4.000000000000000
-7.196593704627555 -5.637826852738013 -0.995170050323667 8.000000000000000
-7.268626610948957 -5.614123982586143 -1.149876123221884 1.000000000000000
-6.719530407586303 -4.970003331957511 -1.457818226616153 52.000000000000000
-6.185247232675215 -4.508168159471840 -1.460958766224384 50.000000000000000
-6.668215704032953 -4.788142957524910 -1.702951068819338 6.000000000000000
-6.513421288895433 -4.607248156910169 -1.787619516007696 5.000000000000000
-6.177904402889537 -4.303146015864002 -1.812723794435278 13.000000000000000
-5.989273595438518 -4.108069285796048 -1.871461605826341 17.000000000000000
-5.923782104511936 -3.999187442385865 -1.962918586933073 10.000000000000000
-5.862346183623684 -3.895400866753981 -2.053527041615271 9.000000000000000
-5.773144091957768 -3.775360126883118 -2.132103000756345 18.000000000000000
-6.001430300451535 -3.862453857347383 -2.331168923240983 15.000000000000000
-6.910887615540497 -5.615258051864122 -0.524318010699726 7.000000000000000
-7.035026391349843 -5.636644442515287 -0.676936556608295 8.000000000000000
-7.120443600850319 -5.624985615929669 -0.829074030285655 11.000000000000000
-7.241968950673080 -5.639857526599902 -0.987783780562057 14.000000000000000
-6.735462263340642 -4.951455199222024 -1.447375386418924 30.000000000000000
-6.225357492079673 -4.509559199068295 -1.457318059280807 50.000000000000000
-6.671233699400634 -4.760677681489214 -1.689382414064919 7.000000000000000
-6.538393543643954 -4.596068842688712 -1.780141865611026 5.000000000000000
-6.064538260152398 -4.197616471357430 -1.765912696181928 8.000000000000000
-6.032207280023157 -4.111274631210346 -1.871147305158483 16.000000000000000
-5.851207694242198 -3.924916346752351 -1.925309375097175 9.000000000000000
-5.863306792281492 -3.870887011560862 -2.040030196667476 10.000000000000000
-5.815558207743918 -3.778320634016217 -2.133802221132419 12.000000000000000
-6.044360923822592 -3.864505428982177 -2.333074111967675 15.000000000000000
-6.964566529650672 -5.626128148470639 -0.516254889619396 16.000000000000000
-7.051705258528988 -5.617080292867589 -0.665929373367141 7.000000000000000
-7.181170540923596 -5.639656709663628 -0.822973790176288 6.000000000000000
-7.252808816215913 -5.614897835132434 -0.975634448164801 3.000000000000000
-6.776792018969688 -4.951466653584482 -1.442332801426078 2.000000000000000
-6.262335967227827 -4.508470615320352 -1.452840302427506 51.000000000000000
-6.680518455348724 -4.737770671246033 -1.677439189486758 9.000000000000000
-6.576152798065105 -4.593738111194787 -1.776074475425228 5.000000000000000
-6.197380404426108 -4.262543834565883 -1.790815507314940 10.000000000000000
-6.075216739690476 -4.114280868879329 -1.870726729845428 18.000000000000000
-5.848831501485504 -3.898174035502489 -1.911037743260203 8.000000000000000
-5.854510004734784 -3.840080541987868 -2.023224662637963 8.000000000000000
-5.848409906249695 -3.774861704826530 -2.131881956843428 9.000000000000000
-6.077730054852479 -3.860237695227632 -2.331177023884398 15.000000000000000
-6.996555812038381 -5.619237638766346 -0.506477174316433 5.000000000000000
-7.112099697029850 -5.632142337847081 -0.658958713227425 10.000000000000000
-7.226330080219415 -5.641775794732776 -0.814945061757791 15.000000000000000
-6.735220078904635 -4.891051143225732 -1.419706026989434 2.000000000000000
-6.305752315068719 -4.511792229756574 -1.449745707534149 52.000000000000000
-6.680095557209677 -4.708079185385498 -1.663103644000381 8.000000000000000
-6.597906323470277 -4.580101163069927 -1.767620288058617 5.000000000000000
-6.526742296851881 -4.460754374032656 -1.871545191822295 5.000000000000000
-6.102217119770080 -4.106264525862294 -1.865283320793351 20.000000000000000
-5.852761620650525 -3.875743829369057 -1.898887880036077 9.000000000000000
-5.861654469907243 -3.819851622609663 -2.011999119448808 8.000000000000000
-5.861968567995945 -3.758866075706357 -2.122887263311800 9.000000000000000
-6.114348817413119 -3.857855288926777 -2.330430670219239 15.000000000000000
-7.153819082019880 -5.632104270524204 -0.650121548382506 3.000000000000000
-7.249514924199713 -5.626586727323549 -0.804362582242677 6.000000000000000
-6.734887151082908 -4.860912417012395 -1.405916617838004 13.000000000000000
-6.342830003989908 -4.510354410974578 -1.445083605846923 53.000000000000000
-6.605671894091365 -4.626698059147175 -1.630566741073523 7.000000000000000
-6.603541787552237 -4.555290171166579 -1.754853645329022 5.000000000000000
-6.622367417955785 -4.497504329243751 -1.884378037982654 4.000000000000000
-6.138889563303334 -4.104603870553196 -1.862717905482501 16.000000000000000
-5.859816202998687 -3.855450204378297 -1.887790716322498 16.000000000000000
-5.852570950106706 -3.789168569058986 -1.995274123829243 8.000000000000000
-5.865784803021715 -3.736661604358771 -2.110391598531044 9.000000000000000
-6.157465919058941 -3.859354316189723 -2.332042391925020 15.000000000000000
-7.195583839700954 -5.631878378304459 -0.641185728023640 8.000000000000000
-7.282122236454307 -5.618616888224527 -0.794772921466148 0.000000000000000
-6.734413426551654 -4.830816568233061 -1.392157708151545 9.000000000000000
-6.386373519248968 -4.513290860985699 -1.441784615252396 51.000000000000000
-6.614454171749333 -4.604017780832048 -1.618769990953068 7.000000000000000
-6.625187163723663 -4.541537899602714 -1.746347202621341 5.000000000000000
-6.666643742203131 -4.498909408999829 -1.882358983870142 4.000000000000000
-5.984940397480129 -3.976109640003157 -1.802638224737390 5.000000000000000
-5.895890952063739 -3.854180540887335 -1.886008016848906 10.000000000000000
-5.862739185426426 -3.771057028196495 -1.985175592675697 20.000000000000000
-5.859791999946747 -3.708327936605658 -2.094439694035167 10.000000000000000
-6.197421142597063 -3.858639867025123 -2.332330499285050 16.000000000000000
-7.132093223583184 -4.214200019221757 -3.085346730613943 18.000000000000000
-7.243691915815225 -5.636365536698316 -0.632701324064248 26.000000000000000
-6.737011918703690 -4.803054543343990 -1.379087183939830 11.000000000000000
-6.420327102600757 -4.509241103737224 -1.436217450101785 48.000000000000000
-6.716697788344422 -4.646043136392960 -1.629674198981204 3.000000000000000
-6.637102700701399 -4.521102657131866 -1.735267847917824 5.000000000000000
-6.707751464823088 -4.497940782446772 -1.879325145834492 3.000000000000000
-5.917616477405550 -3.906224787153517 -1.769205227938749 11.000000000000000
-5.928769463475337 -3.850642368624566 -1.883109661680847 10.000000000000000
-5.902020820602031 -3.771574950628970 -1.984886048358497 18.000000000000000
-5.866625268209234 -3.688216811445939 -2.083137228839344 20.000000000000000
-6.234191451633437 -3.855738048131898 -2.331309728150377 17.000000000000000
-7.100709109459651 -4.242323851800414 -2.920719513969462 0.000000000000000
-7.083543221963623 -4.156815211302569 -3.046621525830994 15.000000000000000
-7.260305876003810 -5.616210889829001 -0.621396675104275 1.000000000000000
-6.749144940655478 -4.782163356380358 -1.367995688194051 13.000000000000000
-6.486576766852440 -4.527567462627668 -1.437725536771666 40.000000000000000
-6.670534836256211 -4.585303082493750 -1.604513832899430 0.000000000000000
-6.668369812329341 -4.513794584677354 -1.729219041461239 5.000000000000000
-8.685046978474915 -5.786829353952297 -2.414437617732083 6.000000000000000
-6.002443464086094 -3.936815525754083 -1.781283800137345 12.000000000000000
-5.968175543086240 -3.851151377231161 -1.882184304619974 11.000000000000000
-5.941361931744966 -3.771911988305209 -1.984500528720306 19.000000000000000
-5.896123955036144 -3.682312096606196 -2.079864401838884 14.000000000000000
-6.251507876287985 -3.840694084009137 -2.322958076626978 0.000000000000000
-7.080995842992756 -4.201778400724532 -2.895261670855346 9.000000000000000
-7.109193085378353 -4.143189360618112 -3.039957170236039 13.000000000000000
-6.761196425042221 -4.761245373066588 -1.356895500563067 0.000000000000000
-6.695312030637226 -4.644285531768133 -1.470309053163172 31.000000000000000
-6.672638532613665 -4.558063223413933 -1.591116169373159 0.000000000000000
-6.699644257996567 -4.506353577745142 -1.723101926363378 5.000000000000000
-6.777118759733426 -4.486835747701065 -1.869375909126113 4.000000000000000
-6.041982719827091 -3.937291612662864 -1.779708844211739 30.000000000000000
-6.010896125734238 -3.853566344325698 -1.882182296036545 11.000000000000000
-5.984019115986691 -3.774122292410389 -1.985099529352824 19.000000000000000
-5.948441229613834 -3.690427262026369 -2.084516625388920 10.000000000000000
-8.385507638830262 -5.117349672041077 -3.096125639114217 45.000000000000000
-7.050607117315368 -4.228414246033257 -2.733925427147724 0.000000000000000
-7.077315470316545 -4.170965266774381 -2.876503168254781 19.000000000000000
-6.694143243470972 -4.614635002323352 -1.456430578923722 26.000000000000000
-6.736329714555522 -4.572742142655001 -1.592327627589016 5.000000000000000
-6.747191540422135 -4.509651367959845 -1.721065616504460 5.000000000000000
-6.782514450231377 -4.461769048872853 -1.856259326420421 8.000000000000000
-6.022882856744923 -3.899581951719045 -1.760876683858129 25.000000000000000
-6.043898345779981 -3.849545766063655 -1.879030117070876 12.000000000000000
-6.026748508659369 -3.776133156559299 -1.985592303899662 17.000000000000000
-5.978020405993407 -3.684205105471549 -2.081076828553859 16.000000000000000
-8.387861190964959 -5.084530711127171 -3.077292980641991 52.000000000000000
-7.079335288360044 -4.216932638623232 -2.728166233258948 0.000000000000000
-7.115854600783444 -4.165015716459807 -2.874905456211017 9.000000000000000
-6.679839861099530 -4.576127275565891 -1.439782826640089 21.000000000000000
-6.731812113101942 -4.540996307798740 -1.577352911194000 3.000000000000000
-6.771994040561794 -4.497568459283728 -1.713137084022092 8.000000000000000
-6.791064577156901 -4.438846097762235 -1.844041005310278 0.000000000000000
-6.019919157984937 -3.872523946011014 -1.746870235277142 21.000000000000000
-6.080198787465345 -3.847448363228700 -1.876811071257237 10.000000000000000
-6.063005123411123 -3.773870916676286 -1.983837487738189 18.000000000000000
-6.027246003483693 -3.689874188624866 -2.084360354067847 7.000000000000000
-7.068584729672493 -4.256072014545671 -2.576760936998614 0.000000000000000
-7.075356120562196 -4.185990428977597 -2.709825805422006 0.000000000000000
-6.675108857303092 -4.544387890773599 -1.425293107169215 15.000000000000000
-6.736928544443365 -4.515875134934858 -1.564693437303704 3.000000000000000
-6.770631547594499 -4.468136528889159 -1.698601897421659 30.000000000000000
-8.710451858028069 -5.656961685838840 -2.346639493813809 8.000000000000000
-6.043026672186337 -3.862263802353815 -1.740444472044993 22.000000000000000
-6.123096246780806 -3.849307649121479 -1.876514581630973 10.000000000000000
-6.102582339225529 -3.773471958255698 -1.983061817803617 18.000000000000000
-6.066733076815114 -3.689325022717084 -2.084137867663994 7.000000000000000
-7.067725594643506 -4.226937645162856 -2.560005676307415 0.000000000000000
-7.103988791377800 -4.174364398533061 -2.703998727854419 1.000000000000000
-6.666962198735002 -4.510505551651820 -1.410155562041526 12.000000000000000
-6.768092061514273 -4.508187562047199 -1.558067634048791 6.000000000000000
-6.785504495759501 -4.449488248559429 -1.688172699684225 56.000000000000000
-8.788588894476794 -5.671087586408848 -2.349014863971420 9.000000000000000
-6.075965369244615 -3.858164150437783 -1.736787327227151 18.000000000000000
-6.162777769794429 -3.848914385064882 -1.875111787752454 10.000000000000000
-6.138928125946530 -3.770871698375171 -1.981128996016108 17.000000000000000
-6.109561881308143 -3.690578899455150 -2.084940528015829 9.000000000000000
-7.079866674439918 -4.205654112013939 -2.548011256304662 1.000000000000000
-6.710976671419114 -4.511887026943349 -1.406033986704704 10.000000000000000
-6.789429951183667 -4.493860187943120 -1.549130578482647 0.000000000000000
-6.800310393441197 -4.430796723724244 -1.677725527578974 25.000000000000000
-8.837318797690967 -5.665869608477052 -2.343342494752737 9.000000000000000
-6.115509461687473 -3.858068427919632 -1.734920179576210 5.000000000000000
-6.202513130941469 -3.848337868932190 -1.873612154913895 13.000000000000000
-6.175313667707112 -3.768106491397545 -1.979109540909097 18.000000000000000
-6.142578471228005 -3.685703485141974 -2.082287094619403 18.000000000000000
-7.105093774404955 -4.192114069752079 -2.540717631516453 0.000000000000000
-6.748497725290474 -4.508684054695666 -1.400443696362814 11.000000000000000
-8.685814212787031 -5.712707302366471 -1.964180933222703 5.000000000000000
-8.752338629582372 -5.666263200535825 -2.141206635374932 5.000000000000000
-8.892676982921108 -5.664629166051814 -2.339288885225653 10.000000000000000
-8.911223955988548 -5.585219706644133 -2.508934521809969 24.000000000000000
-6.222505538601640 -3.835376147665878 -1.866078944736141 1.000000000000000
-6.211738153129308 -3.765176066971378 -1.977003364100232 22.000000000000000
-6.182221490339020 -3.684615713870749 -2.081780124193504 16.000000000000000
-8.430310333616946 -4.940307491199633 -2.995267863031305 79.000000000000000
-6.772912643887787 -4.496589181541164 -1.392064671885576 2.000000000000000
-8.684788071217996 -5.675843303190480 -1.946379961789938 7.000000000000000
-8.810734928676942 -5.667591673083730 -2.137339150388652 10.000000000000000
-8.816076930247498 -5.579575804791611 -2.300647169502938 14.000000000000000
-8.953490342694328 -5.575123620412078 -2.501720867803345 16.000000000000000
-8.877658177421795 -5.435900858710697 -2.643060184544469 18.000000000000000
-6.264739151598932 -3.772038019341889 -1.980037510519134 1.000000000000000
-6.208685991406623 -3.675512018977361 -2.076750745386676 18.000000000000000
-8.438424185069223 -4.911465424421351 -2.978887150858924 80.000000000000000
-8.687394854550002 -5.820985424712030 -1.606766730558057 1.000000000000000
-8.693305926955739 -5.735251243084203 -1.769582221615395 4.000000000000000
-8.723167086742954 -5.664733899037897 -1.937406986117101 5.000000000000000
-8.885729940116734 -5.679203466816799 -2.137300028963905 9.000000000000000
-8.805134375403433 -5.536590969717234 -2.279401909522402 17.000000000000000
-9.038809310873068 -5.591470727101027 -2.506348209975354 18.000000000000000
-8.770661276307615 -5.334933471590346 -2.592244130089417 11.000000000000000
-7.080232437126752 -4.234618308728511 -2.222217904625795 11.000000000000000
-6.268293922820411 -3.685788528424765 -2.082678616797394 2.000000000000000
-8.446412972627677 -4.882625181128217 -2.962515018770285 77.000000000000000
-8.696032627893590 -5.790385749317901 -1.591563196579471 4.000000000000000
-8.688720021820437 -5.696100188923916 -1.751537330506423 4.000000000000000
-8.801204099435330 -5.679052114109967 -1.937079628024070 10.000000000000000
-8.927773623775222 -5.669429660977962 -2.129171069183197 7.000000000000000
-8.803922521666582 -5.499927506503906 -2.260778993111369 18.000000000000000
-9.127638376792488 -5.609437138931817 -2.511662526470746 19.000000000000000
-8.769298163734803 -5.298806309089201 -2.572966656269354 36.000000000000000
-7.118450438721148 -4.229008169131075 -2.218634097117715 6.000000000000000
