# This PCD file was generated using the MATLAB® pcwrite function
# from Computer Vision Toolbox®.
# .PCD v.7 - Point Cloud Data file format
VERSION .7
FIELDS x y z intensity
SIZE 8 8 8 8
TYPE F F F F
COUNT 1 1 1 1
WIDTH 638
HEIGHT 1
VIEWPOINT 0 0 0 1 0 0 0
POINTS 638
DATA ascii
9.876013379502309 -4.211455854169634 -0.647715459342821 17.000000000000000
9.134564651172873 -3.065191202962540 -2.309284634432070 50.000000000000000
9.146626495284973 -2.994878325629684 -2.468607617752253 110.000000000000000
9.148908376173987 -2.920081346271374 -2.625364061522022 114.000000000000000
9.144987958750264 -2.842050748754315 -2.780778088200802 72.000000000000000
6.668287852974028 -2.015279480367139 -2.141851938367863 0.000000000000000
6.664747955324728 -1.959163032304127 -2.256375612536122 103.000000000000000
6.724987401818451 -1.919982226221990 -2.393716085164398 32.000000000000000
6.644507303727698 -1.840988436644776 -2.482109640376410 53.000000000000000
6.675361176414047 -1.790366051510564 -2.610878504646005 54.000000000000000
6.792946017741537 -1.763310945547217 -2.778294964427424 30.000000000000000
6.660411225552807 -1.669976937002060 -2.843364791301209 57.000000000000000
6.747874206332030 -1.631863857718715 -3.002883621686038 78.000000000000000
9.789914558787581 -4.207613566023579 -0.656153191452481 22.000000000000000
9.145725099676003 -3.024488248333667 -2.484127057307630 111.000000000000000
9.144301962654742 -2.948443332343327 -2.640022638491722 112.000000000000000
9.147689888590349 -2.872662840761621 -2.797806624034131 111.000000000000000
9.145028838155843 -2.793485788625369 -2.953802413508062 1.000000000000000
6.648732617635051 -1.975991596573405 -2.263057177683992 5.000000000000000
6.686500684725455 -1.874179403966522 -2.510302004722484 33.000000000000000
6.648554850512165 -1.804553109133152 -2.612992628395464 74.000000000000000
6.758857034554452 -1.776139991035800 -2.777332950637559 58.000000000000000
6.683876870948192 -1.697241982913764 -2.866388603354186 25.000000000000000
6.728307103706803 -1.648599106757196 -3.007442186212054 87.000000000000000
9.718563264229356 -4.209673509443291 -0.665372845150009 20.000000000000000
9.141031751310598 -3.052902916280809 -2.498651297259311 79.000000000000000
9.146917948067999 -2.979203814162950 -2.656809493544551 113.000000000000000
9.142945383795594 -2.901005188398258 -2.812602816932609 119.000000000000000
9.169468405097684 -2.830794712276032 -2.978213300766988 2.000000000000000
6.639951088371506 -1.994943132768829 -2.272194410928020 0.000000000000000
6.721059070695433 -1.905585960484188 -2.535888624413188 1.000000000000000
6.639753113185513 -1.823563921960619 -2.622158885053857 81.000000000000000
6.717586356582019 -1.786891447947527 -2.773320842440539 39.000000000000000
6.719378005084138 -1.667899984212754 -3.016748724613071 81.000000000000000
9.639953503948137 -4.208177234602804 -0.673899698685744 20.000000000000000
9.827071365784784 -4.206856777133938 -0.857438294255085 1.000000000000000
9.125225482385611 -3.077616712127999 -2.510147260391457 0.000000000000000
9.149404542433846 -3.010015994029250 -2.673614825396332 112.000000000000000
9.149052202956945 -2.932871307041341 -2.830788880136121 117.000000000000000
9.219238078579609 -2.876240973701709 -3.011036883146261 10.000000000000000
6.645284547038690 -1.846552813568340 -2.637023321017781 27.000000000000000
6.676334770212632 -1.797434366344063 -2.769203447696678 53.000000000000000
6.816043185441756 -1.774566468522927 -2.949739843272129 23.000000000000000
6.728152889416583 -1.691645569797012 -3.034053058669449 73.000000000000000
9.412516039211001 -4.220691981299488 -0.507823798762749 22.000000000000000
9.576037678078606 -4.212707264943357 -0.683268532798309 21.000000000000000
9.751816575792713 -4.207592441404541 -0.865202472910160 0.000000000000000
9.148105113623807 -3.039664568185220 -2.689363520056241 108.000000000000000
9.151370634505932 -2.963627741854533 -2.847867643977274 117.000000000000000
9.239626403721855 -2.912826671253578 -3.034443722147393 13.000000000000000
6.629141248179070 -1.863537192981870 -2.643310697224996 0.000000000000000
6.663749215924493 -1.815573618852816 -2.776918223821399 71.000000000000000
6.728399525704988 -1.773426371069871 -2.925047474638120 75.000000000000000
6.729713848237003 -1.713661832356790 -3.048174969579450 60.000000000000000
9.341704287450755 -4.220742538806581 -0.517290466694248 20.000000000000000
9.497569665370643 -4.210446683850660 -0.691413894771000 32.000000000000000
9.691255013841799 -4.214303256628818 -0.874093998294177 0.000000000000000
9.849355362045928 -4.200798297036933 -1.058816612897961 0.000000000000000
9.849228924397330 -3.953556387223448 -1.565907241141587 0.000000000000000
9.143034184704652 -3.068117947033919 -2.704040340011684 19.000000000000000
9.149915074377207 -2.993242895904886 -2.863823859422870 113.000000000000000
9.245292316339350 -2.944934248413531 -3.053115827799137 13.000000000000000
6.715472463061583 -1.851413866061014 -2.811554782396850 39.000000000000000
6.722800020509364 -1.793663135265946 -2.935887675206124 92.000000000000000
6.777258322236118 -1.747597511914538 -3.083273677445999 40.000000000000000
9.278228993785230 -4.223743791462421 -0.526990628916460 20.000000000000000
9.437404149787229 -4.215922890102808 -0.700711851109985 25.000000000000000
9.608821794402328 -4.211113102942202 -0.880825838430810 0.000000000000000
9.773899210293395 -4.201757772398040 -1.065359023577864 0.000000000000000
9.815959927597495 -4.137094991073917 -1.239173811307862 0.000000000000000
9.807289357774083 -4.051322991069990 -1.406937622966605 1.000000000000000
9.799227386097016 -3.966480249615455 -1.573378868860505 1.000000000000000
9.828461541281438 -3.896743542392714 -1.746250124229725 0.000000000000000
9.151978051994510 -3.024090091524578 -2.880933330390284 113.000000000000000
9.243555794791323 -2.974775643068439 -3.069404199838544 14.000000000000000
6.752678662512190 -1.883594090782015 -2.840334519387398 18.000000000000000
6.724235481558478 -1.815816696665341 -2.949841167361625 97.000000000000000
6.771483944795460 -1.767971770419893 -3.094250313787764 35.000000000000000
9.207539434166199 -4.223096184166974 -0.536108372951485 18.000000000000000
9.373635903819368 -4.219461684195327 -0.709583707701921 24.000000000000000
9.533774238368336 -4.210719444820634 -0.888026198281148 0.000000000000000
9.705819145911436 -4.205497203857242 -1.072516654979287 0.000000000000000
9.736771909743831 -4.136753076638378 -1.244046124766436 1.000000000000000
9.724377142700314 -4.049985917185788 -1.410137318534769 1.000000000000000
9.712605680380234 -3.964214192274770 -1.574789108170660 1.000000000000000
9.760079923673249 -3.902511073710953 -1.749738038414253 0.000000000000000
9.859495069031542 -3.860980248000832 -1.935687089456897 0.000000000000000
9.146642493518435 -3.052561689625114 -2.895759352362681 51.000000000000000
9.234446434935053 -3.002288340123673 -3.083278735870753 11.000000000000000
6.718472381990931 -1.836066250884868 -2.960677891089589 97.000000000000000
6.730283978543344 -1.778998350012722 -3.088996348138790 64.000000000000000
9.147795859326298 -4.227116125181817 -0.545696051223113 20.000000000000000
9.302647555365624 -4.219384493402980 -0.717734601005455 23.000000000000000
9.477006906440709 -4.218045552235935 -0.896758504023122 0.000000000000000
9.630500896981824 -4.205708702281802 -1.078685674690899 0.000000000000000
9.657668725264838 -4.136005529986353 -1.248716560698923 1.000000000000000
9.656179645736760 -4.054360160834650 -1.415267584415020 1.000000000000000
9.633404204082289 -3.964510065106416 -1.577174493973187 1.000000000000000
9.684435976411988 -3.904982483883120 -1.751729322510512 0.000000000000000
9.838580740251716 -3.885949965865637 -1.947628784018363 29.000000000000000
9.149203264149465 -3.004817369088089 -3.071614593288568 2.000000000000000
6.716178346208267 -1.857292254637249 -2.973077513753663 46.000000000000000
6.703224865873946 -1.793595540299883 -3.090146830709765 79.000000000000000
9.084472010830943 -4.229153060544736 -0.554913213858060 19.000000000000000
9.231728506328801 -4.218947226514825 -0.725705922064180 23.000000000000000
9.402088543471198 -4.216938399550563 -0.903602542672164 0.000000000000000
9.555259471981085 -4.205536522393288 -1.084663533973505 0.000000000000000
9.585944903669882 -4.138000759611231 -1.254139552546798 1.000000000000000
9.573439765495239 -4.052210752431769 -1.418063141863176 1.000000000000000
9.568899284619368 -3.970461163941665 -1.581772621599565 2.000000000000000
9.597908390437023 -3.902610550109991 -1.751527739702900 0.000000000000000
9.766437585182466 -3.890465935304138 -1.949316726695114 19.000000000000000
9.877039078858159 -3.853129805892228 -2.140874992533125 0.000000000000000
9.150843687752884 -3.035685545452727 -3.089020730173655 1.000000000000000
6.791700050948132 -1.900331535771211 -3.020121598893751 16.000000000000000
6.676148350000582 -1.808066593207725 -3.091231858549391 64.000000000000000
9.017584519383171 -4.229176808747932 -0.563745471050242 19.000000000000000
9.168128117683885 -4.221487404377303 -0.734078274040250 25.000000000000000
9.338142185177382 -4.220372162223702 -0.911319560712835 1.000000000000000
9.491006023364752 -4.209819947964116 -1.091705395323019 0.000000000000000
9.547059887272210 -4.153890504894124 -1.263718790787073 3.000000000000000
9.549114513073338 -4.074517815964732 -1.429376291813358 3.000000000000000
9.551855881319149 -3.995923245224748 -1.594121275430858 3.000000000000000
9.551623406536866 -3.916245336930016 -1.758492752521595 2.000000000000000
9.687064530140470 -3.891683789639064 -1.949353244118395 18.000000000000000
9.365186145368458 -3.218869016756881 -3.015969946063997 9.000000000000000
6.663134576620213 -1.826270512557911 -3.098799385053769 53.000000000000000
8.961592760296199 -4.233980772083825 -0.573102102797779 20.000000000000000
9.108198982773095 -4.225387676035984 -0.742586208742359 25.000000000000000
9.263370291659498 -4.218532506857313 -0.917798631611761 1.000000000000000
9.419540011331609 -4.210535506129533 -1.097739826436744 0.000000000000000
9.548148979461743 -4.187140848815094 -1.278561135881910 4.000000000000000
9.553842816484977 -4.109251360082531 -1.445040033202629 3.000000000000000
9.549296917440966 -4.027473528968550 -1.608890722208946 3.000000000000000
9.552699757178400 -3.949239725763751 -1.774141183123018 2.000000000000000
9.589564042986400 -3.885113706199967 -1.945491443147328 23.000000000000000
9.780000172671446 -3.881513624751054 -2.152451765642708 18.000000000000000
9.315709424787492 -3.232992123825221 -3.017062120707755 28.000000000000000
8.894819303196696 -4.233360417349077 -0.581612534512013 20.000000000000000
9.041086695942472 -4.225612132065018 -0.750344897894912 25.000000000000000
9.203163864958864 -4.222956994117880 -0.925544758802225 1.000000000000000
9.355398493559280 -4.214155807700744 -1.104450023826698 1.000000000000000
9.501902438284366 -4.199576074879511 -1.287025580408270 1.000000000000000
9.547522681827438 -4.139324849682851 -1.459062859779731 3.000000000000000
9.553886807622202 -4.062142463876167 -1.624902911043142 2.000000000000000
9.553640834647982 -3.982280787651524 -1.789805165611096 2.000000000000000
9.557696006685598 -3.904789003397076 -1.954772079485333 53.000000000000000
9.696929406896103 -3.881525231073494 -2.150399488051793 13.000000000000000
9.865928746394079 -3.867619017236693 -2.357479397276673 8.000000000000000
9.266243840842767 -3.246874225791442 -3.018031948792910 20.000000000000000
8.831713363818277 -4.234129426904796 -0.590195777325210 22.000000000000000
8.977648885306527 -4.227197306833479 -0.758239685887146 26.000000000000000
9.128540589782121 -4.220396554193127 -0.931664975221795 1.000000000000000
9.280447497178397 -4.212524472363906 -1.109700780323432 1.000000000000000
9.448404862960293 -4.208561569549886 -1.294384433194426 1.000000000000000
9.559233980213639 -4.177333053165938 -1.475882879654152 3.000000000000000
9.551067703714169 -4.093764962151346 -1.639693310875563 2.000000000000000
9.547180605340809 -4.012314580370300 -1.804111470267900 4.000000000000000
9.554850262947189 -3.936298854818649 -1.969971517106625 54.000000000000000
9.610329410032444 -3.879642582783212 -2.147323464343614 23.000000000000000
9.840821925843642 -3.891262098400252 -2.368256553962992 32.000000000000000
9.256424960388573 -3.274536452464974 -3.031861470148912 14.000000000000000
8.768665909733819 -4.234582250106207 -0.598621191203105 23.000000000000000
8.910665306058096 -4.226755620900743 -0.765666196587348 26.000000000000000
9.064834889660936 -4.222500788158094 -0.938718017931951 1.000000000000000
9.220045618878913 -4.217126586658503 -1.116513384554669 1.000000000000000
9.365966396507121 -4.204285240512631 -1.297598965746773 1.000000000000000
9.538163004097122 -4.201082866028267 -1.487660330867462 2.000000000000000
9.555376056712493 -4.128546317605976 -1.655745668328239 2.000000000000000
9.533350351986932 -4.039279109434326 -1.817030363631291 3.000000000000000
9.559134524585698 -3.970847939736105 -1.986684116906173 52.000000000000000
9.560112423103604 -3.892076953223208 -2.152190383727447 52.000000000000000
9.750405275432630 -3.888784298888828 -2.363166020729656 16.000000000000000
9.250101716037108 -3.303468629905280 -3.046862198098086 14.000000000000000
8.716448451774022 -4.239958044723497 -0.607639832919753 23.000000000000000
8.854545051874801 -4.231134159503430 -0.773867978793967 24.000000000000000
8.997582250616645 -4.222594455707007 -0.945233149027659 1.000000000000000
9.152468994988412 -4.218100965505402 -1.122290310293297 1.000000000000000
9.298096390594869 -4.206126855976753 -1.302629794929378 1.000000000000000
9.462739966105623 -4.200659709243150 -1.490842158314761 0.000000000000000
9.559537858693155 -4.163393446922851 -1.671822638419576 2.000000000000000
9.497692553411291 -4.056923494205422 -1.825746949344233 4.000000000000000
9.498067756146122 -3.978152995980690 -1.989761704382505 17.000000000000000
9.556985825351429 -3.923597196641186 -2.167612274494977 54.000000000000000
9.674592266146322 -3.891661001180412 -2.361377381045486 16.000000000000000
9.254443367020379 -3.336291488160981 -3.065428693125500 15.000000000000000
8.649922286492094 -4.238053346926920 -0.615509761294566 25.000000000000000
8.794871700365352 -4.233506696598826 -0.781611683616321 24.000000000000000
8.944797717702079 -4.229156868976544 -0.953113826874953 1.000000000000000
9.084961211814697 -4.218735160507624 -1.127897790280293 1.000000000000000
9.233903848219359 -4.209272511714473 -1.308001775214627 1.000000000000000
9.398244324331024 -4.204702655865326 -1.495558489641485 1.000000000000000
9.487622805630000 -4.164973389333693 -1.674522667577756 2.000000000000000
8.919459034187774 -3.840783929541677 -1.729197890358555 13.000000000000000
9.426194561804039 -3.980572357693994 -1.990395887299421 6.000000000000000
9.557349250493914 -3.956638965439026 -2.183865243382246 53.000000000000000
9.580794866622869 -3.886820348603147 -2.354955052942058 34.000000000000000
9.251465682514821 -3.366569897466353 -3.081630388402212 13.000000000000000
8.587049298686201 -4.237579718259524 -0.623472913067068 25.000000000000000
8.731662557325471 -4.233843231700845 -0.788883054946291 14.000000000000000
8.877665597565263 -4.228613876097559 -0.959311328339960 1.000000000000000
9.024723610326154 -4.222398033722224 -1.134240980585853 1.000000000000000
9.166165524129189 -4.210441680820648 -1.312697389604200 1.000000000000000
9.319374078050814 -4.201916531184830 -1.497794464641334 1.000000000000000
9.502433977363435 -4.204528747302265 -1.692474673062417 1.000000000000000
8.891771540571641 -3.859711720822905 -1.738426962061545 24.000000000000000
9.423023065799320 -4.011843510937065 -2.005453550986943 4.000000000000000
9.557575660348080 -3.989725314611869 -2.200132589338012 53.000000000000000
9.562920635751487 -3.912495910237421 -2.367049781203127 52.000000000000000
8.534963426859061 -4.242120527268140 -0.632073361492570 25.000000000000000
8.679263264637836 -4.239111975016947 -0.796983592287877 2.000000000000000
8.817784488679786 -4.231177021176474 -0.966127179343543 1.000000000000000
8.964536814952488 -4.225761992059427 -1.140434688979361 1.000000000000000
9.098498266113527 -4.211270094542841 -1.317223402592839 1.000000000000000
9.017246157751080 -4.097237615567866 -1.463577689123157 1.000000000000000
8.799680889988991 -3.924286488597835 -1.581546012536789 20.000000000000000
8.889283157179568 -3.889568245940219 -1.752570629577349 25.000000000000000
9.553160612918207 -4.100411510153974 -2.049137318772215 38.000000000000000
9.550454157372332 -4.019820834296264 -2.214741937131099 41.000000000000000
9.570185550980115 -3.948519734391647 -2.385396492604765 52.000000000000000
8.468636808637754 -4.239261148663515 -0.639468151527377 26.000000000000000
8.609013790613728 -4.235327091922381 -0.803286983245072 1.000000000000000
8.747206501954286 -4.228246328127393 -0.971600432711858 1.000000000000000
8.897224255848466 -4.225418368245500 -1.145554954786214 1.000000000000000
9.012935424600419 -4.203378197327030 -1.318950629181637 1.000000000000000
8.877766761020922 -4.065015508156606 -1.455091150189003 25.000000000000000
8.779218706166471 -3.945889540127273 -1.592108867637792 92.000000000000000
8.890275634623187 -3.921038767854844 -1.767436030357144 22.000000000000000
9.556739082001789 -4.135224336596804 -2.065941384588896 46.000000000000000
9.554016433991414 -4.054502307738387 -2.231868503197723 40.000000000000000
9.566497560095600 -3.980137531071516 -2.401067609718821 47.000000000000000
9.848843925730513 -4.016339657295873 -2.644028949129273 26.000000000000000
9.443296352185698 -3.613775710546401 -3.032146948724797 7.000000000000000
8.420205622402380 -4.245049892189829 -0.648068429475192 27.000000000000000
8.438857868947684 -4.181636667561507 -0.799935402520012 4.000000000000000
8.537172978106710 -4.157010423264144 -0.961185665081355 9.000000000000000
8.837154464759863 -4.228165211856768 -1.151440796228399 0.000000000000000
8.949030939481178 -4.205161756841272 -1.323644908201692 35.000000000000000
8.875065507042825 -4.095022188946707 -1.468829982582320 23.000000000000000
8.765880231250488 -3.970672779902974 -1.603944340153204 65.000000000000000
8.804850261871223 -3.914196347552726 -1.765019778594882 44.000000000000000
9.337254088421968 -4.072866403387551 -2.034204844258349 29.000000000000000
9.564618680913243 -4.092323241167636 -2.250710105394436 54.000000000000000
9.566274726946640 -4.013285197596946 -2.417650465086136 41.000000000000000
9.733311393630744 -4.002960397356444 -2.630220783853300 6.000000000000000
9.339506300117382 -3.606169946190662 -3.016139318608971 23.000000000000000
8.361126732484419 -4.245185403905522 -0.655713847498997 28.000000000000000
8.351110595274100 -4.167961358323568 -0.804036032166625 11.000000000000000
8.484847621580958 -4.161734580980262 -0.968156039089277 21.000000000000000
8.762827561300099 -4.223715416676256 -1.155290963286140 1.000000000000000
8.885191885779294 -4.206626025006154 -1.328180198099151 39.000000000000000
8.954726813127836 -4.163403242154855 -1.496357292047516 22.000000000000000
8.863700522951360 -4.046202957125445 -1.636292965572204 19.000000000000000
8.769814913974219 -3.929429864581492 -1.772543741059841 82.000000000000000
9.545500248021261 -4.197148060245328 -2.095678690879139 34.000000000000000
9.564283139524690 -4.125603883511164 -2.267042263249929 54.000000000000000
9.565913537833410 -4.046475650639262 -2.434246699798321 51.000000000000000
9.585740114954211 -3.975595012269207 -2.607341701230930 22.000000000000000
9.296543931766040 -3.621642652542605 -3.019561461872930 23.000000000000000
8.171543147093017 -4.248934332370460 -0.504594524743130 26.000000000000000
8.298555397076916 -4.243210937279958 -0.662929304974031 29.000000000000000
8.299114412992241 -4.171728057132512 -0.811394464732085 18.000000000000000
8.428992750255087 -4.164440859038289 -0.974585833941574 21.000000000000000
8.702892079039643 -4.225826375793529 -1.160860414622176 1.000000000000000
8.817842655269716 -4.206065048340352 -1.332016409822194 26.000000000000000
8.955239019920620 -4.195369748583138 -1.510821885188505 34.000000000000000
8.882265375780170 -4.086063753690113 -1.654237224522704 8.000000000000000
8.767017761610486 -3.959073140591662 -1.786559664565369 54.000000000000000
8.889142337433061 -3.939792367922174 -1.966617553699060 47.000000000000000
9.352394808129603 -4.066991063516626 -2.232911785572000 43.000000000000000
9.565413713367956 -4.079708447109064 -2.450856070580064 51.000000000000000
9.570866460618427 -4.002803083423516 -2.620321100236468 52.000000000000000
9.260701706490051 -3.639714354577913 -3.025207979708460 12.000000000000000
8.123531100684353 -4.253309950554645 -0.513276651258236 22.000000000000000
8.243150486290689 -4.244576154054657 -0.670566426833409 29.000000000000000
8.236493692877229 -4.169841689026799 -0.817567083270705 21.000000000000000
8.369626233009599 -4.165099413874088 -0.980460908075005 22.000000000000000
8.650149264115438 -4.231129668457775 -1.167244377677399 0.000000000000000
8.757716510007882 -4.208598136986724 -1.336774944292129 33.000000000000000
8.898417459232975 -4.200379172163717 -1.515558488238245 43.000000000000000
9.029430443910670 -4.185772335813565 -1.696440924794324 25.000000000000000
8.792730224501286 -4.001771026553556 -1.806462800662678 11.000000000000000
8.775081280073127 -3.920180498909711 -1.956271296134086 53.000000000000000
9.427243616112412 -4.132693166090695 -2.267052050001285 37.000000000000000
9.568350592781545 -4.114520706487122 -2.468400755449929 53.000000000000000
9.570187543498841 -4.035997807877907 -2.637212178999701 51.000000000000000
9.263953063587460 -3.673136300039251 -3.043623392764372 12.000000000000000
8.068484576287187 -4.253728899423404 -0.521385742445961 21.000000000000000
8.191338955352840 -4.247504786746033 -0.678360674780425 29.000000000000000
8.188144472218012 -4.174880245144947 -0.825014570043508 22.000000000000000
8.313878103346898 -4.167245289657510 -0.986611158722788 22.000000000000000
8.511968320270570 -4.194060113895079 -1.161832636718643 1.000000000000000
8.694083401146889 -4.209106720492343 -1.340834974711034 40.000000000000000
8.820225659263484 -4.194923614525268 -1.516473273080754 46.000000000000000
8.979553524841924 -4.194586456991950 -1.701822243748945 40.000000000000000
8.839671261892899 -4.054488269517952 -1.830888542212802 8.000000000000000
8.761295178341953 -3.945013783644333 -1.968104937450809 32.000000000000000
8.973052047652274 -3.965242333405402 -2.173360114544531 53.000000000000000
9.556857074461769 -4.143203883665693 -2.482258736853904 51.000000000000000
9.565802603404345 -4.067717251543467 -2.653126629883758 50.000000000000000
9.259955449303471 -3.703780627545364 -3.059715369104553 11.000000000000000
8.013492139822789 -4.253876592352112 -0.529359671713981 22.000000000000000
8.136033739194508 -4.248334348721394 -0.685730454451758 27.000000000000000
8.132739269069150 -4.176045990079370 -0.831620027466010 22.000000000000000
8.258182669636057 -4.169116431725216 -0.992624386987116 21.000000000000000
8.384763459391596 -4.161547371233739 -1.157535834015083 20.000000000000000
8.630522150069247 -4.209297492013059 -1.344737164243134 38.000000000000000
8.770660512317502 -4.202730353139895 -1.522139204038543 58.000000000000000
8.911870124039206 -4.194768321543445 -1.703674153361783 43.000000000000000
8.854227474988416 -4.092671850025766 -1.848750104575245 14.000000000000000
9.032820041559090 -4.099331182769927 -2.044512154715290 71.000000000000000
8.776942339829009 -3.909644579821770 -2.141097480916536 43.000000000000000
9.281498113119714 -4.056587920362555 -2.427126535746285 35.000000000000000
8.941675083301080 -3.833794226674399 -2.496077829754242 67.000000000000000
9.266467121442803 -3.738737546339630 -3.079344840515570 11.000000000000000
7.962076638608574 -4.255635527311572 -0.537436377264457 23.000000000000000
8.080783173709261 -4.248891554175882 -0.692964544800208 26.000000000000000
8.077389075918362 -4.176938575233766 -0.838089407497087 23.000000000000000
8.198996565490205 -4.168910761283759 -0.998069328018995 22.000000000000000
8.328841557308438 -4.163855737069313 -1.162824025434157 23.000000000000000
8.595472646107343 -4.223143187523021 -1.352958095322373 19.000000000000000
8.710447857116117 -4.205145609943323 -1.525815364857642 45.000000000000000
8.847829596908186 -4.196298946184294 -1.706044131412810 36.000000000000000
9.014635217783127 -4.198999810762398 -1.897400453125673 0.000000000000000
8.989912105451234 -4.111865954908377 -2.050184066157660 55.000000000000000
8.766482727873768 -3.936113067810759 -2.153810228246743 40.000000000000000
9.038904817773835 -3.982567016603396 -2.379697386956517 69.000000000000000
8.810034566690902 -3.808466419351048 -2.475200692143334 15.000000000000000
9.272818933613557 -3.773776426654766 -3.099006373991953 11.000000000000000
7.907190849424076 -4.255251504132760 -0.545145400200764 23.000000000000000
8.032637891654534 -4.252908971500412 -0.700678087060730 27.000000000000000
8.032692483949340 -4.183076882715862 -0.845538438861241 22.000000000000000
8.146955405045746 -4.172035734682214 -1.004240736442470 22.000000000000000
8.272974136354518 -4.165888780473319 -1.167975003129649 23.000000000000000
8.542661622114744 -4.228049346690561 -1.358276530017867 1.000000000000000
8.646745198571120 -4.205534885730762 -1.528715080022704 42.000000000000000
8.762533052260387 -4.187317969530523 -1.704107605197216 18.000000000000000
8.961037302693009 -4.206131295220292 -1.901228546785688 1.000000000000000
9.537310420446422 -4.396306563626542 -2.191388268349129 40.000000000000000
8.919454611719861 -4.036570946733520 -2.206970870096870 71.000000000000000
8.786295516978452 -3.902480373544546 -2.328802701480730 32.000000000000000
8.881009697436948 -3.870613635826109 -2.511191119008644 58.000000000000000
7.859383637455911 -4.258400985695824 -0.553214139655778 24.000000000000000
7.977489388651365 -4.252942182950214 -0.707650932619688 27.000000000000000
7.977439362216545 -4.183453862639060 -0.851750551117169 23.000000000000000
8.087892953030231 -4.171262210588028 -1.009403363796746 23.000000000000000
8.213623747698131 -4.165851960757025 -1.172483847354058 22.000000000000000
8.479262511505135 -4.227399067177590 -1.361759298778468 1.000000000000000
8.586664741867541 -4.207344160506722 -1.532089986201461 39.000000000000000
8.723517169849504 -4.200111297479698 -1.711004756312587 42.000000000000000
8.882626120390443 -4.201248926146409 -1.899611714511958 0.000000000000000
9.553807493643282 -4.438150732144220 -2.211623035956443 16.000000000000000
9.000813858112615 -4.105560123398503 -2.242869136790637 62.000000000000000
8.768480279220560 -3.925819864202015 -2.339708526025625 44.000000000000000
9.107547889464694 -4.001718864460246 -2.591759551140920 74.000000000000000
9.626931969159774 -4.067497405457519 -3.082281901086576 7.000000000000000
7.804604111192728 -4.257496293606934 -0.560663872098755 25.000000000000000
7.925912823395104 -4.254589851150139 -0.714805648012985 26.000000000000000
7.925766254021460 -4.185417944965433 -0.858208548416962 23.000000000000000
8.043010722982560 -4.177524308404824 -1.016203307746213 19.000000000000000
8.157875182261474 -4.167325332872608 -1.177356394912160 22.000000000000000
8.281512612981325 -4.158923163619454 -1.343280670649581 8.000000000000000
8.530190760102935 -4.210603863391623 -1.535954654879504 33.000000000000000
8.663236912002263 -4.202413864873159 -1.713605530699311 40.000000000000000
8.832690870963328 -4.209480054225625 -1.903910095324273 0.000000000000000
9.509850310761763 -4.451926461592677 -2.217864253617714 17.000000000000000
9.563676507478782 -4.396594159596079 -2.399930719021724 41.000000000000000
8.849746999104589 -3.993850286479606 -2.377215585727575 30.000000000000000
8.791896960182811 -3.894379929627319 -2.517926290669395 25.000000000000000
9.367670277219609 -3.991174972584893 -3.016898393302003 15.000000000000000
7.753384184833005 -4.258243471465780 -0.568236060190238 24.000000000000000
7.870877301056089 -4.254090363440362 -0.721513472780557 26.000000000000000
7.881172499552589 -4.190868395091528 -0.865312733824582 23.000000000000000
7.991109739435468 -4.179888460400533 -1.021994907477558 5.000000000000000
8.102185269420747 -4.168524347642756 -1.182092476539359 23.000000000000000
8.225554795695235 -4.160834523182092 -1.347427316670978 21.000000000000000
8.498518259761456 -4.225891487304597 -1.544177621268889 1.000000000000000
8.599485030171023 -4.202689491918917 -1.715352514901470 39.000000000000000
8.768630638027387 -4.210675202252379 -1.905013142995163 0.000000000000000
9.444660705051376 -4.455484003176199 -2.219013849415872 14.000000000000000
9.547922630394593 -4.423703903727427 -2.412806087555635 22.000000000000000
8.951824940540739 -4.072034539061670 -2.420691832225163 63.000000000000000
8.773849517627744 -3.917777954081837 -2.528769768985252 48.000000000000000
8.809341779453611 -3.858495805666021 -2.695858217790913 0.000000000000000
9.309900245034836 -3.999683108650780 -3.015870762793708 21.000000000000000
7.705707956937823 -4.260672285474796 -0.575944926335933 25.000000000000000
7.822906642084866 -4.257131289991706 -0.728739218786819 27.000000000000000
7.822567908045265 -4.188589971439665 -0.870747595561083 22.000000000000000
7.925193786411786 -4.174591239517970 -1.025839866041398 3.000000000000000
8.046555384222852 -4.169449331899584 -1.186692343177597 24.000000000000000
8.173181968676564 -4.164267210827044 -1.352020378445179 21.000000000000000
8.431527573386738 -4.223363674748166 -1.545858353807613 1.000000000000000
8.560533166243122 -4.214818844554918 -1.721914637035246 9.000000000000000
8.694049675926287 -4.206423698306350 -1.903637545031278 0.000000000000000
9.368943630284491 -4.453681183457308 -2.217494795635369 12.000000000000000
9.525011312000531 -4.447473609245792 -2.423856844230714 28.000000000000000
9.547572298351133 -4.377398835509485 -2.598969534765323 41.000000000000000
8.752200932121649 -3.939530017360035 -2.538555905645599 16.000000000000000
8.738319302411838 -3.858665388317609 -2.690400191439257 12.000000000000000
9.269761676508232 -4.015525981049748 -3.020431352680233 14.000000000000000
7.654584755236916 -4.260930018514892 -0.583273179747948 25.000000000000000
7.767983596504560 -4.256110191298669 -0.735187652208387 27.000000000000000
7.774548817869128 -4.191687488444353 -0.877224417004459 22.000000000000000
7.887456819595033 -4.183857908775114 -1.033199844272016 3.000000000000000
7.994502512109742 -4.171935241651816 -1.191680294095116 23.000000000000000
8.117337715822709 -4.165638516293092 -1.355898284849432 21.000000000000000
8.234263050052524 -4.154720889747974 -1.523256495417457 8.000000000000000
8.503951043265975 -4.218026722498841 -1.724810488726569 1.000000000000000
8.644270995443554 -4.213828281854179 -1.907523569547488 0.000000000000000
9.307441994759367 -4.458253951229803 -2.219151013458427 12.000000000000000
9.435039555913544 -4.439638945577144 -2.417695309848082 21.000000000000000
9.556254049688054 -4.415895234419653 -2.618583933436248 50.000000000000000
8.628399141431837 -3.914882601688601 -2.518499249778370 2.000000000000000
8.491589726549766 -3.780210097967863 -2.630307117272864 9.000000000000000
9.271742217132074 -4.049587565394367 -3.038705778658757 18.000000000000000
7.606996109662880 -4.262889534265219 -0.590747836412339 25.000000000000000
7.720104765743321 -4.258669445764687 -0.742173131861790 27.000000000000000
7.723072889464309 -4.192654583372886 -0.883185534609657 22.000000000000000
7.832203069555786 -4.183591931535016 -1.038149135546545 1.000000000000000
7.942500630859226 -4.174167598142540 -1.196541930488736 23.000000000000000
8.058041018711107 -4.164918944195434 -1.359047140113709 21.000000000000000
8.181749324283153 -4.158303798070513 -1.527057142855006 20.000000000000000
8.436867899756733 -4.215681206032225 -1.725408940269251 1.000000000000000
8.573400215591199 -4.210619374993472 -1.906592043996396 1.000000000000000
9.235439864774715 -4.457427186675082 -2.218120235609390 10.000000000000000
9.359303120376550 -4.438018159152915 -2.414940148313979 18.000000000000000
9.575311865273493 -4.459403914183897 -2.641148124000992 52.000000000000000
8.522451809464171 -3.897612190851121 -2.503284715147200 6.000000000000000
8.305232707552408 -3.727175646006053 -2.588159071081424 24.000000000000000
8.534069291299495 -3.758060492819706 -2.813226379729618 46.000000000000000
7.559450096264038 -4.264619683572298 -0.598108014142377 25.000000000000000
7.668783575093562 -4.259063027423684 -0.748703283556180 27.000000000000000
7.671650830377890 -4.193370689038559 -0.889021822608715 22.000000000000000
7.777014188174833 -4.183054057924956 -1.042963597353668 19.000000000000000
7.887047209459102 -4.174292279421969 -1.200744053377549 24.000000000000000
7.998819317762951 -4.163905372529601 -1.362050502147907 22.000000000000000
8.122262717530782 -4.158035992056661 -1.529408067250484 21.000000000000000
8.250410829586762 -4.152863958947083 -1.701207242376951 10.000000000000000
8.502635524341549 -4.207052894817334 -1.905484473936793 1.000000000000000
8.562476844337764 -4.163942997400294 -2.071498251165242 18.000000000000000
9.287190989131908 -4.437694650107641 -2.412909804321973 18.000000000000000
9.576597207682296 -4.494828004414020 -2.658904122481119 51.000000000000000
8.500932828104132 -3.918597584217812 -2.512687410925567 35.000000000000000
8.249035600834164 -3.731780097924664 -2.586171873040134 26.000000000000000
8.320084751647542 -3.693825762404115 -2.758620119262837 31.000000000000000
7.508478135618576 -4.264150228676505 -0.605074304706369 26.000000000000000
7.620995535261448 -4.261151522662423 -0.755454004183420 28.000000000000000
7.616797945901971 -4.191917610978089 -0.894324210829206 22.000000000000000
7.728876513909657 -4.186027761571367 -1.048591155832205 23.000000000000000
7.838654903387367 -4.177872835499941 -1.205887173823849 24.000000000000000
7.946678652955248 -4.166270533984152 -1.366112815370975 17.000000000000000
8.066357163747515 -4.159281060260488 -1.532279076610250 22.000000000000000
8.187231717984387 -4.151286678924565 -1.702043391166588 21.000000000000000
8.319692698493370 -4.147157603810802 -1.878843583641375 12.000000000000000
8.449595279229019 -4.140060516712158 -2.059044082867507 19.000000000000000
9.208163437867482 -4.433631856788159 -2.408865845163168 20.000000000000000
9.577728180398353 -4.530308397923839 -2.676679420869069 51.000000000000000
8.514378119710154 -3.955776634287302 -2.532463712321975 5.000000000000000
8.196399152616250 -3.737702794677235 -2.585150430759027 7.000000000000000
8.270861120484302 -3.701891163990726 -2.758195449134916 32.000000000000000
7.464490534210395 -4.267392914247064 -0.612485738705277 27.000000000000000
7.573251691129974 -4.263009933465113 -0.762089974986386 27.000000000000000
7.565493346628077 -4.192122851006101 -0.899906897517047 22.000000000000000
7.680782518895549 -4.188769594780356 -1.054103021185377 23.000000000000000
7.783321739214126 -4.177472173729515 -1.209828476104105 24.000000000000000
7.887599355799820 -4.164689904831658 -1.368835417053313 13.000000000000000
8.010516518621250 -4.160251600946197 -1.535013915806858 22.000000000000000
8.134645858494229 -4.154759772988523 -1.704925800625654 22.000000000000000
8.263350304455983 -4.149595947377057 -1.880423149017023 21.000000000000000
8.389511806887391 -4.141520793968774 -2.059198182599555 20.000000000000000
8.561966281041229 -4.153938230935011 -2.255200783941316 22.000000000000000
9.575204717213424 -4.564176393092061 -2.693489275307205 52.000000000000000
8.503168287117653 -3.981615847670883 -2.544965289062444 2.000000000000000
8.227627242940398 -3.781893961883762 -2.610594570647101 36.000000000000000
8.214702835205703 -3.706572934740167 -2.755313123533336 32.000000000000000
7.420537111481356 -4.270426468868926 -0.619792506498419 26.000000000000000
7.525553187588264 -4.264638523451550 -0.768611400561494 27.000000000000000
7.517720399960524 -4.194016126481478 -0.905784035424938 22.000000000000000
7.625772359363256 -4.187457403898042 -1.058533142471601 22.000000000000000
7.731542491411872 -4.178683471600250 -1.214182501796001 24.000000000000000
7.839070113352788 -4.168384180084488 -1.373247641600188 23.000000000000000
7.958235673566946 -4.162775347900504 -1.538288128693156 22.000000000000000
8.078617390486608 -4.156179065002631 -1.706942482265055 23.000000000000000
8.200078277690357 -4.148220214159593 -1.880262028172798 22.000000000000000
8.326006451672283 -4.140945015147576 -2.058340824119254 21.000000000000000
8.463203797153373 -4.137212369852561 -2.244440084873657 21.000000000000000
9.583019218477729 -4.603114190580641 -2.713275954775270 51.000000000000000
9.577340908719181 -4.519689080227866 -2.884359155209880 46.000000000000000
8.439894545803460 -3.910293842314123 -2.694000393926709 24.000000000000000
8.172531368131152 -3.717310814907509 -2.756990268804736 44.000000000000000
7.369715189497183 -4.269251815158900 -0.626407985626708 26.000000000000000
7.474440778652234 -4.264063456984263 -0.774659848728462 25.000000000000000
7.473462267722534 -4.197627063702478 -0.911969718247298 22.000000000000000
7.577781273110438 -4.189716691573965 -1.063804973311965 22.000000000000000
7.676340825104978 -4.177748941262693 -1.217859318889123 24.000000000000000
7.787101077641596 -4.169979349329653 -1.376927388338735 24.000000000000000
7.899035442984369 -4.161370513448508 -1.540076141065129 23.000000000000000
8.022655500293233 -4.157323524054374 -1.708822939908884 22.000000000000000
8.143877543941185 -4.150086813008969 -1.881558394995902 23.000000000000000
8.266080514389293 -4.141801991498349 -2.058196587513920 22.000000000000000
8.403036578843457 -4.138877625709115 -2.243678286658611 21.000000000000000
9.576703811698318 -4.635394252256778 -2.729124443690263 51.000000000000000
9.584941189074589 -4.558517619576891 -2.904623127703210 32.000000000000000
8.365925314450857 -3.906688890250749 -2.686360278857196 23.000000000000000
8.168596357399345 -3.745375857353225 -2.771535537754794 50.000000000000000
8.292469076092644 -3.730777321966353 -2.964178334032682 6.000000000000000
7.329291111736676 -4.273857739985861 -0.633794775759990 26.000000000000000
7.426842428377967 -4.265223491544504 -0.780948212893622 21.000000000000000
7.418854301873449 -4.195154763405613 -0.916766796218655 22.000000000000000
7.522900643576925 -4.187883362803633 -1.067976987777551 23.000000000000000
7.628157263863425 -4.180350336419450 -1.222515367005853 23.000000000000000
7.735189786412126 -4.171321779105027 -1.380481649044862 19.000000000000000
7.850360377177215 -4.165213807656966 -1.543773262156643 19.000000000000000
7.970245059502192 -4.160011696530629 -1.711315393552344 23.000000000000000
8.084259077811286 -4.149889257666656 -1.881907094393523 23.000000000000000
8.216686350350745 -4.147639784417936 -2.060527514660575 22.000000000000000
8.342946019534939 -4.140245922475837 -2.242769586147521 22.000000000000000
9.580701268575099 -4.672782811887828 -2.747967975659306 51.000000000000000
9.620185083041312 -4.610775589554086 -2.933408159598925 0.000000000000000
8.281660437703325 -3.897802635516517 -2.675169342142673 24.000000000000000
8.171480500201712 -3.776667954491014 -2.788451469246648 48.000000000000000
8.308935247851919 -3.768565241852570 -2.986555049702690 7.000000000000000
7.278572935789462 -4.272217564151933 -0.640178961654381 28.000000000000000
7.382741144927663 -4.268148067602251 -0.787490482491906 21.000000000000000
7.378143045843339 -4.200283238547791 -0.923160826209627 12.000000000000000
7.471555078768676 -4.187720763720127 -1.072512708564947 22.000000000000000
7.573086265495205 -4.178893131682243 -1.225933362522962 24.000000000000000
7.679865588905077 -4.170526380333709 -1.383285309432685 3.000000000000000
7.791305605554863 -4.163252544288227 -1.545286126685594 21.000000000000000
7.910936942723793 -4.158789386145565 -1.712176255509617 24.000000000000000
8.031678037317910 -4.152994145868203 -1.883741895602887 22.000000000000000
8.153420886260724 -4.146165799535045 -2.059226314481549 21.000000000000000
8.282933604019295 -4.141317664256143 -2.241714280439862 22.000000000000000
9.584530256281743 -4.710244911836186 -2.766838744296665 51.000000000000000
8.245587458343934 -3.982489027713900 -2.529835688525959 0.000000000000000
8.211431140268919 -3.895060791292475 -2.668273610550076 23.000000000000000
8.201919645443681 -3.820923342923778 -2.814895191154585 35.000000000000000
7.128795618272889 -4.275860491418710 -0.502865877563576 27.000000000000000
7.231351156679976 -4.272359227058095 -0.646748083688477 29.000000000000000
7.331793263428519 -4.266856875145301 -0.793183427316437 21.000000000000000
7.420249770056691 -4.252670859489035 -0.939946759570134 1.000000000000000
7.423727485582280 -4.189258522845228 -1.077426214911648 22.000000000000000
7.525011429604087 -4.181011704096369 -1.230349590375447 24.000000000000000
7.624614006379819 -4.169459290050773 -1.385954718714138 3.000000000000000
7.742741804365235 -4.166599161425246 -1.548736510496667 19.000000000000000
7.855183014717098 -4.159111523236160 -1.713649655730191 23.000000000000000
7.979154228576093 -4.155844069485510 -1.885450043548841 23.000000000000000
8.097193097186134 -4.147934191266275 -2.059536329324006 21.000000000000000
8.223000814734625 -4.142093260618879 -2.240512669281150 23.000000000000000
9.581252416712632 -4.744344545124623 -2.783720705168644 51.000000000000000
8.182856547198098 -3.911820559790183 -2.674781231424362 40.000000000000000
8.370355172352026 -3.930306455445598 -2.889150299822137 19.000000000000000
8.427528850911088 -3.884305344044362 -3.062827690434058 9.000000000000000
7.092171775375165 -4.281403775815291 -0.510569502620790 43.000000000000000
7.187608637682419 -4.274311977078677 -0.653516024374956 29.000000000000000
7.291216746833786 -4.271356573042429 -0.799884602063190 15.000000000000000
7.393217146321913 -4.265598603154594 -0.948025729659920 1.000000000000000
7.375950635949972 -4.190566134756670 -1.082225339871385 22.000000000000000
7.480441755024755 -4.184832043474881 -1.235221404278608 23.000000000000000
7.576355442430144 -4.171930870253330 -1.389759340240764 3.000000000000000
7.680375200856969 -4.162206399454897 -1.549276819163699 4.000000000000000
7.802966048214923 -4.161007989940994 -1.715749794711445 24.000000000000000
7.923222942820067 -4.156621056136894 -1.886206667904949 24.000000000000000
5.597530939433392 -2.888502261982847 -1.433806843548280 2.000000000000000
8.166613965838895 -4.144331434368764 -2.240115464673203 23.000000000000000
9.584755628951937 -4.781932314996759 -2.802635700205055 51.000000000000000
5.597227249270011 -2.745048013253137 -1.738546095150851 15.000000000000000
5.611230352065903 -2.703314595924562 -1.845047460504901 0.000000000000000
8.400058336880299 -3.975390271416267 -2.915971900916856 15.000000000000000
8.422596446296247 -3.913154024252729 -3.077945854837691 14.000000000000000
7.137447324251425 -4.336528778237057 -0.524202107071295 22.000000000000000
7.143906628609836 -4.276057048808489 -0.660180427640576 29.000000000000000
7.254097559094566 -4.277689309327140 -0.806872217892379 9.000000000000000
7.355849864128727 -4.272423997132786 -0.954707266716514 0.000000000000000
7.328225672904983 -4.191643888158760 -1.086910300732142 23.000000000000000
7.425563942984270 -4.182612902660786 -1.238262264283067 23.000000000000000
7.524693949823465 -4.172255829264908 -1.392809483258612 3.000000000000000
7.631933960662947 -4.165047864285977 -1.552476830193103 4.000000000000000
7.757727248451627 -4.166366070932415 -1.719257311054495 24.000000000000000
5.577040774580605 -2.946914705209299 -1.337540249445432 10.000000000000000
5.559710633452844 -2.889986044271999 -1.434148645079878 45.000000000000000
8.106838581586143 -4.144525825061423 -2.238626788347108 22.000000000000000
5.599388732018276 -2.814613903755236 -1.647784694835612 0.000000000000000
5.569785190578752 -2.752437918902593 -1.740655748100921 49.000000000000000
5.601018195719042 -2.719293823774821 -1.852579896038044 42.000000000000000
8.098946182140814 -3.863015194208094 -2.827480919140586 19.000000000000000
8.417543056877820 -3.942020845562427 -3.093065880119481 15.000000000000000
7.131360136854293 -4.360707846827225 -0.534140124971883 11.000000000000000
7.096830935238216 -4.275537161911106 -0.666420778309733 38.000000000000000
7.206723510951012 -4.277755445495255 -0.812615890345244 2.000000000000000
7.294480209592744 -4.265035464190736 -0.958147671841398 0.000000000000000
7.277116271390967 -4.190512617929053 -1.090965980970173 22.000000000000000
7.374206115673235 -4.182076654655384 -1.241749982143697 24.000000000000000
7.473096513912196 -4.172329715085488 -1.395735376913555 7.000000000000000
7.586993558369362 -4.169552932539512 -1.556268963904684 2.000000000000000
7.695263702693283 -4.162173834722239 -1.718802349185288 26.000000000000000
5.546151794565175 -2.951684272934760 -1.339976202979394 49.000000000000000
5.525389764581881 -2.893093906984488 -1.435296343903591 76.000000000000000
8.050599452076483 -4.146203275173793 -2.237952381790983 23.000000000000000
5.616747801942781 -2.844504200483897 -1.663455434569977 21.000000000000000
5.545797966168421 -2.761418591101118 -1.743785618464416 53.000000000000000
5.570095218511117 -2.725140139997109 -1.853222726521591 55.000000000000000
5.616236090663846 -2.699786692691642 -1.971887417650918 7.000000000000000
7.101382931489783 -4.370246396356170 -0.542257222618083 4.000000000000000
7.107763236416416 -4.309931844127705 -0.678077631264404 32.000000000000000
7.152569016030045 -4.273510331913363 -0.817465542978253 1.000000000000000
7.257188017195991 -4.271451405221601 -0.964624785031648 0.000000000000000
7.215780049781567 -4.183165285995993 -1.093339134583785 3.000000000000000
7.329787098147110 -4.185214949460412 -1.246282842154713 25.000000000000000
7.428445760759334 -4.176021348939447 -1.399834016109997 23.000000000000000
7.524872908074309 -4.164315959554484 -1.556393364907824 18.000000000000000
7.646685520204288 -4.165178452100727 -1.721297480755096 25.000000000000000
5.522178323600392 -2.960004617199643 -1.344017570017129 74.000000000000000
5.501444243957571 -2.901491433738945 -1.439067298831305 97.000000000000000
5.578873798099607 -2.894385294545583 -1.561178052496234 1.000000000000000
5.585737788950913 -2.849925357766800 -1.664813145143786 40.000000000000000
5.532127869893051 -2.775471626277671 -1.750126419113822 58.000000000000000
5.546065729241685 -2.734229447248921 -1.856092739258402 58.000000000000000
5.578406794289369 -2.702504886164951 -1.969736271098436 48.000000000000000
7.098544289337553 -4.396467346111986 -0.552419991387212 2.000000000000000
7.193399323912629 -4.390112988197654 -0.697029495496112 28.000000000000000
7.112139463212896 -4.277205135102458 -0.823764825701449 1.000000000000000
7.209657371515730 -4.271620476744851 -0.969636575219281 0.000000000000000
7.219622189598888 -4.213489035543864 -1.105526836762908 2.000000000000000
7.275119928159840 -4.182227199335992 -1.248944227748287 23.000000000000000
7.380401836276104 -4.177557509564486 -1.403174254814303 23.000000000000000
7.483481145459687 -4.170262768516189 -1.560667289039217 15.000000000000000
7.591280024632319 -4.164176619244250 -1.722116335024396 23.000000000000000
5.498201463480558 -2.968219564602122 -1.348004927028620 95.000000000000000
5.484376805663150 -2.913439060262109 -1.444596793448993 76.000000000000000
5.551335472565699 -2.901237698378774 -1.563787162161014 18.000000000000000
5.568498564975465 -2.862268677720746 -1.670222065596345 49.000000000000000
5.518415925735764 -2.789477692295253 -1.756440683533901 60.000000000000000
5.532321932831374 -2.748324485611276 -1.862372291810218 61.000000000000000
5.550897364101955 -2.710054259762791 -1.971141893002001 57.000000000000000
5.585152558048899 -2.678168724729082 -2.086331513734771 14.000000000000000
7.098986033588005 -4.424821608742639 -0.562856132352363 2.000000000000000
7.197086658736099 -4.420743617873924 -0.708198765651158 32.000000000000000
