# This PCD file was generated using the MATLAB® pcwrite function
# from Computer Vision Toolbox®.
# .PCD v.7 - Point Cloud Data file format
VERSION .7
FIELDS x y z intensity
SIZE 8 8 8 8
TYPE F F F F
COUNT 1 1 1 1
WIDTH 631
HEIGHT 1
VIEWPOINT 0 0 0 1 0 0 0
POINTS 631
DATA ascii
-5.372994657618111 -5.151528681589675 -1.553543257191820 65.000000000000000
-5.373192178593198 -5.085045677147129 -1.669782103518954 6.000000000000000
-5.238203909807363 -4.892788235898158 -1.739890536193422 9.000000000000000
-5.713207312101341 -5.265927620510618 -2.019418853159284 6.000000000000000
-5.865912463956617 -5.334928922310818 -2.197632444038336 12.000000000000000
-5.826478716406590 -5.227069896791189 -2.305533790973445 5.000000000000000
-5.801633465139029 -5.134377860625534 -2.418402183363479 10.000000000000000
-6.399697344591033 -5.584693708778081 -2.801821920959467 7.000000000000000
-4.968562253748571 -4.275555718079466 -2.279607955816723 16.000000000000000
-5.009532106008662 -4.250721073514799 -2.404157739010821 0.000000000000000
-5.054119085116238 -4.228964407393345 -2.532852209360831 1.000000000000000
-5.167412802744472 -4.260210928670274 -2.697563302180483 2.000000000000000
-5.169627854203640 -4.199537618580141 -2.807635239694092 42.000000000000000
-5.196507893263113 -4.157362965789816 -2.931658726034374 43.000000000000000
-5.222822936103345 -4.116773193161335 -3.058872186636941 40.000000000000000
-5.310718428451426 -5.607215479025788 -0.570035389673308 21.000000000000000
-5.380457152440726 -5.608813011644621 -0.703074271436121 13.000000000000000
-5.449108399013546 -5.607921550014584 -0.837215351437169 5.000000000000000
-5.515820320309655 -5.605347878669768 -0.972408017835841 3.000000000000000
-5.581345453542247 -5.600173075096115 -1.109459533823475 3.000000000000000
-5.662561804941570 -5.609123148782490 -1.251301445299770 4.000000000000000
-5.713826978039064 -5.588180281699471 -1.388872349878923 5.000000000000000
-5.390615933315971 -5.204532058335729 -1.428457179349686 5.000000000000000
-5.375401204607034 -5.123247653728036 -1.540925490761773 66.000000000000000
-5.378383641913649 -5.059597839802910 -1.657734327284499 6.000000000000000
-5.242932022873906 -4.867844713114346 -1.727817019399922 14.000000000000000
-5.336727885819140 -4.889278783766722 -1.872128320209108 13.000000000000000
-5.846737688408410 -5.285274622328215 -2.174512949954083 12.000000000000000
-5.841477550656944 -5.208604694561593 -2.295193490963645 8.000000000000000
-5.839476119275824 -5.136214885581887 -2.417550682309353 11.000000000000000
-6.462328372974726 -5.604611274921628 -2.810455560379345 7.000000000000000
-4.980862359462539 -4.259584930277727 -2.270471840353930 7.000000000000000
-5.027685728202115 -4.239536045794171 -2.397646832801839 1.000000000000000
-5.468765155896831 -4.547220210419720 -2.723756969261233 13.000000000000000
-5.226210904702466 -4.281498773088255 -2.711805272436203 2.000000000000000
-5.176731528587488 -4.178602129372996 -2.794886567524292 41.000000000000000
-5.203678159097350 -4.136485212907379 -2.918702400028448 43.000000000000000
-5.232936947110097 -4.098196920119961 -3.047375413612396 35.000000000000000
-5.327171066581625 -5.592451236925693 -0.561492288445576 12.000000000000000
-5.399870016113770 -5.596743561556472 -0.694787244594810 52.000000000000000
-5.474284165527448 -5.601350064787677 -0.829738709931352 38.000000000000000
-5.544012525557845 -5.601365918858805 -0.965517974718641 31.000000000000000
-5.620985632169848 -5.607127555921755 -1.104942122720947 14.000000000000000
-5.696886211184302 -5.610129924088386 -1.245950934694545 21.000000000000000
-5.770958340090045 -5.610896532768192 -1.389281805651764 22.000000000000000
-5.373142501447085 -5.157034453107537 -1.410934197120760 7.000000000000000
-5.377667254678099 -5.094996855949213 -1.528331749271260 66.000000000000000
-5.403411800552743 -5.052829588728254 -1.651803275490043 0.000000000000000
-5.258970880228110 -4.853468309327364 -1.719497208857211 15.000000000000000
-5.324390867618511 -4.848582923907731 -1.853699414363335 18.000000000000000
-5.425594485299132 -4.874861955545940 -2.003182816285736 21.000000000000000
-5.669617101936550 -5.024570495127041 -2.211966829979012 9.000000000000000
-5.868753079580616 -5.130346635449158 -2.413064584931072 24.000000000000000
-6.513639529106378 -5.614309874897134 -2.813952507327615 10.000000000000000
-5.001739594832201 -4.250932189939587 -2.265240062779930 6.000000000000000
-5.060215792154409 -4.240365367558390 -2.397935296550457 3.000000000000000
-5.355685102017968 -4.425261895834268 -2.650997970821568 6.000000000000000
-5.262176938716121 -4.283750412152509 -2.714008156219770 18.000000000000000
-5.186610742535661 -4.159976549618341 -2.783689657996947 50.000000000000000
-5.216497012139255 -4.120151177804471 -2.908960156890887 41.000000000000000
-5.242965354442329 -4.079605970235298 -3.035876384133243 36.000000000000000
-5.376691491123760 -5.612211786407030 -0.556355528229350 4.000000000000000
-5.441444398752211 -5.607486867731433 -0.689282150869801 3.000000000000000
-5.507822701914021 -5.603195057431198 -0.823464773174376 3.000000000000000
-5.572217894108158 -5.597273109297840 -0.958570540185817 4.000000000000000
-5.649453428262965 -5.602747597929596 -1.098143577034430 4.000000000000000
-5.728432632873502 -5.608227837700727 -1.239912936890556 4.000000000000000
-5.805596227181224 -5.611424416089076 -1.384136001070167 5.000000000000000
-5.363939891741057 -5.117817333073368 -1.395718661866612 12.000000000000000
-5.376940580155906 -5.064090289828721 -1.514958591491896 67.000000000000000
-5.339775913884865 -4.963551253420295 -1.618942909482872 5.000000000000000
-5.269223975694317 -4.833785910592044 -1.709297067373021 15.000000000000000
-5.306081351575334 -4.802796379374789 -1.833355292552123 23.000000000000000
-5.410388327908817 -4.831750776683106 -1.982998379537974 28.000000000000000
-5.620489408104952 -4.950690299076362 -2.177329643396068 4.000000000000000
-5.843216656238335 -5.076730931078721 -2.386131212169075 16.000000000000000
-6.544860144784141 -5.606460198474408 -2.808648381007924 6.000000000000000
-5.034161966319934 -4.251968005157067 -2.265172262760262 9.000000000000000
-5.095690858469712 -4.243463816938744 -2.399511097961390 3.000000000000000
-5.380472670936665 -4.417846008614436 -2.646857472829458 6.000000000000000
-5.480212494667520 -4.433071043104665 -2.809429860323424 34.000000000000000
-5.199291512112174 -4.143637871723352 -2.774031175040806 48.000000000000000
-5.226363344824901 -4.101523983189053 -2.897607841512664 39.000000000000000
-5.258667938038984 -4.065453483598470 -3.027691445662497 37.000000000000000
-5.398675352242567 -5.603007554977284 -0.548279837269318 75.000000000000000
-5.471983796847330 -5.606636500406681 -0.682287680782674 43.000000000000000
-5.541408322078214 -5.604898877610183 -0.817115891270285 32.000000000000000
-5.611676134825279 -5.604294732944280 -0.953475486903260 13.000000000000000
-5.694865602986548 -5.614950449147486 -1.094541555875838 17.000000000000000
-5.768507659363125 -5.614470391578738 -1.235628425520653 24.000000000000000
-5.840279708896808 -5.611807744570575 -1.378913615795396 25.000000000000000
-5.363086566656457 -5.086811251697459 -1.382770323717268 18.000000000000000
-5.376056656131371 -5.033230685674747 -1.501619024535748 67.000000000000000
-5.376007512951960 -4.967440504648630 -1.616506744019413 17.000000000000000
-5.282265645756612 -4.816710997834162 -1.700020238409799 16.000000000000000
-5.296155416967572 -4.764929529620004 -1.816063979346633 27.000000000000000
-5.397824164639362 -4.791327654048707 -1.963943379831375 33.000000000000000
-5.657635906782366 -4.953051151980567 -2.176240848837934 5.000000000000000
-5.747901041790686 -4.963320631440774 -2.331140905929089 4.000000000000000
-5.275353390472076 -4.491124231774887 -2.248800956154011 0.000000000000000
-5.107218423641680 -4.286927883505695 -2.283171762009237 2.000000000000000
-5.134136222154745 -4.248807513137741 -2.402360499313725 2.000000000000000
-5.419750731790132 -4.422160622596812 -2.649754221284399 6.000000000000000
-5.734174313235833 -4.609198493973719 -2.921915499903577 71.000000000000000
-5.209008680857202 -4.124977082838118 -2.762826203150433 46.000000000000000
-5.239037109361682 -4.085138708905696 -2.887848315914721 39.000000000000000
-5.268542318538405 -4.046818494837471 -3.016179356008417 35.000000000000000
-5.428969600041769 -5.602322086167836 -0.540995678964615 4.000000000000000
-5.491385907619919 -5.594284701048656 -0.673857178641228 6.000000000000000
-5.561011568340960 -5.592353380559539 -0.808651966993405 10.000000000000000
-5.637121788101907 -5.597150089167060 -0.945922208981232 7.000000000000000
-5.714916731803944 -5.601976054949039 -1.085986661209500 6.000000000000000
-5.791611398197794 -5.604038984902478 -1.227635315539017 7.000000000000000
-5.860748373554706 -5.598424758365313 -1.370280528504344 7.000000000000000
-5.384966983447459 -5.077435780385628 -1.375703632051812 17.000000000000000
-5.369276360728781 -4.997077026634145 -1.486724100835243 20.000000000000000
-5.372023694355092 -4.934173242020123 -1.601973734185454 42.000000000000000
-5.301005915134500 -4.804834363072659 -1.692574084388986 17.000000000000000
-5.280241097110313 -4.721989572447196 -1.796867394686439 35.000000000000000
-5.387928702057994 -4.753569864817294 -1.946004584229067 34.000000000000000
-5.691948150055587 -4.952729682600632 -2.173959279325498 5.000000000000000
-5.776676202979747 -4.957599853972766 -2.326760781390450 4.000000000000000
-5.285271588999718 -4.471829906361754 -2.238038766214968 16.000000000000000
-6.727183017601766 -5.611682116053674 -2.987903692566709 8.000000000000000
-5.152315985619455 -4.237242664468105 -2.395654104152237 1.000000000000000
-5.621898769876712 -4.558290756227247 -2.731654371063798 21.000000000000000
-5.748285398633772 -4.591331011597592 -2.911466729639202 52.000000000000000
-5.218640517806649 -4.106303003826421 -2.751619666064492 38.000000000000000
-5.248741089385411 -4.066476347575403 -2.876487978630723 39.000000000000000
-5.281228077588881 -4.030380495465396 -3.006314530161303 36.000000000000000
-5.467649390103666 -5.610085870703670 -0.534462973675501 34.000000000000000
-5.538751586342746 -5.610232719938151 -0.668777760486311 27.000000000000000
-5.614346551206275 -5.613509418746880 -0.804999881116925 8.000000000000000
-5.690832423727843 -5.617817368407063 -0.943004952411084 12.000000000000000
-5.768996693536359 -5.622138015953877 -1.083801309988500 14.000000000000000
-5.840344583956345 -5.618203337633518 -1.224982611164484 21.000000000000000
-5.912641215680279 -5.614856013388359 -1.368900947313355 14.000000000000000
-5.406828150764681 -5.067982253142467 -1.368598271930657 17.000000000000000
-5.370940146610548 -4.968991827233683 -1.474251729662179 49.000000000000000
-5.376523915193171 -4.908874911711670 -1.590044556144150 65.000000000000000
-5.313925453383613 -4.787683739641526 -1.683266076725207 17.000000000000000
-5.281477150221285 -4.694637958162173 -1.783624835404954 43.000000000000000
-5.369113307230708 -4.708268987125979 -1.925004269861715 38.000000000000000
-5.726307758605442 -4.952264410587972 -2.171601404806804 4.000000000000000
-5.805463446529065 -4.951766266862401 -2.322322331068291 4.000000000000000
-5.295103263135462 -4.452521967229105 -2.227274918835669 33.000000000000000
-6.761669076109929 -5.605454438540695 -2.983770742302960 7.000000000000000
-5.185043489868352 -4.237534604142601 -2.395656170419252 1.000000000000000
-5.667657501185824 -4.566516556071556 -2.736925463430898 26.000000000000000
-5.771067061371618 -4.580370242353574 -2.905407616172542 38.000000000000000
-5.228187040823627 -4.087615922327803 -2.740411709523969 8.000000000000000
-5.261269602452237 -4.050040788126198 -2.866711667542833 44.000000000000000
-5.288034235590018 -4.009507222099314 -2.993149805666488 37.000000000000000
-5.478471105902368 -5.589176799124576 -0.525160023155265 20.000000000000000
-5.555352387133926 -5.594848000997933 -0.659908857718101 27.000000000000000
-5.631150454039382 -5.597936475884785 -0.796022472001067 11.000000000000000
-5.707844848721697 -5.602054009447505 -0.933917586382395 10.000000000000000
-5.780526549600653 -5.600662128983744 -1.073543909828209 11.000000000000000
-5.860618428108346 -5.604803903620571 -1.216274986208494 13.000000000000000
-5.933120825947504 -5.601253382802234 -1.360155067025275 8.000000000000000
-5.402764103349980 -5.034311720138944 -1.354957397125297 19.000000000000000
-5.375351774297642 -4.943594570502781 -1.462590176724366 62.000000000000000
-5.369324101026176 -4.873085809002365 -1.574735976676477 66.000000000000000
-5.320972572702021 -4.765306824249881 -1.672123724881126 16.000000000000000
-5.291296904627114 -4.675026568661600 -1.773331229463821 44.000000000000000
-5.361687977186470 -4.673266438960648 -1.908239719159549 37.000000000000000
-5.574037745991007 -4.791196347367112 -2.098875119496995 8.000000000000000
-5.489696219877466 -4.653724268313522 -2.180936919760133 11.000000000000000
-5.301925648779730 -4.430758170672938 -2.215288344172524 35.000000000000000
-6.816644946873217 -5.615954764551633 -2.988541408576706 10.000000000000000
-5.220747837991222 -4.240062905762409 -2.396926900697563 2.000000000000000
-5.745696278953031 -4.600288436951113 -2.757520728277335 47.000000000000000
-5.782133541110483 -4.560107375940430 -2.893457522179790 38.000000000000000
-5.237648268951539 -4.068916125800144 -2.729202479104925 36.000000000000000
-5.273729684024676 -4.033576508028593 -2.856924880656972 42.000000000000000
-5.306393804181947 -3.997417044845271 -2.986552822991739 37.000000000000000
-5.531235080851445 -5.610887468136677 -0.519804097968731 13.000000000000000
-5.605700692785399 -5.613264290430519 -0.654968509687947 5.000000000000000
-5.687532331474179 -5.621489267670505 -0.792546775844310 12.000000000000000
-5.758927162578616 -5.619542636849507 -0.930321712497714 10.000000000000000
-5.834804796504098 -5.620434170471849 -1.071147385790205 13.000000000000000
-5.912391185305625 -5.621326182517405 -1.214012529451261 10.000000000000000
-5.990965915538713 -5.622692259901022 -1.359868798562013 16.000000000000000
-5.421622287613686 -5.022099282093602 -1.347098575177583 6.000000000000000
-5.425967994856162 -4.960567658265846 -1.463439724267283 38.000000000000000
-5.373546408877264 -4.847854197195343 -1.562857854821658 65.000000000000000
-5.330825448098303 -4.745522663154763 -1.661896114500552 19.000000000000000
-5.274787308913894 -4.632355473161651 -1.754308301294330 28.000000000000000
-5.348230659560984 -4.633284788063516 -1.889464708543428 31.000000000000000
-5.455822927793038 -4.660994901604910 -2.039784966064027 27.000000000000000
-5.362280252017922 -4.517832535213530 -2.115683266130520 23.000000000000000
-5.311575775833569 -4.411431847066421 -2.204526215826464 22.000000000000000
-6.857094789238868 -5.614200267205925 -2.986789314815842 12.000000000000000
-5.256520649629621 -4.242435969275515 -2.398114197992812 2.000000000000000
-5.762454016934552 -4.584682229785685 -2.748529162043257 44.000000000000000
-5.796041017632723 -4.542124992949365 -2.882962550978378 38.000000000000000
-5.249953884178486 -4.052465321896356 -2.719509703756668 51.000000000000000
-5.289048245209683 -4.019308020179305 -2.848704213983384 40.000000000000000
-5.315951178013189 -3.978704719277298 -2.975020643589008 40.000000000000000
-5.550435585634069 -5.598333186775872 -0.511204792202602 39.000000000000000
-5.625115206444189 -5.600503076080689 -0.646328251773885 14.000000000000000
-5.701501011417472 -5.602919405177303 -0.783073659302337 24.000000000000000
-5.778778289259424 -5.606354070549540 -0.921591839816578 17.000000000000000
-5.854871036194236 -5.607033340909196 -1.062373881204962 19.000000000000000
-5.929798912713239 -5.604989529150170 -1.204608331741822 12.000000000000000
-6.008585135384417 -5.606160691548070 -1.350352165688149 10.000000000000000
-5.495455997112331 -5.060483072917139 -1.352752177052843 17.000000000000000
-5.389617871602951 -4.898131393874476 -1.440869198240894 0.000000000000000
-5.368912556408312 -4.814807595587278 -1.548477245269108 66.000000000000000
-5.340591378361057 -4.725725297011480 -1.651667081030950 24.000000000000000
-5.252188923993661 -4.584709920548193 -1.733436601409259 20.000000000000000
-5.331620188471767 -4.590895223089298 -1.869734531022018 25.000000000000000
-5.439454927402871 -4.618674028015762 -2.019216757974563 33.000000000000000
-5.853709781877281 -4.901614832556150 -2.293695233203356 8.000000000000000
-5.362297447943396 -4.426064795753641 -2.210731214682154 7.000000000000000
-6.882889619189320 -5.600310067857899 -2.978583158803080 8.000000000000000
-5.286477500093445 -4.239934514536621 -2.396550636528857 2.000000000000000
-5.779155244967138 -4.569027742757324 -2.739516406317497 42.000000000000000
-5.815755170474112 -4.528689062247714 -2.875362790080853 39.000000000000000
-5.265129313198587 -4.038239982958039 -2.711319817973532 47.000000000000000
-5.292573435776363 -3.996129885814447 -2.834176487555954 32.000000000000000
-5.328353803594113 -3.962159016504922 -2.965118154754188 38.000000000000000
-5.366748183677810 -3.926630005195683 -3.097819674430367 35.000000000000000
-5.594964526718696 -5.611157049186896 -0.504864847379614 3.000000000000000
-5.675659326861661 -5.618534010183306 -0.641179211938245 3.000000000000000
-5.752416391831288 -5.620488323997948 -0.778599161824268 5.000000000000000
-5.827195135296519 -5.620693710456073 -0.917334763549337 5.000000000000000
-5.897878090177471 -5.615449014144990 -1.057691071600112 4.000000000000000
-5.984641637997963 -5.623836386719473 -1.202717240315082 10.000000000000000
-6.069560533442264 -5.629849088632541 -1.350473313362174 12.000000000000000
-5.555054452028711 -5.085210577510629 -1.354661366308942 23.000000000000000
-5.370383032368353 -4.851723518468031 -1.423074483642465 2.000000000000000
-5.367026573468621 -4.784430730119913 -1.534976334790182 66.000000000000000
-5.376611976616391 -4.729084183487889 -1.649518244333737 14.000000000000000
-5.308504980535232 -4.605935732866875 -1.738600269277769 28.000000000000000
-5.344149342896469 -4.573781623348592 -1.860313270053717 45.000000000000000
-5.378709916831268 -4.539236274381437 -1.982462528251343 27.000000000000000
-5.838245235020584 -4.858661981190519 -2.271889154050716 7.000000000000000
-5.699160477063382 -4.675060294896253 -2.333924826502181 9.000000000000000
-5.534000372517758 -4.474789027552993 -2.379310621979533 0.000000000000000
-5.322368013143012 -4.242011981023523 -2.397579839238937 1.000000000000000
-5.786951248906146 -4.546373488949098 -2.726313874403385 41.000000000000000
-5.823634600357862 -4.506062636339943 -2.861936330335781 39.000000000000000
-5.289092951225554 -4.030707473688257 -2.707636056572186 18.000000000000000
-5.310698680601989 -3.984013484948405 -2.827502798513478 46.000000000000000
-5.340687615394157 -3.945584974415448 -2.955205408164128 38.000000000000000
-5.376241870858210 -3.907876480362254 -3.086115480707505 35.000000000000000
-5.695085136258615 -5.605559252169937 -0.632429253891854 23.000000000000000
-5.777769573840975 -5.612848669451564 -0.770566392618637 26.000000000000000
-5.849916331965662 -5.610047741188668 -0.908944030502060 27.000000000000000
-5.923689994766971 -5.607308403113116 -1.049840615653020 12.000000000000000
-6.002039910395633 -5.607295942581404 -1.193209590276631 15.000000000000000
-6.084283152155199 -5.610419579191588 -1.340203965754505 8.000000000000000
-5.597377157665720 -5.093750313663095 -1.352191072629575 21.000000000000000
-5.377179132942347 -4.829070393554826 -1.412274656836137 7.000000000000000
-5.370842747620161 -4.759295211855852 -1.523172106737081 68.000000000000000
-5.380409599978459 -4.704056325248798 -1.637458587368362 0.000000000000000
-5.341475213606072 -4.606599001317320 -1.735967794486476 36.000000000000000
-5.371340861621037 -4.569171549996681 -1.855972169775479 41.000000000000000
-5.370586305737628 -4.504723808354059 -1.965366668861451 26.000000000000000
-5.878664443428504 -4.862260930788354 -2.271854529343504 7.000000000000000
-5.753961681818209 -4.690848883034729 -2.340623361564091 23.000000000000000
-5.535077253262658 -4.447824706226455 -2.364324678020316 9.000000000000000
-5.355366012317442 -4.241589715596276 -2.397200775626246 1.000000000000000
-5.803513638342578 -4.530646952871522 -2.717272830984713 49.000000000000000
-5.834363446358331 -4.485709572461129 -2.849960843121941 40.000000000000000
-5.339650231372786 -4.043221247225159 -2.717440220609749 4.000000000000000
-5.322884381241817 -3.967436463978484 -2.817675241795231 42.000000000000000
-5.352952548620505 -3.928982807870277 -2.945282517463655 37.000000000000000
-5.394478658894448 -3.895485963784747 -3.079450130248637 34.000000000000000
-5.734421139489601 -5.612045902564377 -0.625826639322094 3.000000000000000
-5.808843313367105 -5.610646251558604 -0.763237840140061 3.000000000000000
-5.884121606123711 -5.610294689835321 -0.902278458987974 3.000000000000000
-5.969719373625380 -5.618105661649351 -1.045483321103356 4.000000000000000
-6.059990996428800 -5.628425766983127 -1.191666274072688 10.000000000000000
-6.136773769404246 -5.625648567132028 -1.338174092664103 12.000000000000000
-5.639795531879368 -5.102099088396786 -1.349617446083960 22.000000000000000
-5.357508471970139 -4.782885421335104 -1.394620385319354 9.000000000000000
-5.371601252225835 -4.731592361718388 -1.510559402874991 67.000000000000000
-5.378198894561562 -4.673931650222072 -1.623638992999725 0.000000000000000
-5.359745113627351 -4.594478267120620 -1.728503910873224 37.000000000000000
-5.383772586812945 -4.551960844847546 -1.846507297699163 30.000000000000000
-5.454013087660647 -4.546774437995264 -1.981657752897614 35.000000000000000
-5.880647921384590 -4.834023766213428 -2.256943564291952 7.000000000000000
-5.823752201061021 -4.718392741157206 -2.353171528136424 10.000000000000000
-5.536015269244354 -4.420895259374282 -2.349365030031597 8.000000000000000
-5.385445472089903 -4.238691506603801 -2.395427180899298 1.000000000000000
-5.814086370839035 -4.510270358172699 -2.705450233992948 28.000000000000000
-5.845001497824790 -4.465340643159593 -2.837982810196891 31.000000000000000
-5.399246881426833 -4.062187795985485 -2.731612604955029 2.000000000000000
-5.337961927199167 -3.953024264303783 -2.809395954577725 44.000000000000000
-5.368104544030547 -3.914508298095218 -2.936966868812497 39.000000000000000
-5.400874361738531 -3.874566469813742 -3.066054598292484 39.000000000000000
-5.768114768303963 -5.612795399278304 -0.618517441560059 28.000000000000000
-5.845686700131667 -5.613833311033652 -0.756586121887453 33.000000000000000
-5.924138774772126 -5.615867974922600 -0.896409875826980 15.000000000000000
-5.995570849050735 -5.609714328386683 -1.037502456819348 18.000000000000000
-6.083204420256946 -5.617045499154242 -1.183182083112076 12.000000000000000
-6.157289114163397 -5.611366601352455 -1.329079241366404 17.000000000000000
-5.691095707028849 -5.118158858255407 -1.349023185530745 22.000000000000000
-5.352271040981068 -4.749884208633268 -1.380847098143651 17.000000000000000
-5.369277110349168 -4.701346846858788 -1.497152342886797 68.000000000000000
-5.372881787023670 -4.641309275765948 -1.608971568847102 4.000000000000000
-5.369104267802201 -4.574735634682039 -1.718171479869953 33.000000000000000
-5.316125674040077 -4.467485563344161 -1.809794617939684 17.000000000000000
-5.490290061696241 -4.549065066150220 -1.980586292583886 22.000000000000000
-5.867634403234458 -4.793683220424789 -2.236396139371835 6.000000000000000
-5.554791628538312 -4.472642266915579 -2.229471936517917 7.000000000000000
-5.533839519406197 -4.391640103988145 -2.333177526572121 7.000000000000000
-5.427458441374799 -4.244977742884164 -2.398848646656873 5.000000000000000
-5.845391769320583 -4.505930093199468 -2.703255270661395 0.000000000000000
-5.611691478007400 -4.259843705122194 -2.708312087553781 8.000000000000000
-5.363946836635942 -4.009782066644133 -2.697799494358756 4.000000000000000
-5.355956257013084 -3.940753047880277 -2.802651242767233 42.000000000000000
-5.383204163354068 -3.899990104747830 -2.928632124135163 41.000000000000000
-5.416046371370929 -3.859978673618876 -3.057679895340132 49.000000000000000
-5.793249483105546 -5.605081583213403 -0.610226902077612 5.000000000000000
-5.862421307902422 -5.597605808244924 -0.747278812863281 6.000000000000000
-5.955547398139344 -5.613082104102214 -0.889150426600110 3.000000000000000
-6.047566979455920 -5.625555028128828 -1.033944028702161 5.000000000000000
-6.129730669070325 -5.627008917359095 -1.179147390541101 5.000000000000000
-6.204110435164143 -5.620891308186117 -1.325583120685069 9.000000000000000
-5.736664954024606 -5.128726052931120 -1.346918067015006 22.000000000000000
-5.367484849543850 -4.735144164652555 -1.372392119575923 19.000000000000000
-5.372706500508908 -4.676295896417836 -1.485414941534862 68.000000000000000
-5.367394042113446 -4.608756172435183 -1.594349942680612 45.000000000000000
-5.327945171472417 -4.512270613075119 -1.691824507495519 19.000000000000000
-5.372765850623373 -4.487669719796404 -1.815497617844144 15.000000000000000
-5.470084375836066 -4.504631466432886 -1.959177448026817 6.000000000000000
-5.624986248504105 -4.567189139062709 -2.129088319484972 8.000000000000000
-5.534656013855932 -4.428845997934960 -2.206508992699519 7.000000000000000
-5.534492281248647 -4.364790056680532 -2.318275857162368 5.000000000000000
-5.460617087330191 -4.244116667731401 -2.398235754933626 13.000000000000000
-5.508140171092114 -4.154629212882444 -2.642345919645105 4.000000000000000
-5.414731960803776 -4.021795840547327 -2.707334484249465 3.000000000000000
-5.364983183347556 -3.921893187338775 -2.791231496938874 42.000000000000000
-5.395278652245878 -3.883288818049027 -2.918670282891729 42.000000000000000
-5.431165604074754 -3.845347128400388 -3.049286087466736 39.000000000000000
-5.838498031119634 -5.616630416427782 -0.603969788872302 25.000000000000000
-5.913765114791262 -5.614242059216038 -0.742302005660462 11.000000000000000
-5.995685060914373 -5.618325408619818 -0.883106026015641 22.000000000000000
-6.073471992522070 -5.616895997252682 -1.025823236282357 15.000000000000000
-6.152955066754704 -5.615399460644614 -1.170545532600001 24.000000000000000
-6.233419215263666 -5.614336533095975 -1.318246630917590 15.000000000000000
-5.791180558323226 -5.146938440953926 -1.346754775721938 23.000000000000000
-5.388553843126297 -4.725541756981712 -1.365415168639564 22.000000000000000
-5.367129834802254 -4.643577936435840 -1.471259761096515 69.000000000000000
-5.367673817133893 -4.581340848395350 -1.581523892857590 63.000000000000000
-5.325089391633920 -4.482626426812266 -1.677820994251822 21.000000000000000
-5.414687133947618 -4.495212623756296 -1.816053608427946 18.000000000000000
-5.491406311892291 -4.494546256262747 -1.952718788772216 10.000000000000000
-5.533198872687518 -4.465021129338084 -2.079846280342383 15.000000000000000
-5.583044003073600 -4.439896064833542 -2.210874621777439 2.000000000000000
-5.555950328647044 -4.354390410941467 -2.312116799538425 1.000000000000000
-5.478860905512624 -4.231558772375032 -2.391018513935284 21.000000000000000
-5.616195792534791 -4.209149146954069 -2.677975406647778 4.000000000000000
-5.396931847956886 -3.982849390430245 -2.682575881808023 5.000000000000000
-5.379895560177283 -3.907359072679487 -2.782900077030087 45.000000000000000
-5.413245678151362 -3.870823240920624 -2.911905675931889 49.000000000000000
-5.855022783291479 -5.600397212521578 -0.594672404873686 18.000000000000000
-5.936274467212986 -5.603291219615696 -0.733613629980270 8.000000000000000
-6.024253028811549 -5.612545648621388 -0.875275263557690 5.000000000000000
-6.111055963218075 -5.618887746527128 -1.019603602555462 3.000000000000000
-6.193755355366476 -5.619680086187026 -1.165215141843807 4.000000000000000
-6.277454095803774 -5.620848318596846 -1.313932362948491 8.000000000000000
-5.842900199600951 -5.162282934806728 -1.345769727147397 25.000000000000000
-5.403677450961864 -4.710697825122194 -1.356912674550326 22.000000000000000
-5.367324063346306 -4.616039402193567 -1.458765449419528 66.000000000000000
-5.323159757408733 -4.516076919336319 -1.555674598282675 24.000000000000000
-5.325064144686956 -4.455533049564148 -1.664787403607727 8.000000000000000
-5.450728308551382 -4.497633339849029 -1.814516808033217 16.000000000000000
-5.530664102383930 -4.498991195671979 -1.952561601555189 7.000000000000000
-5.554605069236484 -4.454700233299287 -2.073418519319155 23.000000000000000
-5.583581142322886 -4.412802991973701 -2.196245746979197 1.000000000000000
-5.571386638357532 -4.339240106046211 -2.303438783213315 1.000000000000000
-5.518071637852107 -4.235060989667968 -2.392881069615609 19.000000000000000
-5.682727533379027 -4.231856758157071 -2.693398626237163 5.000000000000000
-5.417852572631096 -3.972601889906452 -2.677149925862632 6.000000000000000
-5.391761613157425 -3.890621685180846 -2.773010207280635 44.000000000000000
-5.422209097306888 -3.851927969695507 -2.900316434694646 53.000000000000000
-5.911961927682742 -5.622608515977783 -0.589389210695154 7.000000000000000
-5.990715222078508 -5.622252590521823 -0.728773583719584 13.000000000000000
-6.067418349615399 -5.620169004750686 -0.869477388314402 15.000000000000000
-6.148693762408810 -5.620716767054170 -1.013297607157487 26.000000000000000
-6.225798735172777 -5.615818938434557 -1.158146691849015 17.000000000000000
-6.300906480995235 -5.608765104039632 -1.305230832251341 15.000000000000000
-5.900684402963225 -5.182588309212959 -1.346003712415276 24.000000000000000
-5.406864166266409 -4.685512429382636 -1.345434190752220 18.000000000000000
-5.367382160369921 -4.588539187415549 -1.446299025130898 34.000000000000000
-5.340955322282386 -4.503966246367634 -1.548166753603913 18.000000000000000
-5.429606316246625 -4.515555411987797 -1.684260838422146 0.000000000000000
-5.483835299317301 -4.497438129650932 -1.811905262402937 14.000000000000000
-5.563998091381450 -4.498408204871050 -1.950206363811894 6.000000000000000
-5.585002657843062 -4.451485776286090 -2.070293625408859 24.000000000000000
-5.580973282683338 -4.383385259342146 -2.180469418762107 1.000000000000000
-5.436343605416677 -4.207619705538373 -2.232955131078630 6.000000000000000
-5.551343105271512 -4.233799081026030 -2.392056660921223 18.000000000000000
-5.719414143996092 -4.231992259592589 -2.694477196824246 6.000000000000000
-5.459787149438315 -3.977602526682712 -2.682019094368186 6.000000000000000
-5.409562475383023 -3.878161937761310 -2.766181087605679 49.000000000000000
-5.449070484014937 -3.845714076401400 -2.898292273530283 15.000000000000000
-5.925583207849740 -5.603426160166786 -0.579702436089147 13.000000000000000
-6.007432964036927 -5.605615136722021 -0.719258035447260 13.000000000000000
-6.090183737399648 -5.608731428104739 -0.860679854593454 5.000000000000000
-6.171690106910018 -5.609027900735125 -1.004513430992315 5.000000000000000
-6.263762852077209 -5.617118066005649 -1.152095293580597 4.000000000000000
-6.356898091520979 -5.625420060601192 -1.303165298725611 5.000000000000000
-5.976462891924738 -5.218178942757237 -1.350112522277886 24.000000000000000
-5.433763494149289 -4.680879205242685 -1.339850796013167 8.000000000000000
-5.322502213932676 -4.523005360707240 -1.421891940231513 21.000000000000000
-5.367695593805568 -4.499324575841747 -1.543213003271671 26.000000000000000
-5.459596777791127 -4.513049938746357 -1.680352128071449 0.000000000000000
-5.522997229552113 -4.501999486872408 -1.811189173598459 6.000000000000000
-5.600385857039399 -4.500100487162679 -1.948822685036095 9.000000000000000
-5.615427977800720 -4.448144793191714 -2.067102446647085 25.000000000000000
-5.587256934523601 -4.361082115020356 -2.168240469520737 1.000000000000000
-5.421090081421461 -4.169587747912070 -2.212162819861008 26.000000000000000
-5.566556559107669 -4.218675622793501 -2.383405979665075 14.000000000000000
-5.756160047949671 -4.231968237782688 -2.695470707833145 6.000000000000000
-5.483738040634346 -3.969327706952692 -2.677957179739338 5.000000000000000
-5.424316720958562 -3.863499205666355 -2.757793683099734 53.000000000000000
-5.599167938950416 -3.925789222351543 -2.961385043032772 2.000000000000000
-5.982734900820958 -5.625212337413728 -0.574189224478484 7.000000000000000
-6.056226841297661 -5.618744281825719 -0.713507632892980 9.000000000000000
-6.142267434935944 -5.624083486366362 -0.855932062786879 17.000000000000000
-6.221180682735534 -5.621222481059198 -0.999952364461885 15.000000000000000
-6.298820259296031 -5.615615277326850 -1.145418874532447 18.000000000000000
-6.377411244621002 -5.610468412413025 -1.293728723611440 9.000000000000000
-6.043574280736596 -5.245638476677541 -1.352014380551943 22.000000000000000
-5.505483191236587 -4.714507986640440 -1.345159200583674 20.000000000000000
-5.340135886145280 -4.510886255933940 -1.414311812695362 14.000000000000000
-5.364429403710538 -4.469562912191694 -1.529643274285313 13.000000000000000
-6.458194431079401 -5.306229728799893 -1.972154850810456 2.000000000000000
-5.553197174479430 -4.499061884791613 -1.807436665050540 4.000000000000000
-5.624763533334184 -4.491993700912717 -1.943183929800376 9.000000000000000
-5.651922038039889 -4.449433285326558 -2.066053415414793 25.000000000000000
-5.557154362927716 -4.310640680255338 -2.142035553468070 2.000000000000000
-5.429818227011338 -4.150173945988445 -2.201256513824356 38.000000000000000
-5.542386185964824 -4.173890039878360 -2.358003668493867 8.000000000000000
-5.826222617921815 -4.256079560045744 -2.711859285615146 8.000000000000000
-5.519769314046390 -3.969651859234582 -2.679715439405321 5.000000000000000
-5.435999641229452 -3.846658044294683 -2.747862039989683 43.000000000000000
-6.002155520916997 -5.611296314597836 -0.564959089232466 20.000000000000000
-6.081701268228386 -5.610028196189996 -0.704917954078667 9.000000000000000
-6.156228188990307 -5.604365102401408 -0.845795651482317 14.000000000000000
-6.241236377375611 -5.606641553383186 -0.990577091194995 6.000000000000000
-6.336879208195374 -5.616593789542084 -1.139198009135576 4.000000000000000
-6.442534328479261 -5.634505896502858 -1.293224933505682 9.000000000000000
-6.066102125224895 -5.234114291013705 -1.343811219981477 7.000000000000000
-5.562482286935738 -4.735031566773454 -1.346644299429171 22.000000000000000
-5.369745839123411 -4.508795194457291 -1.409857977831692 10.000000000000000
-5.379072238024619 -4.454815125685943 -1.521219265613126 4.000000000000000
-6.321973971830531 -5.162873974423802 -1.915419907935251 8.000000000000000
-5.601552433816614 -4.510595361297627 -1.809473906372648 2.000000000000000
-5.733856908352644 -4.551037975151523 -1.966554932684409 2.000000000000000
-5.691504459828781 -4.452931627097845 -2.066018612728563 14.000000000000000
-5.529782313586055 -4.262740057482820 -2.117113782176628 15.000000000000000
-5.438460145008537 -4.130750498883752 -2.190350558044386 39.000000000000000
-5.536149187004798 -4.142895533138128 -2.340399278057112 7.000000000000000
-5.902585784668818 -4.284250731688883 -2.730864464349863 24.000000000000000
-5.558890226276280 -3.971982785201791 -2.682851506563615 5.000000000000000
-5.462745415224921 -3.840429120467288 -2.745526670623681 16.000000000000000
-6.050762728520684 -5.624487854322790 -0.558396615068840 7.000000000000000
-6.133600960035341 -5.625462785214332 -0.699293725999434 7.000000000000000
-6.217323990064165 -5.627346822253778 -0.842041652558193 9.000000000000000
-6.293841156698379 -5.621106063832380 -0.986278922717331 13.000000000000000
-6.374988477513726 -5.617407441731597 -1.132889908660900 10.000000000000000
-6.460089265055818 -5.616701309811466 -1.283062385027603 9.000000000000000
-6.079617562331813 -5.214802728375340 -1.333597690428292 5.000000000000000
-5.604636785714729 -4.742572602598015 -1.344376290069105 21.000000000000000
-5.396372858338488 -4.504065887316469 -1.404554896221506 12.000000000000000
-5.393661780693619 -4.440025061011910 -1.512776934340001 0.000000000000000
-6.263489908793550 -5.084140164460544 -1.882782236627618 10.000000000000000
-5.695475123855487 -4.558272068649477 -1.825956971484634 1.000000000000000
-5.779688374106237 -4.559264599875713 -1.967919867916715 2.000000000000000
-5.761533623711118 -4.479868601644300 -2.076836925434393 5.000000000000000
-5.526445432739790 -4.233657824332537 -2.101553307774375 18.000000000000000
-5.443974542481409 -4.109022151836996 -2.178228210387333 38.000000000000000
-5.535826742406168 -4.116497101451070 -2.325397577147971 7.000000000000000
-5.918421769567503 -4.268202899436675 -2.721703835238109 14.000000000000000
-5.588974418525779 -3.967670090904754 -2.681521769220657 5.000000000000000
-5.592677453857317 -3.906153702237929 -2.794692496789038 2.000000000000000
-6.078967520807132 -5.618489885053907 -0.549855701542602 14.000000000000000
-6.153230453754650 -5.611107131747235 -0.689904152068722 29.000000000000000
-6.231257613430239 -5.607432717988777 -0.831806989809924 12.000000000000000
-6.316864020020451 -5.608941669420891 -0.977250378155507 6.000000000000000
-6.422095851946972 -5.625895063405029 -1.128066311863102 4.000000000000000
-6.519486584454868 -5.635067766209676 -1.281112776197976 13.000000000000000
-6.510471208393780 -5.551383599798788 -1.414032804626785 23.000000000000000
-5.646881933240214 -4.749920918989342 -1.342004357441768 21.000000000000000
-5.410933493732514 -4.489207586641715 -1.396079500043647 12.000000000000000
-5.502016653544147 -4.501958940687947 -1.530412506640848 0.000000000000000
-6.422877538192009 -5.181928427223647 -1.915475372987078 8.000000000000000
-5.683447983002790 -4.520902289117178 -1.808346625168024 0.000000000000000
-5.807373383109787 -4.552970229762206 -1.963000885391316 1.000000000000000
-5.828754408558845 -4.504108798780734 -2.086375319412066 5.000000000000000
-5.526004268834718 -4.206952682518726 -2.087182298667023 17.000000000000000
-5.470732738087359 -4.103312031936062 -2.174601038578789 24.000000000000000
-5.584165150022963 -4.126194917188650 -2.330791943232078 3.000000000000000
-7.070359060675663 -5.146878157854099 -3.092546520478864 31.000000000000000
-5.943343379258555 -4.258661122288089 -2.716702950588350 26.000000000000000
-5.606902660973444 -3.954639512366125 -2.674315777465615 6.000000000000000
-6.115991865858496 -5.620481637402984 -0.542038430711865 3.000000000000000
-6.205302806766743 -5.626143164525058 -0.684065909544348 3.000000000000000
-6.289614936697757 -5.627302058900119 -0.827414941832069 8.000000000000000
-6.375606996830546 -5.628255311175394 -0.973641399177008 9.000000000000000
-6.454345696569987 -5.621143688864271 -1.120530793110946 13.000000000000000
-6.534024045226065 -5.614467128512874 -1.270256918601901 10.000000000000000
-6.494844313878876 -5.505334502236390 -1.396665084034400 6.000000000000000
-5.692236527315343 -4.759601022231275 -1.340239316790832 21.000000000000000
-5.389109381343152 -4.444345350455545 -1.378294047655796 6.000000000000000
-6.621314307192518 -5.385179274175493 -1.826478861185741 5.000000000000000
-6.446137041179549 -5.169162198072421 -1.907217716033505 7.000000000000000
-5.713859084222471 -4.517349855495118 -1.804267344022654 0.000000000000000
-5.883869594598231 -4.584591032593943 -1.974401088335818 1.000000000000000
-5.871766613166433 -4.509261734969694 -2.087050417704876 5.000000000000000
-5.531539645153786 -4.184912318156742 -2.075133259198521 18.000000000000000
-5.576998785161928 -4.156745107855106 -2.202310300258576 48.000000000000000
-5.647916607015489 -4.146893101426384 -2.342404663063346 3.000000000000000
-7.086058300952625 -5.125414048312695 -3.080242293855996 21.000000000000000
-5.962143411590646 -4.244672758246366 -2.708877094854515 42.000000000000000
-5.646167621069722 -3.956528145983932 -2.677217253945003 6.000000000000000
-6.147172020810736 -5.616926009109690 -0.533623795148531 35.000000000000000
-6.227889449543990 -5.614237836346786 -0.674885561551590 21.000000000000000
-6.309460783807949 -5.612492250527353 -0.817857784312141 12.000000000000000
-6.398663392653585 -5.615827309792388 -0.964476238227218 4.000000000000000
-6.504604749452645 -5.631838638663158 -1.116013710246779 6.000000000000000
-6.590612138226884 -5.629822147565296 -1.267491313674267 15.000000000000000
-6.533319323898427 -5.505209713528591 -1.390949539719485 7.000000000000000
-5.737695962707474 -4.769070792966899 -1.338360493738675 20.000000000000000
-5.403465742497264 -4.429503143177044 -1.369839360743865 9.000000000000000
-5.510131393513182 -4.454434368694475 -1.507316317570374 0.000000000000000
-6.353514119374272 -5.063975562431509 -1.864914431819393 2.000000000000000
-5.768725526139618 -4.532866885620755 -1.807777530922427 0.000000000000000
-6.006506275254092 -4.651357344415009 -2.000873114390255 3.000000000000000
-5.908743675158228 -4.509546263822022 -2.085459344059830 5.000000000000000
-5.555357064976349 -4.176702113206284 -2.069944766933535 25.000000000000000
-5.613185641113828 -4.157412205132100 -2.202055111710918 45.000000000000000
-5.607628795456483 -4.091228173548751 -2.310888860228509 2.000000000000000
-7.089411771472295 -5.095101162711032 -3.062627773048947 17.000000000000000
-5.977837164489245 -4.228454959010708 -2.699638400687936 7.000000000000000
-5.820219154121151 -4.052028268083632 -2.743525453253976 11.000000000000000
-6.181324195529706 -5.615925324969608 -0.525393123407654 4.000000000000000
-6.274200089424708 -5.623542650930379 -0.668195548496035 3.000000000000000
-6.359086311167372 -5.623996147091497 -0.812079198492208 5.000000000000000
-6.448644495831431 -5.626838212194444 -0.959280928702019 12.000000000000000
-6.530919746177906 -5.621595337652951 -1.107292702343021 14.000000000000000
-6.608116551882524 -5.611599492370313 -1.257118440706942 11.000000000000000
-6.702007160364731 -5.613951483739583 -1.412580886405447 5.000000000000000
-5.786295019842548 -4.780837996702083 -1.337069180197837 21.000000000000000
-5.420812196029662 -4.417099576634942 -1.362131588895682 32.000000000000000
-5.427079085585755 -4.360834672338865 -1.472205678336030 7.000000000000000
-5.765052253374146 -4.567050806467901 -1.678736264875026 0.000000000000000
-6.423878292133319 -5.016803563230309 -1.997782194288954 5.000000000000000
-6.003927913220399 -4.620734866462752 -1.985417564823179 5.000000000000000
-5.936566721885042 -4.502684025559348 -2.080554763177298 5.000000000000000
-5.582240407149862 -4.170694757318087 -2.065846382977870 26.000000000000000
-5.624840659915888 -4.139821965682923 -2.192131757674746 35.000000000000000
-5.582365997036747 -4.046963743270122 -2.285819401393083 2.000000000000000
-5.543794603993228 -3.958809056917929 -2.380089964602210 0.000000000000000
-5.786310244768670 -4.002242334847939 -2.711506969276689 2.000000000000000
-6.224396490381193 -5.622807246170894 -0.517825262939520 20.000000000000000
-6.302742445838060 -5.616715476854941 -0.659521730869759 21.000000000000000
-6.378916530867097 -5.608973116490837 -0.802414151615957 6.000000000000000
-6.480717175902761 -5.621986100182965 -0.951315497250247 4.000000000000000
-6.581335886054696 -5.631891189575389 -1.102562281103317 7.000000000000000
-6.658834215820173 -5.621420580753790 -1.252985850079822 9.000000000000000
-6.753059567198627 -5.623242448962388 -1.409017686920417 14.000000000000000
-5.841100450730583 -4.797376907906245 -1.337047616191327 23.000000000000000
-5.453379396954390 -4.416996596958391 -1.358196677705905 8.000000000000000
-5.413808071424606 -4.323916546686139 -1.456306239453641 3.000000000000000
-5.777113379315460 -4.548795294205965 -1.668838630288734 0.000000000000000
-6.434572748030733 -4.994406862346013 -1.985857407683460 5.000000000000000
-6.050383928184845 -4.627791860084371 -1.986147230519273 6.000000000000000
-5.952085145506483 -4.486430559417279 -2.071308585452162 11.000000000000000
-5.615293563317936 -4.169151960840495 -2.063955940707070 25.000000000000000
-5.648751096869080 -4.131221161380106 -2.186972053178909 14.000000000000000
-5.544511823696753 -3.993994368237570 -2.255839893115971 6.000000000000000
-5.545898529701940 -3.934961387367396 -2.366239290134772 8.000000000000000
-6.246754519768619 -5.610817251912708 -0.508460161063855 5.000000000000000
-6.343224771357534 -5.620353498755800 -0.652016908568790 3.000000000000000
-6.440677105108993 -5.630583203330591 -0.797919305504164 8.000000000000000
-6.524848262927397 -5.627388842478708 -0.945025905104976 17.000000000000000
-6.601633582357354 -5.616238127054810 -1.092702770430964 18.000000000000000
-6.688427330857364 -5.613187544087219 -1.244775254712415 7.000000000000000
-6.801177007086415 -5.629778999728881 -1.404699160849303 5.000000000000000
-5.893003522837553 -4.811161922723722 -1.336191016717883 24.000000000000000
-5.553301126554961 -4.470944780027620 -1.370802455406025 5.000000000000000
-5.397272813976973 -4.284674236937839 -1.439657200456492 1.000000000000000
-5.776810248794420 -4.520893981916572 -1.655409602996870 1.000000000000000
-6.439015734032642 -4.967246406402366 -1.972045515438940 5.000000000000000
-6.035292887249671 -4.587773030771485 -1.966672922282540 2.000000000000000
-5.970630490896045 -4.472443576033545 -2.063109304030865 7.000000000000000
-5.654563961847717 -4.172023050767712 -2.064244671843896 24.000000000000000
-5.657205573267972 -4.111300531680135 -2.175823761243643 2.000000000000000
-5.531051270257755 -3.958962532327232 -2.235998102282116 10.000000000000000
-5.572596369297728 -3.928560729743556 -2.362887279919749 4.000000000000000
-6.377783136267258 -5.618537589811493 -0.643811788196078 10.000000000000000
-6.466533418212381 -5.620539134242509 -0.788860818897059 8.000000000000000
-6.556980546632911 -5.622238020766528 -0.936904343529716 3.000000000000000
-6.652187358298188 -5.626150039102392 -1.087767938305742 4.000000000000000
-6.748429225270708 -5.630209641808142 -1.242102403508984 11.000000000000000
-6.831079794643456 -5.621033226347696 -1.396520786636970 12.000000000000000
-5.951158269752697 -4.829666918373636 -1.336574990758614 26.000000000000000
-5.632140211898419 -4.507195326808040 -1.377868977630522 15.000000000000000
-5.402046817927618 -4.262542107136089 -1.428778835862964 2.000000000000000
-5.834904099799395 -4.538562996175233 -1.658648870585062 0.000000000000000
-6.452588920845950 -4.947202962440572 -1.961064778888072 5.000000000000000
-6.063247459020885 -4.580562707047866 -1.961269878797689 4.000000000000000
-6.004600736815009 -4.469909445055814 -2.060188230342432 5.000000000000000
-5.700098665508758 -4.179257078656592 -2.066683689867423 20.000000000000000
-5.529276648942023 -3.992945801727672 -2.112601136970686 7.000000000000000
-5.529784767676291 -3.932854092514969 -2.221202176787047 10.000000000000000
-5.614787961480078 -3.932897642871031 -2.366004285354927 4.000000000000000
-6.427374455933536 -5.629715072364849 -0.637016331973601 3.000000000000000
-6.522513049661004 -5.636442693791050 -0.783373012434952 12.000000000000000
-6.601232657938833 -5.627274746929221 -0.930420506187662 22.000000000000000
-6.675501760891979 -5.612834542842423 -1.078289680467631 10.000000000000000
-6.775044953422444 -5.619128326080603 -1.233169385828106 5.000000000000000
-6.876272088655580 -5.624679246555226 -1.391376849076908 23.000000000000000
-6.012543238986603 -4.850365895430600 -1.337488123222112 25.000000000000000
-5.674350119896131 -4.513691763555132 -1.375767923906253 18.000000000000000
-5.431379745566058 -4.259760847577847 -1.424379015886442 6.000000000000000
-5.865364717433628 -4.534461262066809 -1.653896548850690 0.000000000000000
-6.462988626868500 -4.924770813340698 -1.949139924437445 6.000000000000000
-6.097402321883738 -4.577891821086352 -1.957798610561743 4.000000000000000
-6.038607165281674 -4.467229074814432 -2.057190291767252 5.000000000000000
-5.941296019431485 -4.328762332367400 -2.139428493632054 20.000000000000000
-5.524785327280752 -3.964466861153907 -2.096951500220210 8.000000000000000
-5.556337151964774 -3.926542494052825 -2.217592725478104 6.000000000000000
-5.647752471644655 -3.930558703143384 -2.365116551076390 4.000000000000000
