# This PCD file was generated using the MATLAB® pcwrite function
# from Computer Vision Toolbox®.
# .PCD v.7 - Point Cloud Data file format
VERSION .7
FIELDS x y z intensity
SIZE 8 8 8 8
TYPE F F F F
COUNT 1 1 1 1
WIDTH 637
HEIGHT 1
VIEWPOINT 0 0 0 1 0 0 0
POINTS 637
DATA ascii
3.716832253550371 -4.978756947251672 -2.763537092054468 32.000000000000000
3.572688686775601 -4.741735871909786 -2.761908845061615 28.000000000000000
3.570983858981889 -4.696899906553837 -2.867194717263787 57.000000000000000
3.526879510100570 -4.551081455925415 -3.042190411983536 20.000000000000000
4.917362379724355 -7.541480535300755 -1.480876281851901 22.000000000000000
5.523558910846133 -8.333276021824190 -2.001305499543302 1.000000000000000
5.553113657377454 -8.307763165816016 -2.180821837968108 34.000000000000000
3.227069582607483 -4.707469346072117 -1.557180228747115 31.000000000000000
3.208088821372252 -4.640588040773454 -1.643315170628199 7.000000000000000
3.212556298980392 -4.606989759761996 -1.740553756518168 33.000000000000000
3.226803786905339 -4.587571240338896 -1.843676608201342 47.000000000000000
3.325337421543551 -4.686804933796200 -1.997760382384653 35.000000000000000
3.344065639499377 -4.672245790021289 -2.107544608388625 39.000000000000000
3.304892119823307 -4.577377544585180 -2.179909835442088 31.000000000000000
3.301696350268600 -4.533061763809721 -2.275270589646276 23.000000000000000
3.347734273843619 -4.555678955299881 -2.405660094022120 6.000000000000000
3.500958738415165 -4.722499515383614 -2.619805763623712 19.000000000000000
3.572859267903441 -4.775389906194341 -2.779699245525261 37.000000000000000
3.560254685430577 -4.715954348373527 -2.876724727694055 20.000000000000000
3.545021073230265 -4.652100863417527 -2.970586330498281 26.000000000000000
3.501183941150314 -4.550224350609383 -3.038944778924518 22.000000000000000
4.892010482008654 -7.552128246021795 -1.485931492215308 79.000000000000000
4.929175686759637 -7.547232344425255 -1.649668751088821 11.000000000000000
5.531087771175287 -8.330125218116981 -2.189013000885724 7.000000000000000
5.560491493445014 -8.305456155529800 -2.369454873994818 12.000000000000000
3.213852046276547 -4.719919712527261 -1.562022065126047 15.000000000000000
3.210151255017372 -4.675133368428566 -1.656055828562600 7.000000000000000
3.212411152469591 -4.638223908063629 -1.752643023024356 7.000000000000000
3.217868137192953 -4.606223839409601 -1.851238124308441 38.000000000000000
3.307201339599489 -4.693327509536707 -2.000374011923101 57.000000000000000
3.321463856244440 -4.672746759089701 -2.107363181105358 36.000000000000000
3.278108755417187 -4.571803403211606 -2.176612191006921 32.000000000000000
3.279254766476652 -4.533646227789291 -2.274673615662719 22.000000000000000
3.325051401419953 -4.556504391827799 -2.404937609413015 7.000000000000000
3.419050718478929 -4.644463558965495 -2.575054646781363 13.000000000000000
3.495015097324047 -4.704362683537165 -2.736579107429563 13.000000000000000
3.514862460302081 -4.645431518870099 -2.963950723046426 27.000000000000000
3.479828341759292 -4.554885972049006 -3.039400021964854 21.000000000000000
2.970375179667028 -4.615934830906644 -0.910007103731018 3.000000000000000
4.897147309390424 -7.548052219273663 -1.652501112026265 39.000000000000000
4.932431442833516 -7.541011092367099 -1.815801687008705 8.000000000000000
3.286880848952528 -4.983415599898975 -1.310926101453721 14.000000000000000
5.533880082343418 -8.321360236447299 -2.375945927313282 11.000000000000000
5.570763150302882 -8.306657353403104 -2.559495562875936 22.000000000000000
3.215710126383797 -4.754707726988021 -1.574251191517135 9.000000000000000
3.214178336327403 -4.712908012352337 -1.669937630388856 6.000000000000000
3.216417120121846 -4.675796557271182 -1.767122934149755 7.000000000000000
3.211003348584179 -4.627992206490288 -1.860045599453503 7.000000000000000
3.293384461727204 -4.705981547989652 -2.005595287498132 45.000000000000000
3.301057257221824 -4.676232030175663 -2.108524361847004 32.000000000000000
3.257888316012604 -4.575236380195003 -2.177602302012168 33.000000000000000
3.256844155186682 -4.534148953576025 -2.274036810522593 22.000000000000000
3.300240592055774 -4.554268791527569 -2.402603548042281 7.000000000000000
3.391610896963997 -4.639694811438234 -2.570957716553930 15.000000000000000
3.424179339771976 -4.641681059471630 -2.698372989640438 12.000000000000000
3.615751720949992 -4.857821882323973 -2.958970437848533 13.000000000000000
3.501919641472593 -4.661433276054103 -2.971789803731747 30.000000000000000
3.452075639653871 -4.551031910273339 -3.034189567212658 22.000000000000000
2.907286485815571 -4.547906553164989 -0.898340288016243 19.000000000000000
2.940828845213578 -4.562981612642420 -1.000562094948108 7.000000000000000
4.902340345512838 -7.545206797149719 -1.819151869691678 51.000000000000000
3.266790320517572 -4.986266196721698 -1.313029480706059 29.000000000000000
3.291890651466487 -4.983484493954461 -1.424056964205782 9.000000000000000
5.546025198739031 -8.325846798696830 -2.566995048608666 34.000000000000000
3.219520632100525 -4.792754070149049 -1.587557659598159 5.000000000000000
3.215833290637271 -4.747574332164655 -1.682715129604652 6.000000000000000
3.213741013392603 -4.703980418289930 -1.778049752729987 6.000000000000000
3.214796585735003 -4.665402519462798 -1.875133660232448 6.000000000000000
3.281669054748511 -4.721704339316328 -2.012118373055464 17.000000000000000
3.280660464780998 -4.679647926860887 -2.109650728307774 27.000000000000000
3.235525382963817 -4.575556177978308 -2.177109358383581 33.000000000000000
3.232314290145454 -4.531555101764303 -2.271848738229593 24.000000000000000
3.277629632401212 -4.554923221936046 -2.401798167014298 7.000000000000000
3.374964237032542 -4.649587269395090 -2.574989441343492 20.000000000000000
3.398784044913570 -4.639998374568069 -2.695660605500372 16.000000000000000
3.422848371427823 -4.631485858518678 -2.819076403461851 10.000000000000000
3.473990044865379 -4.657423741114506 -2.966879381417318 27.000000000000000
3.430766968239402 -4.555530371640379 -3.034564390929857 23.000000000000000
2.891169647056529 -4.552833109097766 -0.901039817456580 26.000000000000000
2.916035115971181 -4.554786761989916 -1.000328323713944 10.000000000000000
3.007963953902352 -4.660672120154359 -1.125116989668185 1.000000000000000
3.246709660190762 -4.989048775265274 -1.315098741710319 25.000000000000000
3.271651733815645 -4.986397864068560 -1.426027795603429 24.000000000000000
3.291779882547644 -4.975323533767032 -1.534907469262740 6.000000000000000
3.336541189627357 -5.000879392085292 -1.657224847670557 15.000000000000000
3.225857208615249 -4.795032644920229 -1.700024471522204 6.000000000000000
3.215194403875455 -4.738513799375063 -1.791371518814581 6.000000000000000
3.216224757228536 -4.699748650374231 -1.888984101123098 6.000000000000000
3.280600275721393 -4.752940384922850 -2.025245547657408 3.000000000000000
3.260273764575238 -4.682994529078184 -2.110742338762882 25.000000000000000
3.215336245338428 -4.578845194633767 -2.178027895365950 34.000000000000000
3.209977259499085 -4.531888601942696 -2.271130047593183 26.000000000000000
3.252912627560514 -4.552504437800055 -2.399376331730426 7.000000000000000
3.354017072632875 -4.653513357043102 -2.575718717622062 20.000000000000000
3.377699220490014 -4.644075597662095 -2.696302249211060 18.000000000000000
3.399496497579142 -4.632820994675342 -2.817870329564957 14.000000000000000
3.427057179096156 -4.627547822520729 -2.945522745030016 10.000000000000000
3.405238957386229 -4.554302849801558 -3.031139916828082 23.000000000000000
2.887673839623248 -4.577728282212195 -0.907682527203281 17.000000000000000
2.899758051466474 -4.559766881725633 -1.002968208505863 10.000000000000000
2.906590722572993 -4.533955655973218 -1.095898024964490 25.000000000000000
3.167279163458620 -4.899930710663666 -1.292902831389860 4.000000000000000
3.262041439311081 -5.005536857167104 -1.432627802242780 0.000000000000000
3.275673938419735 -4.984760759675646 -1.538739879887313 27.000000000000000
3.322318833580987 -5.013676137879026 -1.662182045533980 26.000000000000000
3.376275756794403 -5.053143297334731 -1.792038177797411 12.000000000000000
3.218580907491495 -4.776267970104061 -1.805906204565800 6.000000000000000
3.217452722868711 -4.734150507057121 -1.902850743656875 5.000000000000000
4.358955783598081 -6.359244844970732 -2.709445234425309 16.000000000000000
3.237764527033116 -4.683186814387928 -2.110408995675738 21.000000000000000
3.193026387744529 -4.579008758601129 -2.177458444108927 33.000000000000000
3.189801639553218 -4.535168380819750 -2.271888478318505 26.000000000000000
3.230375066782516 -4.552988647310752 -2.398488546015856 7.000000000000000
3.343694140676595 -4.672200955360237 -2.584617520318218 20.000000000000000
3.358742506708082 -4.651015943087638 -2.698610655647998 17.000000000000000
3.378288638883835 -4.636973742845621 -2.818386840117707 17.000000000000000
3.403583604715196 -4.628998542601962 -2.944134361455473 13.000000000000000
3.383968056445640 -4.558645009151284 -3.031437262008831 23.000000000000000
2.904992068967539 -4.636069769748347 -0.920968060934365 18.000000000000000
2.927576367866350 -4.634512849478717 -1.020961927951831 16.000000000000000
2.900766245103954 -4.555467636051614 -1.102458075462201 26.000000000000000
2.985071956288222 -4.649401596273617 -1.228010672734544 6.000000000000000
3.296715836610247 -5.093230998898126 -1.458856636036044 14.000000000000000
3.257419658643659 -4.990910637771634 -1.541546033454651 37.000000000000000
3.286851393951995 -4.994239921873839 -1.656439409346874 26.000000000000000
3.332012834120724 -5.021308486031184 -1.781237648761666 9.000000000000000
3.219623773723572 -4.810917916537145 -1.819262365909844 2.000000000000000
3.218480138179242 -4.768607299788062 -1.916733163628604 5.000000000000000
4.333056665736073 -6.365619045487422 -2.711901565184104 14.000000000000000
3.213164875594098 -4.680206317852142 -2.108643237862974 24.000000000000000
3.172869769641366 -4.582154260149001 -2.178305708823785 33.000000000000000
3.167518396805155 -4.535345838751618 -2.271093421420460 28.000000000000000
3.212101459235125 -4.559398254812650 -2.400724009458594 7.000000000000000
3.331162096660882 -4.687907058169099 -2.591862361264237 16.000000000000000
3.341882283565489 -4.660838079618759 -2.702593420839847 17.000000000000000
3.357089812174685 -4.641054918841006 -2.818867367098822 17.000000000000000
3.382238111652283 -4.633239086484809 -2.944531358901822 15.000000000000000
3.360613395291281 -4.560076002520740 -3.029811951033147 24.000000000000000
2.888627477323293 -4.640975453021596 -0.923641782134095 36.000000000000000
2.908977955446748 -4.636185809997333 -1.022864795515139 30.000000000000000
2.928345470640623 -4.629978116423861 -1.121855358776120 15.000000000000000
2.934630103675542 -4.601970289008307 -1.216667421149298 16.000000000000000
2.992303501278327 -4.654549726997405 -1.334222843135978 2.000000000000000
3.213881794338752 -4.958015564663258 -1.532273302180392 30.000000000000000
3.274736564824913 -5.010136032527965 -1.662402287824359 43.000000000000000
3.281660548198653 -4.979661870754461 -1.766938510347970 24.000000000000000
3.241583936186594 -4.877396427691395 -1.844651097579222 0.000000000000000
3.219306662332468 -4.803118237326072 -1.930630936281577 5.000000000000000
4.307157601818943 -6.371908983724964 -2.714314885236858 14.000000000000000
3.194953730070622 -4.686424505129452 -2.111018716267096 24.000000000000000
3.150614286423902 -4.582162156357865 -2.177660118343411 33.000000000000000
3.145267861119106 -4.535442406812948 -2.270259072505606 26.000000000000000
3.189606801160042 -4.559731541706520 -2.399761805171561 7.000000000000000
3.320656260503366 -4.706570485604446 -2.600737638366649 14.000000000000000
3.331282375218622 -4.679454019965308 -2.711673249414150 16.000000000000000
3.342178667284879 -4.653806880396236 -2.824618076116224 17.000000000000000
3.360901602087725 -4.637407720538172 -2.944892197445795 17.000000000000000
3.335207170247517 -4.558577444503071 -3.026256567774352 23.000000000000000
2.872255762439030 -4.645829922042093 -0.926288923929324 74.000000000000000
2.892472392766140 -4.641131763154225 -1.025473263486996 52.000000000000000
2.909626846480622 -4.631695803012777 -1.123619865698830 26.000000000000000
2.901224538044738 -4.580676913540159 -1.212200970799519 54.000000000000000
2.958550549219384 -4.633624893666267 -1.329223454694490 4.000000000000000
2.996654348438797 -4.654748169898066 -1.439368677863129 5.000000000000000
3.241566762530799 -4.993689741564990 -1.657621093327477 39.000000000000000
3.284109873885072 -5.017985871699365 -1.781004246956233 28.000000000000000
3.084530982261153 -4.673448387044063 -1.767747943884052 28.000000000000000
3.280883672768648 -4.929257457264923 -1.981352882693603 0.000000000000000
4.279157182793885 -6.374983580026797 -2.715351571957530 14.000000000000000
3.172530540205481 -4.686378937831628 -2.110569217654709 23.000000000000000
3.128391808298613 -4.582089368375132 -2.176975359069024 34.000000000000000
3.123050376566598 -4.535458258174690 -2.269385541018148 27.000000000000000
3.167144730938226 -4.559983398267659 -2.398760025682761 7.000000000000000
3.314235631523893 -4.731194361904101 -2.612899173068925 9.000000000000000
3.322672626003766 -4.701013116322623 -2.722452258638873 11.000000000000000
3.331377312415922 -4.672364690949810 -2.833890152614591 16.000000000000000
3.343728069353187 -4.647277538310879 -2.948880140007524 16.000000000000000
3.311924195603984 -4.559834484244108 -3.024546841903953 23.000000000000000
2.857940620290835 -4.653993465151526 -0.929580678165440 132.000000000000000
2.875959755791007 -4.646026098198380 -1.028054948886514 86.000000000000000
2.890921854212382 -4.633349586587959 -1.125352585327116 43.000000000000000
2.909544133272176 -4.625311676022560 -1.225171349726573 22.000000000000000
2.937448837628775 -4.632248788150614 -1.329812577392219 7.000000000000000
2.964901597443744 -4.637257264311177 -1.434763946462538 10.000000000000000
3.003956465085357 -4.659758922968542 -1.547394046675556 6.000000000000000
3.248730778183941 -4.998512764970189 -1.774547398440072 22.000000000000000
3.025035610139510 -4.615365247752431 -1.745997476294575 13.000000000000000
3.195262011421482 -4.834333405195058 -1.943210026163382 8.000000000000000
2.988162580591232 -4.483082872861640 -1.909321436272313 3.000000000000000
3.150140254219496 -4.686252359806284 -2.110080377368584 24.000000000000000
3.106202678221694 -4.581936070338483 -2.176251540870108 35.000000000000000
3.102953006507965 -4.538445648976944 -2.269999500150923 27.000000000000000
3.144715594270079 -4.560153997509771 -2.397718780455755 7.000000000000000
3.293113290898257 -4.734895173035455 -2.613502736496519 0.000000000000000
3.320173731179723 -4.731451346978154 -2.738362749155549 5.000000000000000
3.320478850437345 -4.690912130810553 -2.843150995781383 15.000000000000000
3.336852169413957 -4.671563050300019 -2.962012198919671 16.000000000000000
3.290732860701270 -4.563865663726188 -3.024690305297712 22.000000000000000
2.843598045354348 -4.662117534641200 -0.932850604141941 111.000000000000000
2.859440246872164 -4.650868819675041 -1.030609866410243 136.000000000000000
2.876357525942602 -4.641598953545046 -1.128672909838312 78.000000000000000
2.898995293491123 -4.640249436607970 -1.230274544309414 32.000000000000000
2.916381814125223 -4.630795938509509 -1.330364645547795 10.000000000000000
2.943661230430885 -4.635964385208102 -1.435154618687547 15.000000000000000
2.970023305289571 -4.639197546822390 -1.541170882022474 10.000000000000000
3.007729933613767 -4.660056605673437 -1.654804241704467 6.000000000000000
3.001315867840622 -4.611311663090113 -1.744675272736213 12.000000000000000
2.964678931897894 -4.517073240965038 -1.815689446606541 5.000000000000000
2.968738459694711 -4.485450387662191 -1.910128471530273 5.000000000000000
3.127783215842730 -4.686044944968744 -2.109552305212028 23.000000000000000
3.084047238188012 -4.581702437542359 -2.175488774147849 35.000000000000000
3.080791937704229 -4.538306667415555 -2.269050380460545 28.000000000000000
3.122319735898005 -4.560243513611155 -2.396638179490011 7.000000000000000
3.321847461781592 -4.727043292262946 -2.863056959567358 9.000000000000000
3.323669818114094 -4.687165790059582 -2.969632939717056 19.000000000000000
3.265451803863648 -4.562097828404353 -3.021005117624254 20.000000000000000
2.831270943213283 -4.673574037369780 -0.936774553101923 64.000000000000000
2.847010486188818 -4.662368376462600 -1.034626702580401 104.000000000000000
2.859712569160757 -4.646472568214699 -1.131159005008701 116.000000000000000
2.880147481990481 -4.641907758132048 -1.231845301560787 62.000000000000000
2.897410553094610 -4.632561374415118 -1.331827015453992 13.000000000000000
2.922455764418537 -4.634594367297353 -1.435508047916316 23.000000000000000
2.946583776994598 -4.634737469045784 -1.540281999562197 16.000000000000000
2.973723536839812 -4.639683307640054 -1.647971823561062 11.000000000000000
2.979721356471265 -4.610369229058699 -1.744521771012831 12.000000000000000
2.941175168885755 -4.512942172465713 -1.814027997002886 5.000000000000000
2.947258367708204 -4.484602404443473 -1.909561569584441 22.000000000000000
3.107528695071422 -4.688878625133277 -2.110390164892731 23.000000000000000
3.063993301089577 -4.584482089139727 -2.176155560899825 36.000000000000000
3.058664926070813 -4.538087466069675 -2.268062393393432 27.000000000000000
3.097894986295303 -4.557218022029740 -2.393924508745788 8.000000000000000
3.308366886601173 -4.699840285064768 -2.975398097485982 17.000000000000000
3.244302251308162 -4.565974348143977 -3.021072186202766 22.000000000000000
2.818895901749937 -4.685002523664668 -0.940681268205708 38.000000000000000
2.834532485859590 -4.673839672344386 -1.038626161728262 57.000000000000000
2.847145877135992 -4.657977110310982 -1.135246930903784 87.000000000000000
2.863360666325570 -4.646823440909425 -1.234266423246732 96.000000000000000
2.884604041960844 -4.644164503059176 -1.336106129627536 13.000000000000000
2.901285527861729 -4.633147389653621 -1.435824345651633 34.000000000000000
2.921144921667291 -4.626931884407758 -1.538268404300196 22.000000000000000
2.950166399931379 -4.635322500865058 -1.646814964010838 16.000000000000000
2.960220420653512 -4.612556133970020 -1.745544319724218 12.000000000000000
2.921846426361876 -4.515084979099327 -1.814882115253760 6.000000000000000
2.929931688727399 -4.489986913624316 -1.911643746850706 6.000000000000000
3.085228443117492 -4.688516068858394 -2.109786369715059 24.000000000000000
3.043952240369058 -4.587193785132913 -2.176788445391552 35.000000000000000
3.040681340765822 -4.543928666817392 -2.270103357733671 28.000000000000000
3.075577475375073 -4.557139878907874 -2.392763113438734 8.000000000000000
3.286907714805967 -4.703746755747920 -2.975617605160306 12.000000000000000
3.237362307642393 -4.589910944876441 -3.034412431947870 15.000000000000000
2.816582777628614 -4.713320705728065 -0.947973302219514 22.000000000000000
2.824033633674394 -4.688648404799198 -1.043357164181912 35.000000000000000
2.832498844906346 -4.666105738474037 -1.138500562575125 55.000000000000000
2.848603465519423 -4.655014141827832 -1.237545003470026 80.000000000000000
2.867669297882027 -4.649125137631353 -1.338463392338039 42.000000000000000
2.886278828768813 -4.641478150829825 -1.439159163529276 49.000000000000000
2.903964309267956 -4.632073437132904 -1.540547618058478 33.000000000000000
2.926665929393288 -4.630871977191836 -1.645615771858029 23.000000000000000
2.938685554285435 -4.611463264188324 -1.745317671965672 13.000000000000000
2.904580386522511 -4.520349836894363 -1.816984900960335 6.000000000000000
2.908501342445423 -4.488994845889418 -1.911006335565481 5.000000000000000
3.062962444016149 -4.688073174836229 -2.109143658911731 25.000000000000000
3.017786463778664 -4.580521300820080 -2.172967894785329 34.000000000000000
3.014514434616055 -4.537409116106582 -2.265970263830558 29.000000000000000
3.053294291395117 -4.556981211814379 -2.391562711974064 8.000000000000000
3.265458958993031 -4.707581324297948 -2.975801045475543 14.000000000000000
3.240371037599866 -4.628269504524557 -3.057268868152094 13.000000000000000
2.804059939707585 -4.724721418931393 -0.951856800163766 13.000000000000000
2.815482568484391 -4.706811740838694 -1.048826555186106 20.000000000000000
2.823888718241527 -4.684253200335040 -1.144188997560787 34.000000000000000
2.837869983275592 -4.669830556426887 -1.242574960429006 49.000000000000000
2.852757009430089 -4.657345466324390 -1.341747611309647 38.000000000000000
2.869212151743677 -4.646476806787981 -1.441450280886508 65.000000000000000
2.888811210779299 -4.640429374272680 -1.543886333530777 47.000000000000000
2.907294356421846 -4.632820550183665 -1.646680683955942 34.000000000000000
2.917186340074923 -4.610292446215507 -1.745053413981506 12.000000000000000
2.905646046658985 -4.554304718044198 -1.830613445469950 12.000000000000000
2.887107068111039 -4.487924982834882 -1.910331417767560 6.000000000000000
3.038694379301384 -4.684410436254613 -2.107049912534357 27.000000000000000
2.999839523045363 -4.586190887695270 -2.175001604044426 33.000000000000000
2.996557517871430 -4.543114661077481 -2.267943610055384 30.000000000000000
3.031045775113331 -4.556742199610278 -2.390323416497968 8.000000000000000
3.634616860821311 -5.371424651209938 -3.099145284011002 14.000000000000000
3.252070591281884 -4.723034753506283 -2.983332966078604 17.000000000000000
3.241125323093222 -4.663811848960266 -3.078240678943361 12.000000000000000
2.799493589253989 -4.749673672342268 -0.958463170906704 9.000000000000000
2.806841493655466 -4.724969283637953 -1.054287483645614 12.000000000000000
2.813177331093680 -4.699035960422075 -1.149047582339753 22.000000000000000
2.827066808918874 -4.684629365191468 -1.247591667451750 29.000000000000000
2.837817143227525 -4.665524651430519 -1.345009140674551 37.000000000000000
2.856181704984798 -4.658015393576883 -1.445760236453792 59.000000000000000
2.873630079118931 -4.648743503656866 -1.547201992498397 57.000000000000000
2.889962555015790 -4.637953571286051 -1.648868430530942 45.000000000000000
2.895723108801584 -4.609043862375958 -1.744751659075582 12.000000000000000
2.900430715982472 -4.578712947084206 -1.840398166155592 31.000000000000000
2.871829286392777 -4.496296838227205 -1.913670633198095 6.000000000000000
3.018534563252858 -4.686947088561502 -2.107741938538189 35.000000000000000
2.977836013954152 -4.585570097646573 -2.174050494714244 35.000000000000000
2.974548496524780 -4.542588225355746 -2.266806003318656 30.000000000000000
3.008832266306445 -4.556423022303424 -2.389045339682058 9.000000000000000
3.301656109116730 -4.958427313540436 -2.727960687669150 7.000000000000000
3.603100532348235 -5.364112201651195 -3.093034568492347 21.000000000000000
3.248614808783034 -4.753106798657853 -3.000090262760115 14.000000000000000
3.239657125822184 -4.696519238492004 -3.097320252990323 12.000000000000000
2.796786358520686 -4.778043395386235 -0.965757410843211 8.000000000000000
2.798110380048677 -4.743120693364975 -1.059739774301597 9.000000000000000
2.806397200410267 -4.720530237715550 -1.155540145707880 14.000000000000000
2.816193972002204 -4.699410312797990 -1.252594996008825 16.000000000000000
2.826865280361665 -4.680310780947423 -1.350165797386790 31.000000000000000
2.841091577340156 -4.666221711931831 -1.449026426350742 44.000000000000000
2.856408091538133 -4.653736154676791 -1.549402664658080 56.000000000000000
2.874638578799153 -4.646288658064320 -1.652186051031315 57.000000000000000
2.874296190254310 -4.607717696110956 -1.744412521061318 12.000000000000000
2.884998981440142 -4.587109862834900 -1.843740758179450 43.000000000000000
2.854507531780603 -4.501447549129466 -1.915633762869126 28.000000000000000
2.988313174696556 -4.673658300365751 -2.101315412154329 17.000000000000000
2.959895255072789 -4.591116405937568 -2.176021651116662 33.000000000000000
2.954586475375375 -4.545076403733615 -2.267173403988505 30.000000000000000
2.988662613586457 -4.559087764112242 -2.389334330158216 9.000000000000000
3.277880983074098 -4.958994626313977 -2.726805559072791 22.000000000000000
3.447620249285011 -5.170617094476181 -2.979647207142261 19.000000000000000
3.250947669324262 -4.792016613894612 -3.022406329975036 13.000000000000000
2.789966319455853 -4.799627848338010 -0.971677134525771 0.000000000000000
2.801200755338832 -4.781598436869174 -1.069732077119980 6.000000000000000
2.795526054198134 -4.735288817959177 -1.160376615935618 10.000000000000000
2.807245285347309 -4.717523657832422 -1.258478623452425 11.000000000000000
2.819837580307245 -4.701738326432227 -1.357231273750080 23.000000000000000
2.831973882346703 -4.684310774046739 -1.455353050587995 32.000000000000000
2.843184315884838 -4.665246011343496 -1.553764010250614 43.000000000000000
2.861290363331952 -4.657843251154372 -1.656640487365734 56.000000000000000
2.854910766293051 -4.609551176340523 -1.745261719399620 12.000000000000000
2.861518021438802 -4.582618730340277 -1.841896898665998 51.000000000000000
2.845199788479274 -4.519283672434279 -1.922989665002501 94.000000000000000
2.876041466741591 -4.530791842402047 -2.036642030992672 19.000000000000000
2.935939063576595 -4.587219817290137 -2.173516082946161 35.000000000000000
2.930637917039354 -4.541297399126511 -2.264415891990256 30.000000000000000
2.968506923977682 -4.561684446506000 -2.389589431848453 9.000000000000000
3.272084242275819 -4.986827758866436 -2.740640365835955 0.000000000000000
3.285621289259699 -4.964242698323178 -2.858986389563345 15.000000000000000
3.247091690903554 -4.822174148571324 -3.039182790112422 11.000000000000000
2.815922531689461 -4.840504084952266 -1.084304615449015 0.000000000000000
2.798439281110582 -4.773661139564833 -1.170996547623375 7.000000000000000
2.804155117105919 -4.745698715842911 -1.267041348044974 7.000000000000000
2.806738130699499 -4.713163545543510 -1.361401652208932 17.000000000000000
2.822764514554198 -4.702392604466610 -1.461670376258386 22.000000000000000
2.831902970692583 -4.680016528500701 -1.559203276530282 32.000000000000000
2.845899873004699 -4.666099460381147 -1.659913774466189 46.000000000000000
2.849499065689112 -4.634018919154425 -1.754673682356849 21.000000000000000
2.762306726160640 -4.455785854991473 -1.790875195279000 40.000000000000000
2.827822312240473 -4.524349795039299 -1.924906206162468 100.000000000000000
2.854483732201338 -4.529664424274901 -2.035693205288126 22.000000000000000
2.916024558209969 -4.589502362074469 -2.173937635818751 35.000000000000000
2.912716149542929 -4.546744776352470 -2.266259599186145 30.000000000000000
2.942405167689942 -4.554986316972923 -2.384979555749057 10.000000000000000
3.287119351386135 -4.961610777838883 -2.988789865309342 22.000000000000000
3.252896797513645 -4.867095377710297 -3.065242079998990 11.000000000000000
3.270263597104567 -5.661158973441696 -1.269746070233434 28.000000000000000
2.964517641600924 -5.092771463407479 -1.250555866060897 28.000000000000000
2.804854988500839 -4.780624354435851 -1.277404898713311 4.000000000000000
2.801492832811170 -4.737923610868166 -1.369416578432435 12.000000000000000
2.811484924471375 -4.717147259806571 -1.466945891561634 16.000000000000000
2.820551117910905 -4.694767858867403 -1.564628435954405 22.000000000000000
2.832463852687556 -4.677586516464803 -1.664328364297453 34.000000000000000
2.839985040557881 -4.652004652872073 -1.761624727081233 42.000000000000000
2.771092985384784 -4.502464387157169 -1.809586170573998 30.000000000000000
2.800522031362114 -4.513379656116594 -1.919995945727039 69.000000000000000
2.858735465907674 -4.569655844471716 -2.053217231334062 15.000000000000000
2.894144011700523 -4.588577009064638 -2.172838574634901 36.000000000000000
2.890830185077055 -4.545913544102724 -2.264973927132666 30.000000000000000
2.924286805694881 -4.560511155058281 -2.386772859454333 10.000000000000000
3.378925394667090 -5.138482816223892 -3.093269067612068 16.000000000000000
3.258408548157253 -4.912106694646820 -3.091329415268073 15.000000000000000
3.244805797919200 -5.656865814930284 -1.270370215985510 29.000000000000000
2.971984753097916 -5.141893185626297 -1.263892833654563 32.000000000000000
2.928949678957411 -5.027754509880285 -1.344515662427828 40.000000000000000
2.798078283229115 -4.766045570079331 -1.378398906285399 7.000000000000000
2.806038435568095 -4.741858470644748 -1.475310998565799 11.000000000000000
2.813068665270539 -4.716104932657792 -1.572241377344420 16.000000000000000
2.822921319460130 -4.695600555318785 -1.671057943049070 23.000000000000000
2.820516429970589 -4.653710401523511 -1.762403633398959 39.000000000000000
2.779591755199262 -4.549239427878227 -1.828328827718490 35.000000000000000
2.769379831170535 -4.495893492166799 -1.912310920796636 30.000000000000000
2.876542602373483 -4.631942786203130 -2.080746183961702 16.000000000000000
2.876240499034244 -4.593865983982464 -2.174680646192463 36.000000000000000
2.870948978519359 -4.548120898799781 -2.265202916438023 32.000000000000000
2.900266607605583 -4.556718246818051 -2.383692183131753 10.000000000000000
3.234417352341175 -4.912840513024229 -3.089543410354049 16.000000000000000
3.215515870529664 -5.645656805128060 -1.269415977953275 30.000000000000000
2.948012940794495 -5.136818938287155 -1.263901458248471 31.000000000000000
2.895410859253418 -5.005787052617451 -1.339696958257677 27.000000000000000
2.970386042533256 -5.095925680705850 -1.474702754810690 48.000000000000000
2.802414115893128 -4.769915024830985 -1.484712018855695 6.000000000000000
2.805472548801880 -4.737445010749034 -1.579848900385150 12.000000000000000
2.813286398979265 -4.713606074343048 -1.677777521972030 16.000000000000000
2.801063758234492 -4.655350465455990 -1.763149984001349 36.000000000000000
2.803497368052101 -4.621985173366656 -1.857501430552273 41.000000000000000
2.793309416097789 -4.568095354462315 -1.942766928501523 36.000000000000000
2.884147471701046 -4.678479043938631 -2.101186140471032 28.000000000000000
2.852453287860766 -4.589642800280354 -2.172018693843819 36.000000000000000
2.851083243321232 -4.550261237821846 -2.265398642011797 33.000000000000000
2.882167308371884 -4.562113590449297 -2.385420548748205 10.000000000000000
3.212395896071663 -4.916453267587492 -3.089578591738719 17.000000000000000
3.184390294255316 -5.630915753083178 -1.267639631572097 24.000000000000000
2.920225151321889 -5.124858565625167 -1.262194021505968 32.000000000000000
2.879500221146770 -5.014083704381759 -1.342959076766297 19.000000000000000
2.901557706670058 -5.013783040110081 -1.451801123283807 23.000000000000000
2.905674160014955 -4.981508406688986 -1.551262605076375 21.000000000000000
2.805555903246109 -4.772043331187037 -1.591872645356476 6.000000000000000
2.805508696452097 -4.734893129221788 -1.685658331032705 11.000000000000000
2.787479244245628 -4.666722121235878 -1.767574639461523 27.000000000000000
2.764509306065841 -4.591232676140467 -1.845073117850729 54.000000000000000
2.808972651650090 -4.627628389372250 -1.967823196366447 36.000000000000000
2.866115337898499 -4.683687935237163 -2.103057344719065 37.000000000000000
2.836518199969884 -4.597961629059307 -2.175290637808632 38.000000000000000
2.829287387783157 -4.549205907076660 -2.264004083995870 34.000000000000000
2.856289301013887 -4.555058197176450 -2.380641982585626 10.000000000000000
3.190386295798976 -4.919993057889818 -3.089577251646913 17.000000000000000
3.153383158523188 -5.616048883401144 -1.265806302240229 15.000000000000000
2.896389119893910 -5.119595049922797 -1.262114333555472 34.000000000000000
3.029509481627559 -5.313388260059845 -1.424211184686784 47.000000000000000
2.881599458889189 -5.015388219335746 -1.453121319050047 18.000000000000000
2.897271044874064 -5.003238268114576 -1.558708223179757 25.000000000000000
2.935248346011613 -5.029097658483439 -1.678122131631808 27.000000000000000
2.807310576090844 -4.772662417529665 -1.699401299772471 6.000000000000000
2.773845816917436 -4.678062169976931 -1.771980168568593 22.000000000000000
2.785897352333369 -4.660920113509150 -1.873001771955320 26.000000000000000
2.800981887686245 -4.648668291415373 -1.976501854601426 30.000000000000000
2.850015809121825 -4.692032921282784 -2.106332583746973 32.000000000000000
2.814743697993456 -4.596745582198560 -2.174049669888927 37.000000000000000
2.809464385904026 -4.551206822771132 -2.264131250766709 35.000000000000000
2.838221141851314 -4.560318745126763 -2.382303442635656 11.000000000000000
3.164559976943027 -4.917510171057045 -3.085805870413896 17.000000000000000
3.128227879657787 -5.611340181705543 -1.266236825443227 15.000000000000000
2.887931483060787 -5.141518867065822 -1.268723566720706 36.000000000000000
3.152695392735775 -5.569532091839671 -1.493990642069304 64.000000000000000
2.884718913008058 -5.057358662217893 -1.466129651368955 34.000000000000000
2.869507786165006 -4.991490635424569 -1.555712795347277 47.000000000000000
2.901450281676923 -5.007636570593047 -1.671447947085406 27.000000000000000
2.922632920675341 -5.005286088524733 -1.782533024380051 21.000000000000000
2.771736586082165 -4.709032372381103 -1.783814568064853 16.000000000000000
2.775977304609457 -4.678756381689632 -1.880086361072743 21.000000000000000
2.789018612251612 -4.663259927931711 -1.982432350689529 26.000000000000000
2.831960557754357 -4.697135938752484 -2.108148327846848 27.000000000000000
2.794933630469714 -4.598620808879727 -2.174269683688699 38.000000000000000
2.787733790019597 -4.550000953227238 -2.262663837518557 37.000000000000000
2.814383757212525 -4.556193320455590 -2.379064205475372 10.000000000000000
3.140693487358650 -4.917912438459985 -3.083858243516313 19.000000000000000
3.099327499762159 -5.599672907497991 -1.265072479445753 14.000000000000000
2.885073284274871 -5.173686926295654 -1.277855912472461 21.000000000000000
3.148344996577861 -5.602338965283508 -1.503902224411299 63.000000000000000
2.849373404559632 -5.031898113150488 -1.459578219987136 35.000000000000000
2.849501669767939 -4.993044876915470 -1.556849090662905 54.000000000000000
2.869735516934233 -4.989360669330112 -1.665821771435340 49.000000000000000
2.894590164426518 -4.993890321907038 -1.778765648636288 28.000000000000000
2.759857909801870 -4.723624788964360 -1.789438227708758 11.000000000000000
2.771718930582381 -4.706353829918469 -1.891086406662324 15.000000000000000
2.782737639432456 -4.687521936117252 -1.992467146154601 20.000000000000000
2.810065887432977 -4.695776934731373 -2.107060674857357 26.000000000000000
2.773224899826522 -4.597254569686271 -2.172956068695561 37.000000000000000
2.769867576897111 -4.555008691234231 -2.264286516595182 34.000000000000000
2.796336894407248 -4.561325220380196 -2.380661296131893 11.000000000000000
3.116861777542157 -4.918230823454568 -3.081869923750540 20.000000000000000
3.074304874777693 -5.594769576087314 -1.265411761999183 14.000000000000000
2.912334291994369 -5.260613362485311 -1.300522980233203 22.000000000000000
3.143813256767665 -5.635173532712403 -1.513816852459208 62.000000000000000
2.825618177783881 -5.026564919376918 -1.458845785087176 35.000000000000000
2.833317091784793 -5.001249980341547 -1.560047720915561 51.000000000000000
2.851500873855434 -4.994304518062927 -1.667935594457394 54.000000000000000
2.868556353353869 -4.985695111731590 -1.776127444889267 54.000000000000000
2.763164157259840 -4.764501063927474 -1.805012313494976 7.000000000000000
2.759673253489200 -4.720924295988588 -1.896845097924707 10.000000000000000
2.772506003901244 -4.705323636251745 -1.999748968361330 15.000000000000000
2.793927149087522 -4.703965943138511 -2.110253892635832 26.000000000000000
2.753459217933033 -4.598991173198296 -2.173108033215044 37.000000000000000
2.746290584995076 -4.550507205245527 -2.261182920016852 33.000000000000000
2.774486473200163 -4.560158829108555 -2.378972942959340 11.000000000000000
3.093065196087818 -4.918465507853491 -3.079841025248824 19.000000000000000
2.509503768480623 -4.634884284693628 -0.952352090080963 0.000000000000000
3.045580834887030 -5.582886615665908 -1.264148098439135 15.000000000000000
2.886353441351558 -5.251820459811714 -1.299526709806729 7.000000000000000
3.139099964538457 -5.668035079069456 -1.523734148423787 41.000000000000000
2.803811785514493 -5.024529203063746 -1.459055091135916 35.000000000000000
3.159547030616830 -5.618344741049332 -1.753244116500519 36.000000000000000
2.831366521768004 -4.995850552115735 -1.668904095607735 46.000000000000000
2.848289278575905 -4.987353986531477 -1.776989701314593 67.000000000000000
2.821207452102668 -4.900960331557327 -1.856793025811405 10.000000000000000
2.764622294460212 -4.764885972198563 -1.914405714815674 7.000000000000000
2.765972859771004 -4.729597892559706 -2.009774592760343 12.000000000000000
2.773971477820086 -4.705681838815813 -2.110539426800568 25.000000000000000
2.733710642568233 -4.600661445136770 -2.173227183232628 36.000000000000000
2.726556534075915 -4.552230846219329 -2.261173984729432 34.000000000000000
2.752674983806030 -4.558914399049742 -2.377247133906230 11.000000000000000
3.073044863401072 -4.924611332366325 -3.081522755498238 20.000000000000000
2.459777918302318 -4.576169608017609 -0.941575441102987 20.000000000000000
2.563011877983631 -4.732670269627610 -1.072821621844821 1.000000000000000
2.882916942149303 -5.284102704759248 -1.308681974440127 1.000000000000000
3.126702329334907 -5.687276154852513 -1.529982510415618 24.000000000000000
2.785800482664124 -5.029198772255707 -1.461197926336476 35.000000000000000
3.173311438230119 -5.684732241881203 -1.774659926327919 32.000000000000000
3.056032300091498 -5.432462065482917 -1.815237308972728 26.000000000000000
2.826154269120863 -4.985621661646287 -1.776634091211029 62.000000000000000
2.848206988806280 -4.985017881989693 -1.888716406758319 67.000000000000000
2.840938436271461 -4.933321813974481 -1.981965862743099 24.000000000000000
2.862964792811044 -4.932478411935372 -2.095677768865222 24.000000000000000
2.754032795300152 -4.707330968192003 -2.110791917340922 25.000000000000000
2.712097348992422 -4.599073904072259 -2.171806435774105 35.000000000000000
2.704960159432375 -4.550725846981447 -2.259562081797837 34.000000000000000
2.734656571493091 -4.563856856015891 -2.378749258283942 11.000000000000000
3.047438135365474 -4.921687367797180 -3.077539644713918 20.000000000000000
2.440079351471766 -4.572767185304393 -0.942144907922587 65.000000000000000
2.514814805788594 -4.677807657600197 -1.061545105534113 7.000000000000000
2.544282627842405 -4.697826979656411 -1.164504864254187 2.000000000000000
3.024699320969845 -5.542480564095204 -1.492061397648058 12.000000000000000
2.764048853851591 -5.027019688501942 -1.461337395995723 34.000000000000000
3.153011989940900 -5.690501022376852 -1.777146450244584 32.000000000000000
3.068202405388722 -5.494927910803067 -1.836583037775397 22.000000000000000
2.893967334937931 -5.143612640314647 -1.833194498875563 41.000000000000000
2.827823494331364 -4.986666216633998 -1.889410047816172 68.000000000000000
2.852426286176450 -4.990761238918243 -2.004921579025195 60.000000000000000
2.872412808053274 -4.986349815309120 -2.118250263660600 48.000000000000000
2.737856730040897 -4.715364000809187 -2.113903229961708 24.000000000000000
2.694265887566776 -4.603803409223295 -2.173367317394363 36.000000000000000
2.685272313949617 -4.552311651951314 -2.259485610364440 34.000000000000000
2.709170107616838 -4.556192201145428 -2.373683625552686 11.000000000000000
3.027434444560992 -4.927694274041698 -3.079151478161207 20.000000000000000
2.425947842336629 -4.579726158973732 -0.944832987926419 61.000000000000000
2.481753710964678 -4.650394055895628 -1.056460904626228 9.000000000000000
2.461019561804639 -4.577762872339671 -1.135724350819056 22.000000000000000
2.554712828953519 -4.716092082430117 -1.270457331680312 5.000000000000000
2.744192636316828 -5.028165752718115 -1.462429464274146 36.000000000000000
3.123408062602617 -5.679305397356345 -1.774320229842415 23.000000000000000
3.048354514588102 -5.500431342871418 -1.838883845094099 23.000000000000000
2.893726708270869 -5.181999648105335 -1.847127874532791 26.000000000000000
2.809319505200168 -4.991556890846378 -1.891324330501229 74.000000000000000
2.835608903161557 -4.999050199241430 -2.008124312331068 57.000000000000000
2.853583336979108 -4.991455646886533 -2.120098267552643 55.000000000000000
2.716069074123028 -4.713660088838560 -2.112646054473617 24.000000000000000
2.672710320803768 -4.602072755166652 -2.171877044683198 38.000000000000000
2.665602449569336 -4.553831479774138 -2.259376558847161 35.000000000000000
2.691186795354837 -4.561001526258619 -2.375119935913618 11.000000000000000
3.005585711044193 -4.930626237078576 -3.078849694902194 19.000000000000000
2.409961848009412 -4.583163427888917 -0.946780272502852 37.000000000000000
2.434198629454547 -4.595111396171583 -1.045009229210755 17.000000000000000
2.468672420566531 -4.626179763301872 -1.148712878638705 16.000000000000000
2.510223322458379 -4.668582392896074 -1.258499627384449 15.000000000000000
2.622836365746806 -4.841841687122685 -1.408955100546872 16.000000000000000
3.092057142403319 -5.664608565743267 -1.770383129444199 25.000000000000000
3.028499056025530 -5.505874309170687 -1.841153323128386 23.000000000000000
2.904366333673098 -5.240476765739816 -1.868217189613522 13.000000000000000
2.787106462708882 -4.989759853491923 -1.890696741946377 75.000000000000000
2.970628947125727 -5.277067974418186 -2.119663476089692 38.000000000000000
2.834748143473868 -4.996503734252316 -2.121916444319639 38.000000000000000
2.699872868245280 -4.721587336297106 -2.115702134288237 25.000000000000000
2.649346347623001 -4.597057314515145 -2.168836549258486 38.000000000000000
2.645950833522164 -4.555285436818918 -2.259234997889515 35.000000000000000
2.671355626700196 -4.562606585211599 -2.374888684608387 11.000000000000000
2.983751551583552 -4.933486212263591 -3.078512054845292 19.000000000000000
2.392153803826571 -4.583063249972244 -0.947980709504115 58.000000000000000
2.405258543519732 -4.574306088602995 -1.041364079750644 18.000000000000000
2.423009212545475 -4.574560828271783 -1.136846332782552 19.000000000000000
2.482547531091100 -4.651759180649968 -1.254788540397233 20.000000000000000
2.506370934195138 -4.661692814618051 -1.357210684588146 7.000000000000000
2.537218543316559 -4.683286179184789 -1.464216045297735 3.000000000000000
2.997602142964939 -5.491044380583279 -1.836630883698954 21.000000000000000
2.857605161856156 -5.195360850968375 -1.852366693491925 20.000000000000000
2.752046799528678 -4.964638731584701 -1.881223186666861 73.000000000000000
2.844232699952826 -5.091281131389690 -2.044895300418671 37.000000000000000
3.036762935765359 -5.393768133307866 -2.290269895901864 45.000000000000000
2.676292729406606 -4.716503482824402 -2.112925015950784 27.000000000000000
2.631558402997876 -4.601594676517043 -2.170302007707979 37.000000000000000
2.624482430021314 -4.553489372018182 -2.257482339560350 39.000000000000000
2.649710248391845 -4.560991145430787 -2.372983643194614 11.000000000000000
2.913145195267811 -4.975476583299464 -2.713042911626493 11.000000000000000
2.965562073583429 -4.942323651738299 -3.081910853543910 18.000000000000000
2.377985440308798 -4.589889261319197 -0.950598661111036 56.000000000000000
2.423635137985227 -4.643750015926956 -1.058260132246186 27.000000000000000
2.406777229129717 -4.578047243769069 -1.138649552391393 27.000000000000000
2.449536968973101 -4.624506360597308 -1.248242587972834 16.000000000000000
2.480455383092527 -4.648399122168219 -1.354003948854301 11.000000000000000
2.505596924255968 -4.660035561951520 -1.457462388710672 7.000000000000000
2.535424430465627 -4.679813383157497 -1.565654385941558 4.000000000000000
2.812998785710886 -5.153377208500943 -1.837619432442993 36.000000000000000
2.634842982840909 -4.789687000503504 -1.814965810416761 41.000000000000000
2.567242544813701 -4.630856724035166 -1.859832174567578 5.000000000000000
2.606810075001706 -4.665898018878043 -1.980892957809570 2.000000000000000
2.660088377335400 -4.724319628136513 -2.115923882366566 27.000000000000000
2.611940395762742 -4.602858407281136 -2.170221613454286 36.000000000000000
2.603055121962287 -4.551616887524779 -2.255693184195303 35.000000000000000
2.628105694336655 -4.559298757039580 -2.371041818157703 11.000000000000000
2.891724984861467 -4.977797408654056 -2.712923804739991 22.000000000000000
2.918248775633446 -4.982480979707073 -2.842675389553149 15.000000000000000
2.941931867679854 -4.942020641122347 -3.079617649749789 22.000000000000000
2.370990062270168 -4.610669026321241 -0.956096885434763 12.000000000000000
2.405533261847196 -4.643720276822576 -1.059324179264143 47.000000000000000
2.419454492856779 -4.636890592454062 -1.154219039266878 33.000000000000000
2.405859765923001 -4.576446829319377 -1.236053884394018 16.000000000000000
2.456460430101107 -4.638424216856061 -1.351748105170012 14.000000000000000
2.479594845548474 -4.646853511587540 -1.453842441179924 10.000000000000000
2.498300602617268 -4.646591573362581 -1.554889336678996 11.000000000000000
2.536002907672879 -4.681619194692703 -1.669590059912774 5.000000000000000
2.604310189026600 -4.770684851439744 -1.807793817772253 27.000000000000000
2.531633323156745 -4.601959703893089 -1.848086470062092 7.000000000000000
2.500025762593002 -4.509515540066639 -1.914194551311012 5.000000000000000
2.636589652026487 -4.719081788321586 -2.113073136916561 26.000000000000000
2.592341402317349 -4.604056610964549 -2.170108932027364 37.000000000000000
2.585295168419831 -4.556058168243026 -2.257033198632903 36.000000000000000
2.604732186786878 -4.554364669649018 -2.367418148736982 10.000000000000000
2.872127300073453 -4.983181723441531 -2.714476871025258 50.000000000000000
2.891246541410319 -4.975585446633457 -2.837128636497158 22.000000000000000
2.933747119819691 -5.008981245674008 -2.986305194958431 18.000000000000000
2.925509766328835 -4.953776788967208 -3.084845560510984 23.000000000000000
2.374614230593182 -4.652470833097240 -0.965953623650655 117.000000000000000
2.389244155440597 -4.647116030321804 -1.061154544078788 72.000000000000000
2.401249417490582 -4.636891243202243 -1.155138447856137 49.000000000000000
2.402094818518950 -4.604052185026084 -1.244284517464134 13.000000000000000
2.437957330711174 -4.638641058986137 -1.352448586645572 20.000000000000000
2.455505266196472 -4.636973854343476 -1.451242006633079 14.000000000000000
2.475864950402039 -4.640278045660770 -1.553115709253299 46.000000000000000
2.498847148480703 -4.648633406127225 -1.658009162811793 9.000000000000000
2.530548964764269 -4.671471630840067 -1.770218839349228 6.000000000000000
2.503474548394582 -4.586148290374775 -1.841591443353567 10.000000000000000
2.466613624794667 -4.483956927527543 -1.903036389051739 6.000000000000000
2.598707138569928 -4.687695737277507 -2.098515161407224 19.000000000000000
2.569153325891697 -4.598730506087974 -2.166920607783194 39.000000000000000
2.563928621618682 -4.554044090685797 -2.255175479499169 38.000000000000000
2.588618143615396 -4.562024486726696 -2.370342736620847 10.000000000000000
2.850728484635011 -4.985366799081125 -2.714289775523275 62.000000000000000
2.873284231297532 -4.984123487173900 -2.840388492931637 56.000000000000000
2.890468267306666 -4.974619421552906 -2.963973482742693 22.000000000000000
2.900129227109544 -4.950289612931286 -3.080588777193349 25.000000000000000
2.358449123150526 -4.655742129292230 -0.967805227844919 124.000000000000000
2.372953915296734 -4.650461437814834 -1.062959139043024 104.000000000000000
2.386635114488934 -4.643777445013325 -1.157759850519051 72.000000000000000
2.403540227683617 -4.642041029943796 -1.255318863964425 41.000000000000000
2.417683866732708 -4.635362337758927 -1.352117124448351 30.000000000000000
2.435088646797342 -4.633824933972976 -1.450735593941584 20.000000000000000
2.453493900964084 -4.633880660864660 -1.551303225935068 53.000000000000000
