# This PCD file was generated using the MATLAB® pcwrite function
# from Computer Vision Toolbox®.
# .PCD v.7 - Point Cloud Data file format
VERSION .7
FIELDS x y z intensity
SIZE 8 8 8 8
TYPE F F F F
COUNT 1 1 1 1
WIDTH 637
HEIGHT 1
VIEWPOINT 0 0 0 1 0 0 0
POINTS 637
DATA ascii
3.477682948207036 -4.552077780944168 -3.037526162518514 22.000000000000000
2.968239755382581 -4.612616401840572 -0.909352893016618 3.000000000000000
4.899288606858456 -7.551352635635391 -1.653223674821204 39.000000000000000
4.934577844679832 -7.544292646367258 -1.816591853104008 8.000000000000000
3.289031948984565 -4.986676997542887 -1.311784037383991 14.000000000000000
5.529570206889878 -8.314879426294301 -2.374095502136246 11.000000000000000
5.568604776358558 -8.303438966206901 -2.558503894699697 23.000000000000000
3.215710126383797 -4.754707726988021 -1.574251191517135 8.000000000000000
3.214178336327403 -4.712908012352337 -1.669937630388856 6.000000000000000
3.214252640229436 -4.672649991620260 -1.765933753171189 7.000000000000000
3.211003348584179 -4.627992206490288 -1.860045599453503 7.000000000000000
3.293384461727204 -4.705981547989652 -2.005595287498132 46.000000000000000
3.303221884931478 -4.679298411834795 -2.109907000772806 33.000000000000000
3.257888316012604 -4.575236380195003 -2.177602302012168 33.000000000000000
3.254683011089013 -4.531140228324815 -2.272527827901145 22.000000000000000
3.298082161321925 -4.551290198465746 -2.401032191895753 7.000000000000000
3.393765668817214 -4.642642520975361 -2.572591107733443 16.000000000000000
3.424179339771976 -4.641681059471630 -2.698372989640438 12.000000000000000
3.617897567668656 -4.860704862669566 -2.960726503390283 13.000000000000000
3.501919641472593 -4.661433276054103 -2.971789803731747 31.000000000000000
3.452075639653871 -4.551031910273339 -3.034189567212658 22.000000000000000
2.905161276396115 -4.544582060070569 -0.897683606519155 20.000000000000000
2.940828845213578 -4.562981612642420 -1.000562094948108 7.000000000000000
4.902340345512838 -7.545206797149719 -1.819151869691678 51.000000000000000
3.266790320517572 -4.986266196721698 -1.313029480706059 29.000000000000000
3.291890651466487 -4.983484493954461 -1.424056964205782 9.000000000000000
5.541729284564950 -8.319397653229212 -2.565006671344059 36.000000000000000
3.219520632100525 -4.792754070149049 -1.587557659598159 5.000000000000000
3.217985789493118 -4.750752092761819 -1.683841444952446 6.000000000000000
3.215894995305066 -4.707133220178866 -1.779241475084363 6.000000000000000
3.214796585735003 -4.665402519462798 -1.875133660232448 6.000000000000000
3.281669054748511 -4.721704339316328 -2.012118373055464 17.000000000000000
3.282814542564834 -4.682720578158891 -2.111035922482632 27.000000000000000
3.235525382963817 -4.575556177978308 -2.177109358383581 34.000000000000000
3.234464865188798 -4.534570108485370 -2.273360280969599 24.000000000000000
3.275481775499244 -4.551938344333204 -2.400224249473660 7.000000000000000
3.374964237032542 -4.649587269395090 -2.574989441343492 20.000000000000000
3.396643752693850 -4.637076461233958 -2.693963086227387 17.000000000000000
3.422848371427823 -4.631485858518678 -2.819076403461851 10.000000000000000
3.476120020368055 -4.660279304413779 -2.968698436832043 27.000000000000000
3.430766968239402 -4.555530371640379 -3.034564390929857 23.000000000000000
2.893284621194830 -4.556163638072967 -0.901698954118948 27.000000000000000
2.918155868782796 -4.558099334180453 -1.001055835222100 10.000000000000000
3.007963953902352 -4.660672120154359 -1.125116989668185 1.000000000000000
3.248840047106897 -4.992322429317285 -1.315961667393857 25.000000000000000
3.269517583956667 -4.983145158351622 -1.425097575254047 24.000000000000000
3.296054921356147 -4.981784992901794 -1.536900855586458 6.000000000000000
3.334401009261977 -4.997671643918464 -1.656161842636772 15.000000000000000
3.225857208615249 -4.795032644920229 -1.700024471522204 6.000000000000000
3.215194403875455 -4.738513799375063 -1.791371518814581 6.000000000000000
3.214080607390384 -4.696615484607315 -1.887724778389016 6.000000000000000
3.284888642094884 -4.759153378890069 -2.027892927458267 3.000000000000000
3.260273764575238 -4.682994529078184 -2.110742338762882 25.000000000000000
3.215336245338428 -4.578845194633767 -2.178027895365950 34.000000000000000
3.207837274659419 -4.528867342874735 -2.269615960894788 25.000000000000000
3.250775365650159 -4.549513304792301 -2.397799868963192 7.000000000000000
3.356150671279588 -4.656473607270228 -2.577357215534035 20.000000000000000
3.377699220490014 -4.644075597662095 -2.696302249211060 18.000000000000000
3.397371812268155 -4.629925481553670 -2.816109160608979 15.000000000000000
3.431295963485885 -4.633271443822547 -2.949165939519850 10.000000000000000
3.407352699755805 -4.557129853432720 -3.033021443778317 23.000000000000000
2.887673839623248 -4.577728282212195 -0.907682527203281 17.000000000000000
2.899758051466474 -4.559766881725633 -1.002968208505863 11.000000000000000
2.906590722572993 -4.533955655973218 -1.095898024964490 26.000000000000000
3.158799165698356 -4.886811752937660 -1.289441244157223 4.000000000000000
3.264165164206465 -5.008795670225154 -1.433560502634864 0.000000000000000
3.277800999418708 -4.987997617311799 -1.539739061627500 27.000000000000000
3.322318833580987 -5.013676137879026 -1.662182045533980 27.000000000000000
3.384801705675197 -5.065903760206788 -1.796563526731243 11.000000000000000
3.220713830558090 -4.779433157625667 -1.807102961493942 6.000000000000000
3.215319133529938 -4.731011149956950 -1.901588906293707 5.000000000000000
4.358955783598081 -6.359244844970732 -2.709445234425309 16.000000000000000
3.239897441741306 -4.686271917691213 -2.111799251931124 21.000000000000000
3.190894861450975 -4.575952010431169 -2.176004867043433 34.000000000000000
3.185542892370904 -4.529113416359375 -2.268855249375490 26.000000000000000
3.232501712646100 -4.555986006525571 -2.400067537817051 7.000000000000000
3.343694140676595 -4.672200955360237 -2.584617520318218 20.000000000000000
3.358742506708082 -4.651015943087638 -2.698610655647998 18.000000000000000
3.378288638883835 -4.636973742845621 -2.818386840117707 17.000000000000000
3.403583604715196 -4.628998542601962 -2.944134361455473 13.000000000000000
3.381864906628085 -4.555811792862193 -3.029553211504165 23.000000000000000
2.909180954431083 -4.642754801860457 -0.922296061022230 18.000000000000000
2.931776620904896 -4.641162078817998 -1.022426722683470 16.000000000000000
2.898661189773691 -4.552161781453608 -1.101658033317453 26.000000000000000
2.980852773311137 -4.642830003911392 -1.226274968603470 6.000000000000000
3.298829115992689 -5.096495890564086 -1.459791800546323 14.000000000000000
3.255303076669231 -4.987667680891990 -1.540544379111925 37.000000000000000
3.288970576024175 -4.997459934718375 -1.657507390913184 27.000000000000000
3.334133784365232 -5.024504735863157 -1.782371472853812 8.000000000000000
3.221746136132091 -4.814089253331170 -1.820461615986251 2.000000000000000
3.218480138179242 -4.768607299788062 -1.916733163628604 5.000000000000000
4.330933659040465 -6.362500172853670 -2.710572853001260 14.000000000000000
3.217409479128569 -4.686388888945738 -2.111428763936770 24.000000000000000
3.170748867388932 -4.579091322809330 -2.176849622120027 33.000000000000000
3.165399655402609 -4.532312162605296 -2.269574295386065 28.000000000000000
3.209985450368698 -4.556394698650058 -2.399142504841032 7.000000000000000
3.329049755445498 -4.684934384067533 -2.590218821402940 17.000000000000000
3.343990726646604 -4.663778671467100 -2.704298527099052 17.000000000000000
3.361296691638562 -4.646870777135293 -2.822399782345814 18.000000000000000
3.380139949052003 -4.630364868689223 -2.942704726545184 15.000000000000000
3.360613395291281 -4.560076002520740 -3.029811951033147 23.000000000000000
2.888627477323293 -4.640975453021596 -0.923641782134095 36.000000000000000
2.908977955446748 -4.636185809997333 -1.022864795515139 30.000000000000000
2.928345470640623 -4.629978116423861 -1.121855358776120 15.000000000000000
2.932530940511253 -4.598678464767242 -1.215797129717861 16.000000000000000
2.992303501278327 -4.654549726997405 -1.334222843135978 2.000000000000000
3.213881794338752 -4.958015564663258 -1.532273302180392 30.000000000000000
3.274736564824913 -5.010136032527965 -1.662402287824359 43.000000000000000
3.281660548198653 -4.979661870754461 -1.766938510347970 24.000000000000000
3.245807498318433 -4.883751341603698 -1.847054551778023 0.000000000000000
3.221419068278880 -4.806269889712768 -1.931897754481237 5.000000000000000
4.305045214569399 -6.368783967058103 -2.712983686175928 14.000000000000000
3.194953730070622 -4.686424505129452 -2.111018716267096 24.000000000000000
3.150614286423902 -4.582162156357865 -2.177660118343411 34.000000000000000
3.143159772740340 -4.532402566057712 -2.268737451143336 26.000000000000000
3.187501450136174 -4.556721817916616 -2.398177803980029 7.000000000000000
3.320656260503366 -4.706570485604446 -2.600737638366649 14.000000000000000
3.333380160089666 -4.682400779423725 -2.713380852216048 16.000000000000000
3.344271452925008 -4.656720973621280 -2.826386778731200 18.000000000000000
3.362989118610761 -4.640288098004345 -2.946721323034270 17.000000000000000
3.337289072351291 -4.561422998463435 -3.028145616817906 23.000000000000000
2.874329593314437 -4.649184311877502 -0.926957724596422 73.000000000000000
2.894551812171435 -4.644468306477843 -1.026210483662041 52.000000000000000
2.911711106399304 -4.635013636682556 -1.124424750989446 26.000000000000000
2.899135823474511 -4.577379089988294 -1.211328255917733 56.000000000000000
2.958550549219384 -4.633624893666267 -1.329223454694490 4.000000000000000
2.994558785957372 -4.651493101247787 -1.438362126340148 6.000000000000000
3.245762965459641 -5.000154064855042 -1.659766881150555 40.000000000000000
3.284109873885072 -5.017985871699365 -1.781004246956233 28.000000000000000
3.084530982261153 -4.673448387044063 -1.767747943884052 28.000000000000000
3.276680106243640 -4.922941944827684 -1.978814313977788 0.000000000000000
4.281258929936712 -6.378114711451170 -2.716685241688354 14.000000000000000
3.174631553808266 -4.689482500042113 -2.111966945613421 23.000000000000000
3.130491400116263 -4.585164596139143 -2.178436416356989 35.000000000000000
3.120952961941637 -4.532412282178602 -2.267861440587645 27.000000000000000
3.162955386056033 -4.553951674195876 -2.395587062685826 7.000000000000000
3.316326631922331 -4.734179342574071 -2.614547689897359 10.000000000000000
3.322672626003766 -4.701013116322623 -2.722452258638873 11.000000000000000
3.329295201595662 -4.669444463017966 -2.832118971269206 17.000000000000000
3.345804919085704 -4.650164046098650 -2.950711742578957 16.000000000000000
3.311924195603984 -4.559834484244108 -3.024546841903953 24.000000000000000
2.860004115323536 -4.657353749241889 -0.930251855550398 135.000000000000000
2.875959755791007 -4.646026098198380 -1.028054948886514 87.000000000000000
2.895069518278683 -4.639997146970439 -1.126967151446667 43.000000000000000
2.909544133272176 -4.625311676022560 -1.225171349726573 22.000000000000000
2.935367017049307 -4.628965833658657 -1.328870116316817 7.000000000000000
2.964901597443744 -4.637257264311177 -1.434763946462538 10.000000000000000
3.003956465085357 -4.659758922968542 -1.547394046675556 6.000000000000000
3.248730778183941 -4.998512764970189 -1.774547398440072 22.000000000000000
3.027126166884596 -4.618554857460621 -1.747204108966513 12.000000000000000
3.191079731301821 -4.828005743669934 -1.940666557542750 8.000000000000000
2.988162580591232 -4.483082872861640 -1.909321436272313 3.000000000000000
3.150140254219496 -4.686252359806284 -2.110080377368584 24.000000000000000
3.108291583856006 -4.585017399235818 -2.177715059054956 35.000000000000000
3.100866286261490 -4.535393567168621 -2.268472936936295 28.000000000000000
3.140547647823068 -4.554110055829837 -2.394540889427981 7.000000000000000
3.291032991914746 -4.731904083223052 -2.611851755614335 0.000000000000000
3.320173731179723 -4.731451346978154 -2.738362749155549 5.000000000000000
3.320478850437345 -4.690912130810553 -2.843150995781383 15.000000000000000
3.334786007079955 -4.668670441600144 -2.960178135638606 16.000000000000000
3.288672289091564 -4.561007889359421 -3.022796322639416 22.000000000000000
2.843598045354348 -4.662117534641200 -0.932850604141941 112.000000000000000
2.861498879159329 -4.654217177356593 -1.031351846155679 136.000000000000000
2.878420910107554 -4.644928651503113 -1.129482574766460 79.000000000000000
2.896927536505752 -4.636939700918520 -1.229397030369108 32.000000000000000
2.916381814125223 -4.630795938509509 -1.330364645547795 10.000000000000000
2.941586768675824 -4.632697320806969 -1.434143234178253 15.000000000000000
2.970023305289571 -4.639197546822390 -1.541170882022474 10.000000000000000
3.007729933613767 -4.660056605673437 -1.654804241704467 6.000000000000000
3.003395781816949 -4.614507305268278 -1.745884333909281 12.000000000000000
2.964678931897894 -4.517073240965038 -1.815689446606541 5.000000000000000
2.964577648959329 -4.479163841919147 -1.907451346832964 5.000000000000000
3.125703572747090 -4.682929223595759 -2.108149677349520 23.000000000000000
3.088203636083143 -4.587877238671121 -2.178420699719476 36.000000000000000
3.080791937704229 -4.538306667415555 -2.269050380460545 28.000000000000000
3.120246482421313 -4.557215463469315 -2.395046786276538 8.000000000000000
3.319786762363613 -4.724110883272708 -2.861280869642067 9.000000000000000
3.323669818114094 -4.687165790059582 -2.969632939717056 19.000000000000000
3.265451803863648 -4.562097828404353 -3.021005117624254 21.000000000000000
2.831270943213283 -4.673574037369780 -0.936774553101923 66.000000000000000
2.844962277205949 -4.659014154609030 -1.033882366823148 107.000000000000000
2.859712569160757 -4.646472568214699 -1.131159005008701 115.000000000000000
2.878090233789060 -4.638592109733382 -1.230965412059672 63.000000000000000
2.899471300287423 -4.635856226032768 -1.332774260841940 12.000000000000000
2.922455764418537 -4.634594367297353 -1.435508047916316 23.000000000000000
2.946583776994598 -4.634737469045784 -1.540281999562197 16.000000000000000
2.973723536839812 -4.639683307640054 -1.647971823561062 11.000000000000000
2.975582854587276 -4.603965938462784 -1.742098824108647 12.000000000000000
2.943244961404323 -4.516118064212699 -1.815304582503943 5.000000000000000
2.947258367708204 -4.484602404443473 -1.909561569584441 22.000000000000000
3.105459767844344 -4.685756868392176 -2.108985111520632 24.000000000000000
3.063993301089577 -4.584482089139727 -2.176155560899825 36.000000000000000
3.058664926070813 -4.538087466069675 -2.268062393393432 28.000000000000000
3.099957499601758 -4.560252121911250 -2.395518333318854 8.000000000000000
3.308366886601173 -4.699840285064768 -2.975398097485982 17.000000000000000
3.244302251308162 -4.565974348143977 -3.021072186202766 23.000000000000000
2.818895901749937 -4.685002523664668 -0.940681268205708 39.000000000000000
2.834532485859590 -4.673839672344386 -1.038626161728262 58.000000000000000
2.847145877135992 -4.657977110310982 -1.135246930903784 88.000000000000000
2.865407385886917 -4.650144973033020 -1.235148672298373 98.000000000000000
2.882553861405079 -4.640863746482729 -1.335156516173643 13.000000000000000
2.901285527861729 -4.633147389653621 -1.435824345651633 34.000000000000000
2.925256314941981 -4.633444103808754 -1.540433454834046 22.000000000000000
2.950166399931379 -4.635322500865058 -1.646814964010838 16.000000000000000
2.958161852906187 -4.609348514961696 -1.744330450239014 12.000000000000000
2.919787337971205 -4.511903101030899 -1.813603128562249 6.000000000000000
2.929931688727399 -4.489986913624316 -1.911643746850706 6.000000000000000
3.085228443117492 -4.688516068858394 -2.109786369715059 24.000000000000000
3.043952240369058 -4.587193785132913 -2.176788445391552 36.000000000000000
3.038626826346386 -4.540858444745218 -2.268569504113581 29.000000000000000
3.073525722556276 -4.554099758908603 -2.391166873870062 8.000000000000000
3.286907714805967 -4.703746755747920 -2.975617605160306 12.000000000000000
3.241419152639439 -4.595662712977790 -3.038214953792416 15.000000000000000
2.810516913785911 -4.703169979154350 -0.945931722961325 22.000000000000000
2.822006330276207 -4.685282540904870 -1.042608164064050 35.000000000000000
2.834530766602836 -4.669453016622153 -1.139317277469368 55.000000000000000
2.848603465519423 -4.655014141827832 -1.237545003470026 81.000000000000000
2.863590109691583 -4.642511872855207 -1.336559461481229 44.000000000000000
2.884236168592756 -4.638193311374177 -1.438140650320834 50.000000000000000
2.906009354556173 -4.635335460680181 -1.541632510747252 33.000000000000000
2.924619309862243 -4.627633605179813 -1.644464991597989 23.000000000000000
2.936637689787675 -4.608249700938019 -1.744101422716915 13.000000000000000
2.902532022357121 -4.517162002030545 -1.815703529379968 6.000000000000000
2.908501342445423 -4.488994845889418 -1.911006335565481 5.000000000000000
3.062962444016149 -4.688073174836229 -2.109143658911731 24.000000000000000
3.017786463778664 -4.580521300820080 -2.172967894785329 35.000000000000000
3.014514434616055 -4.537409116106582 -2.265970263830558 29.000000000000000
3.053294291395117 -4.556981211814379 -2.391562711974064 9.000000000000000
3.263435750220421 -4.704664607244479 -2.973957302572522 13.000000000000000
3.238353371947562 -4.625387643064703 -3.055365213813269 13.000000000000000
2.804059939707585 -4.724721418931393 -0.951856800163766 13.000000000000000
2.815482568484391 -4.706811740838694 -1.048826555186106 21.000000000000000
2.823888718241527 -4.684253200335040 -1.144188997560787 34.000000000000000
2.835844380146915 -4.666497344038288 -1.241688040400149 49.000000000000000
2.848699033598752 -4.650720508335308 -1.339839008733103 39.000000000000000
2.867180131806182 -4.643186100834166 -1.440429423747070 65.000000000000000
2.888811210779299 -4.640429374272680 -1.543886333530777 46.000000000000000
2.909330276839508 -4.636064822277630 -1.647833821689805 33.000000000000000
2.917186340074923 -4.610292446215507 -1.745053413981506 12.000000000000000
2.903608426710417 -4.551110955969835 -1.829329705325862 13.000000000000000
2.885069589587319 -4.484757781012132 -1.908983265743729 6.000000000000000
3.040731037732551 -4.687550121533604 -2.108462144379220 27.000000000000000
2.999839523045363 -4.586190887695270 -2.175001604044426 34.000000000000000
2.994524575186308 -4.540032493736180 -2.266404978026853 30.000000000000000
3.031045775113331 -4.556742199610278 -2.390323416497968 8.000000000000000
3.632594258227643 -5.368435544559292 -3.097420662261413 14.000000000000000
3.254083011202231 -4.725957423527016 -2.985179087963554 17.000000000000000
3.239118434348272 -4.660924039765864 -3.076334647563210 12.000000000000000
2.799493589253989 -4.749673672342268 -0.958463170906704 9.000000000000000
2.802828853921863 -4.718214502674924 -1.052780282096442 12.000000000000000
2.813177331093680 -4.699035960422075 -1.149047582339753 22.000000000000000
2.825051793374384 -4.681290356378074 -1.246702436042305 29.000000000000000
2.837817143227525 -4.665524651430519 -1.345009140674551 37.000000000000000
2.854160344967116 -4.654718850481641 -1.444737051573075 60.000000000000000
2.871606395964622 -4.645469740626123 -1.546112413630440 59.000000000000000
2.887937353505618 -4.634703428629227 -1.647712951602749 45.000000000000000
2.897749507058269 -4.612269225470693 -1.745972618948973 12.000000000000000
2.902457571828720 -4.581912606725774 -1.841684258514890 31.000000000000000
2.869802589648674 -4.493123728249627 -1.912320124635499 6.000000000000000
3.016508701129870 -4.683801486488642 -2.106327346633130 35.000000000000000
2.977836013954152 -4.585570097646573 -2.174050494714244 34.000000000000000
2.974548496524780 -4.542588225355746 -2.266806003318656 30.000000000000000
3.010851616820745 -4.559481024331815 -2.390648725816073 9.000000000000000
3.297624782976172 -4.952373067736358 -2.724629844338663 7.000000000000000
3.601088750923138 -5.361117164129334 -3.091307581016919 22.000000000000000
3.250616419879019 -4.756035391879455 -3.001938747210368 14.000000000000000
2.798776953793655 -4.781444138016402 -0.966444782665876 8.000000000000000
2.798110380048677 -4.743120693364975 -1.059739774301597 9.000000000000000
2.808397483518185 -4.723894835176502 -1.156363766624279 14.000000000000000
2.814189563481206 -4.696065536774645 -1.251703469321274 17.000000000000000
2.822849846724787 -4.673662612224485 -1.348247948242774 31.000000000000000
2.839080896818329 -4.662919361109515 -1.448000929941434 44.000000000000000
2.858421064118498 -4.657015743228359 -1.550494562237120 57.000000000000000
2.872624115884788 -4.643032674421668 -1.651028247211391 57.000000000000000
2.872280554777274 -4.604486477530235 -1.743189230373337 12.000000000000000
2.882982909475473 -4.583904335327677 -1.842452329976669 44.000000000000000
2.856523426930167 -4.504626537511620 -1.916986611571717 27.000000000000000
2.992343266638156 -4.679961278518638 -2.104149283242871 18.000000000000000
2.957881720885665 -4.587993197498156 -2.174541364279169 34.000000000000000
2.952575184377842 -4.541982410266131 -2.265630059261488 29.000000000000000
2.982637084123581 -4.549896054910403 -2.384517123847413 9.000000000000000
3.279885803247232 -4.962027650550255 -2.728473330056933 22.000000000000000
3.461626831841595 -5.191623664215782 -2.991752564339008 19.000000000000000
3.246966104511863 -4.786147640699395 -3.018704668823812 12.000000000000000
2.797886734841107 -4.813253477431942 -0.974435621777796 0.000000000000000
2.799215496121724 -4.778209635709096 -1.068973939574182 6.000000000000000
2.799505450716565 -4.742029442611075 -1.162028397595313 11.000000000000000
2.807245285347309 -4.717523657832422 -1.258478623452425 11.000000000000000
2.817840528196546 -4.698408483424839 -1.356270061799832 24.000000000000000
2.829973900791373 -4.681002644969023 -1.454325258885603 32.000000000000000
2.843184315884838 -4.665246011343496 -1.553764010250614 43.000000000000000
2.857282953859498 -4.651319661166760 -1.654320262593513 55.000000000000000
2.852905913226834 -4.606314131975116 -1.744036114259592 12.000000000000000
2.861518021438802 -4.582618730340277 -1.841896898665998 51.000000000000000
2.843194714632566 -4.516098835455818 -1.921634492581781 95.000000000000000
2.876041466741591 -4.530791842402047 -2.036642030992672 19.000000000000000
2.935939063576595 -4.587219817290137 -2.173516082946161 35.000000000000000
2.930637917039354 -4.541297399126511 -2.264415891990256 30.000000000000000
2.968506923977682 -4.561684446506000 -2.389589431848453 9.000000000000000
3.268096327294374 -4.980749967569829 -2.737300158199349 0.000000000000000
3.285621289259699 -4.964242698323178 -2.858986389563345 15.000000000000000
3.247091690903554 -4.822174148571324 -3.039182790112422 11.000000000000000
2.821846632387266 -4.850687473630287 -1.086585761203817 0.000000000000000
2.800418375368793 -4.777037137541894 -1.171824692282232 7.000000000000000
2.802171980530880 -4.742342493271594 -1.266145279199115 8.000000000000000
2.806738130699499 -4.713163545543510 -1.361401652208932 17.000000000000000
2.820775251330411 -4.699078726662194 -1.460640305521065 22.000000000000000
2.833894463639624 -4.683307679364626 -1.560299762660050 31.000000000000000
2.845899873004699 -4.666099460381147 -1.659913774466189 46.000000000000000
2.849499065689112 -4.634018919154425 -1.754673682356849 21.000000000000000
2.760312280870993 -4.452568681088952 -1.789582144596488 40.000000000000000
2.829816545182815 -4.527540450748072 -1.926263685856518 100.000000000000000
2.858470441324524 -4.535990771236179 -2.038536352222886 23.000000000000000
2.916024558209969 -4.589502362074469 -2.173937635818751 35.000000000000000
2.908737029120056 -4.540533376384775 -2.263163616127147 31.000000000000000
2.942405167689942 -4.554986316972923 -2.384979555749057 9.000000000000000
3.285145105529446 -4.958630831425766 -2.986994796321167 22.000000000000000
3.252896797513645 -4.867095377710297 -3.065242079998990 12.000000000000000
3.266335352543481 -5.654358782482608 -1.268220849728650 28.000000000000000
2.960580699181799 -5.086008154691136 -1.248895101298533 29.000000000000000
2.802882516638321 -4.777262452639483 -1.276506583032078 4.000000000000000
2.803468497714423 -4.741264882808130 -1.370382316499031 12.000000000000000
2.811484924471375 -4.717147259806571 -1.466945891561634 16.000000000000000
2.818570393811249 -4.691470971326063 -1.563529680030280 22.000000000000000
2.832463852687556 -4.677586516464803 -1.664328364297453 34.000000000000000
2.839985040557881 -4.652004652872073 -1.761624727081233 42.000000000000000
2.773076588094436 -4.505687339474389 -1.810881507847135 30.000000000000000
2.802505403905573 -4.516576100632258 -1.921355716226846 69.000000000000000
2.856752986389015 -4.566486873705786 -2.051793363628560 15.000000000000000
2.894144011700523 -4.588577009064638 -2.172838574634901 37.000000000000000
2.888851519652635 -4.542802035858984 -2.263423636970357 30.000000000000000
2.922310936231574 -4.557429728602161 -2.385160175089837 10.000000000000000
3.374998694615182 -5.132511308012127 -3.089674333076784 15.000000000000000
3.262324904585327 -4.918010669039423 -3.095044955430654 15.000000000000000
3.244805797919200 -5.656865814930284 -1.270370215985510 29.000000000000000
2.971984753097916 -5.141893185626297 -1.263892833654563 33.000000000000000
2.926987890826829 -5.024386958299655 -1.343615116103361 40.000000000000000
2.796113340614488 -4.762698627965513 -1.377430929525367 7.000000000000000
2.806038435568095 -4.741858470644748 -1.475310998565799 11.000000000000000
2.813068665270539 -4.716104932657792 -1.572241377344420 16.000000000000000
2.824892633230703 -4.698879605985907 -1.672224882953434 24.000000000000000
2.820516429970589 -4.653710401523511 -1.762403633398959 39.000000000000000
2.777619014421973 -4.546010727077745 -1.827031220317695 35.000000000000000
2.767407338413292 -4.492691288824800 -1.910948875981254 30.000000000000000
2.878514187433369 -4.635117524233426 -2.082172329392793 16.000000000000000
2.874270471295180 -4.590719500431791 -2.173191138900550 37.000000000000000
2.867013476149902 -4.541886325943304 -2.262097771932967 32.000000000000000
2.898301657329428 -4.553631039333757 -2.382077215528005 10.000000000000000
3.238311894607691 -4.918756034412579 -3.093263510787950 16.000000000000000
3.215515870529664 -5.645656805128060 -1.269415977953275 30.000000000000000
2.946065772405595 -5.133426059199780 -1.263066648830871 32.000000000000000
2.893459773768746 -5.002413880749111 -1.338794197504134 27.000000000000000
2.970386042533256 -5.095925680705850 -1.474702754810690 48.000000000000000
2.800457122795438 -4.766584078584596 -1.483675208786662 6.000000000000000
2.805472548801880 -4.737445010749034 -1.579848900385150 12.000000000000000
2.815246877306079 -4.716890817251997 -1.678946704914170 17.000000000000000
2.801063758234492 -4.655350465455990 -1.763149984001349 35.000000000000000
2.799573648852588 -4.615516334775520 -1.854901708466126 41.000000000000000
2.789386228715629 -4.561679490200429 -1.940038323264864 36.000000000000000
2.886108142993840 -4.681659519155447 -2.102614547092698 28.000000000000000
2.854412390393637 -4.592795027478349 -2.173510464924756 37.000000000000000
2.849126425721149 -4.547138203341529 -2.263843804234163 33.000000000000000
2.878259284902906 -4.555927673716485 -2.382186080207530 10.000000000000000
3.214332240795033 -4.919416771666810 -3.091440905537236 17.000000000000000
3.186322569919306 -5.634332570894515 -1.268408830377663 25.000000000000000
2.920225151321889 -5.124858565625167 -1.262194021505968 32.000000000000000
2.879500221146770 -5.014083704381759 -1.342959076766297 19.000000000000000
2.899614265473359 -5.010424846513222 -1.450828717976851 22.000000000000000
2.903727961649238 -4.978171830395156 -1.550223581228367 21.000000000000000
2.803607600535522 -4.768729412207048 -1.590767178241645 6.000000000000000
2.805508696452097 -4.734893129221788 -1.685658331032705 12.000000000000000
2.787479244245628 -4.666722121235878 -1.767574639461523 28.000000000000000
2.762558346781390 -4.587992568394426 -1.843771019672995 55.000000000000000
2.808972651650090 -4.627628389372250 -1.967823196366447 37.000000000000000
2.866115337898499 -4.683687935237163 -2.103057344719065 37.000000000000000
2.834570041865509 -4.594803688380008 -2.173796619513433 37.000000000000000
2.829287387783157 -4.549205907076660 -2.264004083995870 35.000000000000000
2.858232354960155 -4.558156876222149 -2.382261466927521 10.000000000000000
3.190386295798976 -4.919993057889818 -3.089577251646913 17.000000000000000
3.155304781410770 -5.619471216663424 -1.266577665008200 15.000000000000000
2.898314910532137 -5.122999035993224 -1.262953505319804 34.000000000000000
3.025650233880262 -5.306619612594801 -1.422396902922852 47.000000000000000
2.877734134329982 -5.008660669745759 -1.451172128816580 18.000000000000000
2.893400275275034 -4.996553915050964 -1.556625780663820 26.000000000000000
2.937185803665747 -5.032417194891678 -1.679229803005822 27.000000000000000
2.809249326488697 -4.775958455110834 -1.700574919454635 6.000000000000000
2.775785569236958 -4.681333542123767 -1.773219315539619 23.000000000000000
2.783957312394419 -4.657674347413391 -1.871697453172621 26.000000000000000
2.799042149536878 -4.645448992044586 -1.975133086004057 31.000000000000000
2.851954595386534 -4.695224780412910 -2.107765463055645 31.000000000000000
2.814743697993456 -4.596745582198560 -2.174049669888927 38.000000000000000
2.809464385904026 -4.551206822771132 -2.264131250766709 36.000000000000000
2.836289064831673 -4.557214375661053 -2.380681724839443 11.000000000000000
3.162645542595209 -4.914535270772074 -3.083939079203724 17.000000000000000
3.128227879657787 -5.611340181705543 -1.266236825443227 15.000000000000000
2.887931483060787 -5.141518867065822 -1.268723566720706 36.000000000000000
3.152695392735775 -5.569532091839671 -1.493990642069304 64.000000000000000
2.884718913008058 -5.057358662217893 -1.466129651368955 34.000000000000000
2.871432338670818 -4.994838382329615 -1.556756197624505 48.000000000000000
2.901450281676923 -5.007636570593047 -1.671447947085406 27.000000000000000
2.918777204421152 -4.998682808724569 -1.780181397698811 21.000000000000000
2.769807750601244 -4.705755383952165 -1.782573221810110 16.000000000000000
2.777906406280485 -4.682007775978506 -1.881392883908791 21.000000000000000
2.787089830362088 -4.660034990222216 -1.981061373960145 26.000000000000000
2.831960557754357 -4.697135938752484 -2.108148327846848 27.000000000000000
2.794933630469714 -4.598620808879727 -2.174269683688699 39.000000000000000
2.785809888163130 -4.546860855951029 -2.261102302779067 37.000000000000000
2.814383757212525 -4.556193320455590 -2.379064205475372 10.000000000000000
3.140693487358650 -4.917912438459985 -3.083858243516313 18.000000000000000
3.097427237653170 -5.596239631650353 -1.264296837214334 14.000000000000000
2.886977623076373 -5.177101901164496 -1.278699381721618 22.000000000000000
3.150253084454576 -5.605734322232165 -1.504813680304881 63.000000000000000
2.847462355998559 -5.028523265321413 -1.458599294286272 35.000000000000000
2.849501669767939 -4.993044876915470 -1.556849090662905 54.000000000000000
2.871651228227247 -4.992691350684806 -1.666933801990371 50.000000000000000
2.896507111555277 -4.997197534040751 -1.779943639132073 28.000000000000000
2.761775809669696 -4.726907363522360 -1.790681756706471 11.000000000000000
2.767882641405104 -4.699839845378790 -1.888468986030266 15.000000000000000
2.778902025870178 -4.681060844544382 -1.989720809633368 20.000000000000000
2.811982712731363 -4.698980056787807 -2.108497960447300 25.000000000000000
2.773224899826522 -4.597254569686271 -2.172956068695561 37.000000000000000
2.767954684924116 -4.551862966999954 -2.262722782813003 34.000000000000000
2.790606695853135 -4.551978242469581 -2.375782891836541 11.000000000000000
3.118754225494520 -4.921216998817927 -3.083741125890036 20.000000000000000
3.072415320460066 -5.591330873213260 -1.264634004308956 14.000000000000000
2.910440706628962 -5.257192937672250 -1.299677386617967 22.000000000000000
3.141915964518559 -5.631772703784996 -1.512903263531955 63.000000000000000
2.825618177783881 -5.026564919376918 -1.458845785087176 35.000000000000000
2.831414259621069 -4.997891182503843 -1.559000005857861 52.000000000000000
2.851500873855434 -4.994304518062927 -1.667935594457394 55.000000000000000
2.870462370864404 -4.989007865958654 -1.777307596015439 53.000000000000000
2.761257211671670 -4.761212933448572 -1.803766618316580 7.000000000000000
2.763487591089046 -4.727449415955400 -1.899466860326814 10.000000000000000
2.770599190968712 -4.702087512705493 -1.998373625191893 15.000000000000000
2.790115515869121 -4.697548527117858 -2.107374965087898 27.000000000000000
2.751555027602512 -4.595810681377275 -2.171605192251548 37.000000000000000
2.744388721709068 -4.547355884466271 -2.259617003867256 33.000000000000000
2.776385505693797 -4.563280087718484 -2.380601261195451 11.000000000000000
3.094946622606119 -4.921457275194034 -3.081714407867589 19.000000000000000
2.509503768480623 -4.634884284693628 -0.952352090080963 0.000000000000000
3.045580834887030 -5.582886615665908 -1.264148098439135 15.000000000000000
2.886353441351558 -5.251820459811714 -1.299526709806729 7.000000000000000
3.139099964538457 -5.668035079069456 -1.523734148423787 41.000000000000000
2.803811785514493 -5.024529203063746 -1.459055091135916 35.000000000000000
3.155763141957409 -5.611616184473225 -1.751144422947824 36.000000000000000
2.833260412418015 -4.999192258170662 -1.670020419417506 46.000000000000000
2.850184347956195 -4.990672252656914 -1.778171996525050 68.000000000000000
2.817415506602530 -4.894373019283727 -1.854297336260583 10.000000000000000
2.762726120047003 -4.761617874823941 -1.913092679345978 7.000000000000000
2.764077059318796 -4.726356221625807 -2.008397091325963 12.000000000000000
2.772076688559280 -4.702467575264709 -2.109097801509037 25.000000000000000
2.733710642568233 -4.600661445136770 -2.173227183232628 36.000000000000000
2.726556534075915 -4.552230846219329 -2.261173984729432 33.000000000000000
2.752674983806030 -4.558914399049742 -2.377247133906230 11.000000000000000
3.073044863401072 -4.924611332366325 -3.081522755498238 19.000000000000000
2.457914450182392 -4.572702812860019 -0.940862126374879 18.000000000000000
2.564879962442803 -4.736119737754160 -1.073603561802434 1.000000000000000
2.884788966137711 -5.287533940281819 -1.309531767930023 1.000000000000000
3.130453621871602 -5.694099521564993 -1.531818122305738 24.000000000000000
2.785800482664124 -5.029198772255707 -1.461197926336476 36.000000000000000
3.169549361836248 -5.677992784570140 -1.772556002289593 33.000000000000000
3.052266394607712 -5.425767719129887 -1.813000417649286 26.000000000000000
2.829922474813023 -4.992269157195149 -1.779002936665976 62.000000000000000
2.850091970268097 -4.988317033466855 -1.889966384525863 66.000000000000000
2.835282951660437 -4.923501000807976 -1.978020343441023 23.000000000000000
2.861080023362188 -4.929231224040747 -2.094298125831078 24.000000000000000
2.754032795300152 -4.707330968192003 -2.110791917340922 25.000000000000000
2.710215255065293 -4.595882319128418 -2.170299283493902 35.000000000000000
2.706839909369437 -4.553888269390745 -2.261132312570455 34.000000000000000
2.734656571493091 -4.563856856015891 -2.378749258283942 11.000000000000000
3.049297463086868 -4.924690227692114 -3.079417338212828 20.000000000000000
2.441932107243575 -4.576239294025203 -0.942860279910380 64.000000000000000
2.511100160580634 -4.670898045107435 -1.059977092084285 7.000000000000000
2.542421411582096 -4.694390383475244 -1.163652995297161 2.000000000000000
3.026564117098679 -5.545897629794399 -1.492981287535633 12.000000000000000
2.765916454428517 -5.030416323426604 -1.462324786128152 35.000000000000000
3.153011989940900 -5.690501022376852 -1.777146450244584 32.000000000000000
3.068202405388722 -5.494927910803067 -1.836583037775397 23.000000000000000
2.892094216921790 -5.140283441194703 -1.832007965219333 42.000000000000000
2.827823494331364 -4.986666216633998 -1.889410047816172 68.000000000000000
2.852426286176450 -4.990761238918243 -2.004921579025195 59.000000000000000
2.872412808053274 -4.986349815309120 -2.118250263660600 47.000000000000000
2.735984051018981 -4.712138717634899 -2.112457331719600 24.000000000000000
2.692394869589299 -4.600606323522446 -2.171858034535062 36.000000000000000
2.683403648456264 -4.549143724566518 -2.257913247378800 33.000000000000000
2.714767566516873 -4.565605821395729 -2.378587930564159 12.000000000000000
3.027434444560992 -4.927694274041698 -3.079151478161207 20.000000000000000
2.422263790943558 -4.572771373614622 -0.943398161824784 61.000000000000000
2.485446796844089 -4.657314285145472 -1.058033019067636 9.000000000000000
2.461019561804639 -4.577762872339671 -1.135724350819056 22.000000000000000
2.549151044855653 -4.705824828259370 -1.267691459405246 5.000000000000000
2.740479249799484 -5.021361739520933 -1.460450534011258 36.000000000000000
3.123408062602617 -5.679305397356345 -1.774320229842415 23.000000000000000
3.052076559172459 -5.507147376257098 -1.841129124514239 23.000000000000000
2.897450938268644 -5.188668888321686 -1.849505130484571 25.000000000000000
2.811182449169134 -4.994866941835003 -1.892578524354346 74.000000000000000
2.831882741659373 -4.992481145103137 -2.005485515600015 57.000000000000000
2.849858032361642 -4.984939386250912 -2.117330515245133 54.000000000000000
2.717930670472667 -4.716890835986495 -2.114094064106566 24.000000000000000
2.670850397128888 -4.598870199317546 -2.170365647992396 37.000000000000000
2.663744886886709 -4.550658078046072 -2.257802080408939 35.000000000000000
2.691186795354837 -4.561001526258619 -2.375119935913618 11.000000000000000
3.007422866124295 -4.933640067296839 -3.080731632368516 20.000000000000000
2.409961848009412 -4.583163427888917 -0.946780272502852 36.000000000000000
2.430527138309065 -4.588180609752017 -1.043433046361266 16.000000000000000
2.468672420566531 -4.626179763301872 -1.148712878638705 16.000000000000000
2.510223322458379 -4.668582392896074 -1.258499627384449 15.000000000000000
2.620990597720243 -4.838434338996630 -1.407963576901167 16.000000000000000
3.092057142403319 -5.664608565743267 -1.770383129444199 25.000000000000000
3.026649026058502 -5.502510916190129 -1.840028611263310 23.000000000000000
2.900664145867268 -5.233796744368572 -1.865835778281955 13.000000000000000
2.788958360690748 -4.993075308544077 -1.891953018851325 73.000000000000000
2.974332973244338 -5.283647859673072 -2.122306448005017 38.000000000000000
2.832896577083618 -4.993240178580043 -2.120530476687818 39.000000000000000
2.698022372790691 -4.718351155806156 -2.114252030015250 25.000000000000000
2.651195158751838 -4.600265309849768 -2.170350043012330 39.000000000000000
2.644104391907703 -4.552106591433839 -2.257658420780032 34.000000000000000
2.673199212363895 -4.565755382026790 -2.376527669207841 11.000000000000000
2.945620455770524 -4.991792600437561 -2.723333024946281 0.000000000000000
2.987403634266029 -4.939524751079091 -3.082280123455874 19.000000000000000
2.392153803826571 -4.583063249972244 -0.947980709504115 57.000000000000000
2.405258543519732 -4.574306088602995 -1.041364079750644 18.000000000000000
2.426666584941770 -4.581465825748420 -1.138562327247129 19.000000000000000
2.482547531091100 -4.651759180649968 -1.254788540397233 21.000000000000000
2.502701284218278 -4.654867495709387 -1.355223553278354 7.000000000000000
2.539055776150243 -4.686677407410122 -1.465276303114750 3.000000000000000
3.001280182404160 -5.497781858350865 -1.838884418525578 22.000000000000000
2.857605161856156 -5.195360850968375 -1.852366693491925 20.000000000000000
2.753887633508296 -4.967959560167700 -1.882481529935534 73.000000000000000
2.842391772638941 -5.087985803796558 -2.043571743589921 38.000000000000000
3.029401086224110 -5.380692331772574 -2.284717726457254 45.000000000000000
2.678132105852934 -4.719745065974109 -2.114377198092331 26.000000000000000
2.631558402997876 -4.601594676517043 -2.170302007707979 38.000000000000000
2.622647127622698 -4.550305113716073 -2.255903680581636 39.000000000000000
2.647877807002916 -4.557836933020393 -2.371342575668200 11.000000000000000
2.914973911649021 -4.978599920765441 -2.714746014521424 11.000000000000000
2.965562073583429 -4.942323651738299 -3.081910853543910 19.000000000000000
2.372556249805809 -4.579410062092440 -0.948428344533156 56.000000000000000
2.421821039828052 -4.640274155136593 -1.057468021368756 27.000000000000000
2.406777229129717 -4.578047243769069 -1.138649552391393 27.000000000000000
2.451358186050405 -4.627944655289202 -1.249170649376532 16.000000000000000
2.482279247344800 -4.651817062699225 -1.354999539993165 11.000000000000000
2.501944450605450 -4.653242507196490 -1.455337807969111 7.000000000000000
2.535424430465627 -4.679813383157497 -1.565654385941558 5.000000000000000
2.814827783620970 -5.156727908896587 -1.838814243517403 36.000000000000000
2.638502486983743 -4.796339343559759 -1.817486596264561 41.000000000000000
2.567242544813701 -4.630856724035166 -1.859832174567578 5.000000000000000
2.608639415405216 -4.669172333277256 -1.982283058130841 2.000000000000000
2.658260137900804 -4.721072673065628 -2.114469639148445 26.000000000000000
2.611940395762742 -4.602858407281136 -2.170221613454286 36.000000000000000
2.606703412252354 -4.557996168376250 -2.258854632246032 35.000000000000000
2.629926973404109 -4.562458354237806 -2.372684951780820 11.000000000000000
2.889907433016803 -4.974668686209899 -2.711218635786666 22.000000000000000
2.914621368827189 -4.976287715593079 -2.839141921076389 15.000000000000000
2.945539386830903 -4.948080752270258 -3.083394004930352 21.000000000000000
2.370990062270168 -4.610669026321241 -0.956096885434763 12.000000000000000
2.405533261847196 -4.643720276822576 -1.059324179264143 48.000000000000000
2.419454492856779 -4.636890592454062 -1.154219039266878 33.000000000000000
2.405859765923001 -4.576446829319377 -1.236053884394018 16.000000000000000
2.456460430101107 -4.638424216856061 -1.351748105170012 14.000000000000000
2.475964399215314 -4.640049919330457 -1.451713828528123 10.000000000000000
2.498300602617268 -4.646591573362581 -1.554889336678996 11.000000000000000
2.536002907672879 -4.681619194692703 -1.669590059912774 6.000000000000000
2.602491536659961 -4.767353367604940 -1.806531391921854 27.000000000000000
2.529814621056777 -4.598653698358683 -1.846758821735898 7.000000000000000
2.501843963147615 -4.512795187732141 -1.915586692802875 5.000000000000000
2.636589652026487 -4.719081788321586 -2.113073136916561 27.000000000000000
2.590526037189676 -4.600832481685162 -2.168589247901294 37.000000000000000
2.583482198456002 -4.552863176540192 -2.255450426403848 36.000000000000000
2.608352384405762 -4.560694571900093 -2.370708514475324 10.000000000000000
2.872127300073453 -4.983181723441531 -2.714476871025258 50.000000000000000
2.891246541410319 -4.975585446633457 -2.837128636497158 23.000000000000000
2.928354202320023 -4.999773559560636 -2.980815663350052 17.000000000000000
2.921924582791668 -4.947705984078768 -3.081065112520162 23.000000000000000
2.371038004342288 -4.645464099914864 -0.964498874217446 119.000000000000000
2.391036536652480 -4.650602238896689 -1.061950609003077 72.000000000000000
2.403045415559012 -4.640359374274198 -1.156002425752813 49.000000000000000
2.403894140480388 -4.607500913254568 -1.245216565791822 13.000000000000000
2.436155440592394 -4.635212647264789 -1.351448994194246 20.000000000000000
2.457309458162817 -4.640380888769887 -1.452308312295557 14.000000000000000
2.477670832933331 -4.643662639421281 -1.554248543468655 46.000000000000000
2.502460810300632 -4.655355941783228 -1.660406862251868 9.000000000000000
2.528741429789438 -4.668134865389466 -1.768954397321121 6.000000000000000
2.503474548394582 -4.586148290374775 -1.841591443353567 10.000000000000000
2.461192495948964 -4.474102077137371 -1.898853891493383 6.000000000000000
2.598707138569928 -4.687695737277507 -2.098515161407224 19.000000000000000
2.572761687304466 -4.605189397248209 -2.169964035603113 38.000000000000000
2.565730398583979 -4.557244402766391 -2.256760283068740 38.000000000000000
2.585020342164923 -4.555683938447715 -2.367048306132145 10.000000000000000
2.848933315564082 -4.982227399333594 -2.712580525034911 61.000000000000000
2.873284231297532 -4.984123487173900 -2.840388492931637 55.000000000000000
2.890468267306666 -4.974619421552906 -2.963973482742693 22.000000000000000
2.900129227109544 -4.950289612931286 -3.080588777193349 25.000000000000000
2.358449123150526 -4.655742129292230 -0.967805227844919 126.000000000000000
2.371172418363328 -4.646970100399057 -1.062161121671370 104.000000000000000
2.386635114488934 -4.643777445013325 -1.157759850519051 72.000000000000000
2.405328576067309 -4.645494929519647 -1.256252880976304 41.000000000000000
2.419474743671028 -4.638795939490600 -1.353118692688683 30.000000000000000
2.435088646797342 -4.633824933972976 -1.450735593941584 20.000000000000000
2.451699099280863 -4.630490843263442 -1.550168402799783 54.000000000000000
2.474503614526855 -4.639044660988127 -1.654762972467986 13.000000000000000
2.496996007951163 -4.645402689508336 -1.760353597600397 9.000000000000000
2.482633073696646 -4.583486571502947 -1.840371666332566 13.000000000000000
2.444175933567772 -4.477991788876124 -1.900191975703013 7.000000000000000
2.555683385566313 -4.646349493500209 -2.079503502519449 15.000000000000000
2.553201514735400 -4.606256876669177 -2.169786996755851 38.000000000000000
2.546185221592599 -4.558365342247457 -2.256455234198246 38.000000000000000
2.567115552815402 -4.560113045317775 -2.368295326266537 10.000000000000000
2.857889589545301 -5.037796531686987 -2.741448011414981 61.000000000000000
2.848173072877994 -4.980161453143547 -2.836529930664557 63.000000000000000
2.868777250187651 -4.977017039985707 -2.963564487656324 48.000000000000000
2.880120049387816 -4.955847686712372 -3.081971156130760 24.000000000000000
2.344049593414308 -4.662477030697386 -0.970362531136432 118.000000000000000
2.358433331494829 -4.657252958235473 -1.065537941089447 120.000000000000000
2.371997905097537 -4.650623229113037 -1.160359219831131 99.000000000000000
2.386991261846338 -4.645491491483216 -1.257006570558110 43.000000000000000
2.397453226861728 -4.632011449144248 -1.351751441651494 42.000000000000000
2.418279000422531 -4.637438202029626 -1.452335222485369 32.000000000000000
2.434755220120390 -4.634189737419749 -1.551725650909334 51.000000000000000
2.452031850515314 -4.632733065012443 -1.652676662992149 18.000000000000000
2.472567883345134 -4.635922415858709 -1.756767319934233 13.000000000000000
2.460049169426401 -4.577428939069826 -1.837783009979842 21.000000000000000
2.423588521925297 -4.475238000210229 -1.898706801448374 7.000000000000000
2.509403570405288 -4.598264993837099 -2.057483114703372 12.000000000000000
2.533661147986692 -4.607259160618333 -2.169577888456923 38.000000000000000
2.524880562844613 -4.556210238338585 -2.254529309507448 40.000000000000000
2.545655028882818 -4.558125402645791 -2.366211589794700 11.000000000000000
2.829253831049861 -5.027325247877487 -2.734370057534870 0.000000000000000
2.835505667356899 -4.997932609774131 -2.845052062536510 28.000000000000000
2.845338679148039 -4.976258362919776 -2.961284266397787 60.000000000000000
2.861863672698948 -4.964396068529140 -3.085218305672795 44.000000000000000
2.331383230037800 -4.672690696642809 -0.973631289660649 85.000000000000000
2.345649843437203 -4.667505820720996 -1.068896732859932 104.000000000000000
2.357337933779740 -4.657428527936253 -1.162936530137651 102.000000000000000
2.370441337800928 -4.648890874882980 -1.258668144299482 61.000000000000000
2.382572109472985 -4.638920269806190 -1.354368071663946 57.000000000000000
2.399697149001955 -4.637577045955951 -1.452836100836693 44.000000000000000
