# This PCD file was generated using the MATLAB® pcwrite function
# from Computer Vision Toolbox®.
# .PCD v.7 - Point Cloud Data file format
VERSION .7
FIELDS x y z intensity
SIZE 8 8 8 8
TYPE F F F F
COUNT 1 1 1 1
WIDTH 631
HEIGHT 1
VIEWPOINT 0 0 0 1 0 0 0
POINTS 631
DATA ascii
-5.132370287275581 -5.575416029956845 -2.218181085301878 45.000000000000000
-4.766984382476946 -5.113536601181665 -2.170254207597891 37.000000000000000
-4.788100951295562 -5.070236277292240 -2.289627343615603 40.000000000000000
-4.830661384842789 -5.050061610093093 -2.421240244018076 47.000000000000000
-4.872624465553486 -5.026934381217280 -2.553383156642430 65.000000000000000
-4.907356629137330 -4.996534565642041 -2.683746122271293 66.000000000000000
-4.514210133798942 -5.714608254530638 -0.505133017290714 1.000000000000000
-4.514986002030770 -5.645920152618597 -0.622914947421706 1.000000000000000
-4.516404991997583 -5.579194923434852 -0.738461884309588 6.000000000000000
-4.573836945389338 -5.581816389223603 -0.864387293975491 17.000000000000000
-4.640490429248702 -5.594286345748030 -0.993330185702797 47.000000000000000
-4.700412674581210 -5.598861170833752 -1.122359246572329 9.000000000000000
-4.749157693927014 -5.588856655388200 -1.250512888273003 4.000000000000000
-4.799472998823639 -5.579507931975811 -1.379961655475203 18.000000000000000
-4.868654181409440 -5.591870076664033 -1.517174844094693 29.000000000000000
-4.931739557859617 -5.595494244773130 -1.654687006703507 23.000000000000000
-4.998718952385681 -5.602523842555983 -1.795253583383675 11.000000000000000
-5.051612534220635 -5.592260485576191 -1.932933900982681 4.000000000000000
-5.105820353264241 -5.582509468657667 -2.072322984609321 6.000000000000000
-5.169352285775731 -5.581149969074622 -2.217732618744551 34.000000000000000
-4.797415111286676 -5.114499759859441 -2.168478834666356 27.000000000000000
-4.823840552754019 -5.076516664682862 -2.290625433108388 18.000000000000000
-4.858688780114611 -5.047850122610231 -2.418697268707326 63.000000000000000
-4.898162134952481 -5.021805095598392 -2.549662189690972 64.000000000000000
-4.938253952473219 -4.996545415210554 -2.683017296742798 9.000000000000000
-4.514139141193827 -5.611649484030392 -0.613124687419518 1.000000000000000
-4.543074562138631 -5.579021577212060 -0.732677121146234 3.000000000000000
-4.608327606045954 -5.590616078555620 -0.860200289206045 3.000000000000000
-4.654974530077826 -5.578422984186181 -0.985207152750145 19.000000000000000
-4.720184310216244 -5.588916521635792 -1.115290182766302 54.000000000000000
-4.784471060812299 -5.596760561358193 -1.247450154144509 20.000000000000000
-4.845311150714608 -5.599017060423670 -1.380214407201054 7.000000000000000
-4.896747898452849 -5.590294892087073 -1.512454640147199 4.000000000000000
-4.949708557728036 -5.581972134449897 -1.646685241258543 12.000000000000000
-5.014308344894784 -5.585942528773370 -1.786228957205510 24.000000000000000
-5.083002164894544 -5.592790937304239 -1.929709440119144 19.000000000000000
-5.150479272932457 -5.596968141384592 -2.074600415361730 12.000000000000000
-5.209034590655879 -5.589540915132126 -2.218316251442627 24.000000000000000
-4.848883987574927 -5.137582625825249 -2.176059015251657 28.000000000000000
-4.851780373754356 -5.074400922786499 -2.287823961688396 61.000000000000000
-4.889375597171125 -5.048248471375893 -2.417398941225564 62.000000000000000
-4.926342813366351 -5.019266604967442 -2.547255235238962 39.000000000000000
-5.543884370228751 -5.574271229398642 -2.992422154481539 5.000000000000000
-4.515625824496729 -5.580526777586065 -0.603705472712587 7.000000000000000
-4.569772011874898 -5.578744879880657 -0.726837894368620 25.000000000000000
-4.640365554644676 -5.596211676528437 -0.855466183290720 67.000000000000000
-4.699978942142430 -5.598960612339944 -0.983470388412199 7.000000000000000
-4.739927268631575 -5.578908435069476 -1.108190489579059 4.000000000000000
-4.799291436469507 -5.580590475784572 -1.238994612342199 23.000000000000000
-4.865481412964694 -5.588656445446690 -1.373064366612952 34.000000000000000
-4.932643901145494 -5.597436172752980 -1.510058421534958 25.000000000000000
-4.993636801251485 -5.597552437859068 -1.647239570495084 9.000000000000000
-5.048090890852408 -5.589543887982560 -1.783641634973164 4.000000000000000
-5.098739104992267 -5.576031677186593 -1.920506775367983 7.000000000000000
-5.169050316486811 -5.582905770422641 -2.066286036396987 8.000000000000000
-5.240931358485922 -5.589354670861399 -2.215474860827531 21.000000000000000
-4.918983575736760 -5.179840548588855 -2.191719980478049 49.000000000000000
-4.877110187774593 -5.069436352059109 -2.283731001831629 63.000000000000000
-4.917467733792452 -5.045815250045872 -2.414738816003638 59.000000000000000
-5.496537129478689 -5.565396926795587 -2.823170669916434 5.000000000000000
-5.598092145593667 -5.593630160142767 -3.001992998157006 6.000000000000000
-4.542121484090859 -5.580356316269603 -0.597625139389400 2.000000000000000
-4.606621315580263 -5.590651786185915 -0.722532117250025 3.000000000000000
-4.652108078540654 -5.577266659263428 -0.846953975753901 28.000000000000000
-4.717001283244651 -5.585972681306558 -0.975799209655933 80.000000000000000
-4.785341310432799 -5.598906273748151 -1.107005456377205 19.000000000000000
-4.845020300849160 -5.600187713559390 -1.238442512698098 5.000000000000000
-4.893397270505604 -5.587109023458612 -1.368056984557166 5.000000000000000
-4.947810638237612 -5.580952846334441 -1.501265870901694 14.000000000000000
-5.014210831786696 -5.586764374456815 -1.640002914233116 29.000000000000000
-5.084554081283907 -5.595889043906522 -1.781897753179493 19.000000000000000
-5.151163147596574 -5.599187540479671 -1.925024964352452 14.000000000000000
-5.219153500118476 -5.602694515511491 -2.070476975978852 7.000000000000000
-5.283421428921042 -5.600226667557778 -2.216994198547360 8.000000000000000
-4.997339467895594 -5.230058971867286 -2.210696133213127 67.000000000000000
-4.910389725926526 -5.072582457256224 -2.283282714394264 59.000000000000000
-4.958838611484523 -5.056788011932477 -2.418485192765558 6.000000000000000
-5.539965253946428 -5.574522309395212 -2.826550902977225 9.000000000000000
-5.620629574353716 -5.581110097934335 -2.994454418193029 7.000000000000000
-4.571169761147212 -5.583167471786651 -0.591817536709406 17.000000000000000
-4.638490155980796 -5.596269282892622 -0.717352902149114 77.000000000000000
-4.699524378708056 -5.600917232442484 -0.844864941429983 6.000000000000000
-4.739110776185075 -5.578980342907189 -0.969156016594692 5.000000000000000
-4.799960064207818 -5.582700858963966 -1.098622092137727 25.000000000000000
-4.867590114947087 -5.592790527819131 -1.231875231022205 43.000000000000000
-4.934344330800616 -5.600214952901210 -1.366595224050453 27.000000000000000
-4.996848281546068 -5.602485276934547 -1.502664956982004 8.000000000000000
-5.042612244697156 -5.584613779572627 -1.635283058873252 4.000000000000000
-5.102704897083619 -5.581961441694319 -1.773677872872281 8.000000000000000
-5.169527020589727 -5.585097987763858 -1.916709380805762 12.000000000000000
-5.240375640633575 -5.591257718953223 -2.063103551763756 14.000000000000000
-5.310145439376106 -5.594183058758314 -2.211797304857433 15.000000000000000
-5.073426047033714 -5.277137367199472 -2.228289333319817 76.000000000000000
-4.938420560520664 -5.070137601053697 -2.280307670865539 29.000000000000000
-5.484404195211418 -5.558165960120045 -2.656615475244808 7.000000000000000
-5.591495724958231 -5.591449914638245 -2.833877804328513 6.000000000000000
-5.672438573064206 -5.597439191259421 -3.002394233768511 8.000000000000000
-4.904637496372150 -4.582603123925306 -3.038371872857296 35.000000000000000
-4.607866564462961 -5.595094234495446 -0.586915863834109 3.000000000000000
-4.652576309789825 -5.580350495026151 -0.709381444812222 42.000000000000000
-4.718917705411275 -5.590944060387138 -0.837649212485606 116.000000000000000
-4.784397216717382 -5.599046871800883 -0.967161517040310 16.000000000000000
-4.842985223810119 -5.599380291388132 -1.096672455371702 4.000000000000000
-4.890148259793854 -5.585314922023128 -1.225268631386983 5.000000000000000
-4.951915546787969 -5.586636889437026 -1.358589225285189 22.000000000000000
-5.014619634964139 -5.588755545039462 -1.494569293951532 34.000000000000000
-5.081553364689268 -5.593929935881316 -1.633887166932291 19.000000000000000
-5.149810576145030 -5.599520307849234 -1.775434412139414 14.000000000000000
-5.216925324157074 -5.602189472759002 -1.919069376931649 7.000000000000000
-5.280119185697038 -5.599429921726416 -2.062946905887046 4.000000000000000
-5.339529555687902 -5.590823768395549 -2.207648911099484 5.000000000000000
-5.362789415072509 -5.543954396267039 -2.338516483092994 64.000000000000000
-5.043787243978303 -5.146468530705079 -2.312724778252707 4.000000000000000
-5.530386481888564 -5.570152000938397 -2.660672104447715 10.000000000000000
-5.619148186183394 -5.584249688000261 -2.828970322181001 8.000000000000000
-5.700352987337300 -5.589940893070986 -2.997552440196420 8.000000000000000
-4.949397916121816 -4.725983163468310 -2.826262444732101 41.000000000000000
-4.938032775814857 -4.649222473804944 -2.929693959109938 9.000000000000000
-4.916406673672657 -4.564433061558347 -3.027291899639022 57.000000000000000
-4.637031008083985 -5.597649563494923 -0.580970562397703 111.000000000000000
-4.699857204658462 -5.604056674184084 -0.706395815639331 5.000000000000000
-4.738281901207595 -5.580908425364526 -0.830403379318632 7.000000000000000
-4.796224986962742 -5.579804353350088 -0.958336711584002 33.000000000000000
-4.867962411446390 -5.594968634105286 -1.090542958403329 49.000000000000000
-4.936175156909254 -5.604420374404564 -1.224447257855933 27.000000000000000
-4.993013987275346 -5.599448640390801 -1.356968034442355 7.000000000000000
-5.042857903077819 -5.586625785238704 -1.489557150656394 4.000000000000000
-5.102125707114171 -5.582872424828151 -1.626513066931267 11.000000000000000
-5.170608162019415 -5.588269180784832 -1.768025677966418 15.000000000000000
-5.243249163425957 -5.596411734439789 -1.913564712482338 19.000000000000000
-5.311979744799083 -5.599021931885532 -2.059603990360543 13.000000000000000
-5.379598751921977 -5.598449724085567 -2.207818370067097 16.000000000000000
-5.354880144400556 -5.501902684826200 -2.318345419864541 43.000000000000000
-5.042713616688059 -5.113756171871326 -2.296113497786371 7.000000000000000
-5.579179543634469 -5.584618734523694 -2.665898199462548 6.000000000000000
-5.668251705568224 -5.598134644922860 -2.834739335395284 8.000000000000000
-5.741682507587612 -5.595415482091286 -2.999667909091870 8.000000000000000
-4.905806837076538 -4.717301391215734 -2.673101356426126 2.000000000000000
-4.926360755956271 -4.674423259331519 -2.795545187399849 2.000000000000000
-4.917617261820033 -4.600762343579544 -2.899698316058085 20.000000000000000
-4.928090694725372 -4.546242710078687 -3.016206777662568 56.000000000000000
-4.648370539850251 -5.578642529536408 -0.572760728314983 83.000000000000000
-4.716498539905109 -5.591022267346681 -0.698724215342912 171.000000000000000
-4.786012699049809 -5.604059924241835 -0.828040343244556 11.000000000000000
-4.839104422821404 -5.596551653575828 -0.955655782114039 3.000000000000000
-4.885125511027216 -5.581529443985643 -1.082632812837483 6.000000000000000
-4.950937182321248 -5.587858195938498 -1.215795130271498 29.000000000000000
-5.015826720562735 -5.591566207007007 -1.350293916873700 43.000000000000000
-5.084312162008868 -5.598914923996808 -1.488349929651800 19.000000000000000
-5.154434258075823 -5.606302472710849 -1.629148263250026 13.000000000000000
-5.220582681996913 -5.608330751174777 -1.770491074775944 6.000000000000000
-5.277564963511475 -5.599012545626364 -1.910903077038367 4.000000000000000
-5.335872881593438 -5.590098670645456 -2.053113110357941 5.000000000000000
-5.401037946954513 -5.586536651721322 -2.200266650779338 11.000000000000000
-5.346731625279493 -5.459942608251216 -2.298235767243868 12.000000000000000
-5.022668396225243 -5.062155973254906 -2.271042730553483 21.000000000000000
-5.587806505400265 -5.558763385563734 -2.651871807143495 8.000000000000000
-5.693288971358610 -5.588035653407278 -2.828358927868867 9.000000000000000
-5.769642865139082 -5.587679718209134 -2.994702084592720 8.000000000000000
-4.928161167155500 -4.709173820585367 -2.668203410172091 5.000000000000000
-4.929921512548963 -4.648418807931555 -2.780117347554794 5.000000000000000
-4.915738650790805 -4.569974791955631 -2.880843612210056 59.000000000000000
-4.939689548327549 -4.528032359776116 -3.005116655799556 57.000000000000000
-4.695490203239129 -5.602406475332072 -0.568891410062250 4.000000000000000
-4.730515900156732 -5.574903678829793 -0.690654971845115 15.000000000000000
-4.797646100822215 -5.584774263613477 -0.819360919098501 51.000000000000000
-4.866494856209046 -5.595144935153125 -0.949819440273377 61.000000000000000
-4.933630771540566 -5.603695493768031 -1.081582277606246 21.000000000000000
-4.994531861004182 -5.603685919380839 -1.214154687981323 4.000000000000000
-5.033350118852026 -5.577757756275706 -1.342173235226539 6.000000000000000
-5.096757357563805 -5.579141896608209 -1.478593972539514 13.000000000000000
-5.169739330058479 -5.589281590934263 -1.619994616191625 18.000000000000000
-5.238751317041635 -5.594021099491285 -1.762075076902467 22.000000000000000
-5.309267589984883 -5.598655644747027 -1.907206498908382 14.000000000000000
-5.378499992083748 -5.600617061051598 -2.053740580164118 15.000000000000000
-5.347279686930333 -5.497284085190339 -2.162288518319252 10.000000000000000
-5.515841059262854 -5.598222697496301 -2.353936285923491 7.000000000000000
-5.031944834319300 -5.040391141965450 -2.259374320550610 33.000000000000000
-5.628668243278443 -5.564908440612194 -2.653109845956618 5.000000000000000
-5.745305958860554 -5.604186526215698 -2.835259568093162 7.000000000000000
-5.819214866415862 -5.600644038710011 -3.000830000207717 7.000000000000000
-4.947801965108094 -4.698402387615514 -2.661812675249953 5.000000000000000
-4.922534483142001 -4.612312462961590 -2.758654020765761 34.000000000000000
-4.929890390102464 -4.554213037245828 -2.871467282236641 58.000000000000000
-4.951203224482256 -4.509802300853134 -2.994021682803298 58.000000000000000
-4.717072023904149 -5.595459646767993 -0.561838822699020 255.000000000000000
-4.778079673218180 -5.598132575195085 -0.687408398929549 7.000000000000000
-4.840389875828270 -5.601569398290513 -0.815935123716615 3.000000000000000
-4.880844842959863 -5.578699621672166 -0.941407536674182 11.000000000000000
-4.948180117842229 -5.587107291039564 -1.073007753841229 36.000000000000000
-5.014531475195362 -5.592854439967300 -1.206696854066132 45.000000000000000
-5.079942270433816 -5.595976012413203 -1.341720908965704 19.000000000000000
-5.148967663692410 -5.602711726814419 -1.480289601553058 11.000000000000000
-5.216964076809631 -5.606602518125092 -1.620764642084475 5.000000000000000
-5.275585109089548 -5.599525856693408 -1.759879523426130 5.000000000000000
-5.332966240959764 -5.589741984495648 -1.900576654478888 5.000000000000000
-5.399738125941668 -5.588695875246453 -2.046118907897397 13.000000000000000
-5.371083593171784 -5.488191745267810 -2.155873002367056 13.000000000000000
-5.542908056026102 -5.591353184375798 -2.348530572509444 15.000000000000000
-5.041116022659817 -5.018620504749940 -2.247709384103278 35.000000000000000
-5.507246883424700 -5.411332958189387 -2.578237262282554 9.000000000000000
-5.764979315073086 -5.588590606216267 -2.826094926376455 9.000000000000000
-5.841824970017709 -5.587462379170497 -2.992949244646820 10.000000000000000
-4.983681504893263 -4.702920020868890 -2.664088199571364 4.000000000000000
-4.914933026903840 -4.576289001458576 -2.737246119036270 62.000000000000000
-4.938554420092652 -4.533441176369027 -2.858939548186557 61.000000000000000
-4.962631714397418 -4.491552823421028 -2.982922007306851 60.000000000000000
-4.733483046753169 -5.582352759423233 -0.554144309237350 38.000000000000000
-4.797271509484065 -5.587898544495457 -0.679994059325539 67.000000000000000
-4.865005573509557 -5.597164324183856 -0.809365367312203 71.000000000000000
-4.931834667896344 -5.603929286661002 -0.939978382006137 19.000000000000000
-4.986368719292579 -5.597094896952270 -1.069504422511355 3.000000000000000
-5.034499198469362 -5.581958592159300 -1.199208112059918 8.000000000000000
-5.097465444211083 -5.581986952778480 -1.333508044251974 19.000000000000000
-5.169372982579613 -5.591436852279671 -1.472736532426880 23.000000000000000
-5.234914318067158 -5.592277696108379 -1.612354257632058 28.000000000000000
-5.309812207410562 -5.602045239017672 -1.756712686250431 17.000000000000000
-5.383553131087476 -5.608776207337669 -1.903418277930808 16.000000000000000
-5.383183389537590 -5.537864025566112 -2.024266442182765 6.000000000000000
-5.511093442017819 -5.597052077142719 -2.195721548626000 6.000000000000000
-5.580806945809822 -5.595244365738951 -2.347630788958807 5.000000000000000
-5.061030971525568 -5.007578795622294 -2.240851648568674 19.000000000000000
-5.417396492267063 -5.290288590356620 -2.518940625801864 2.000000000000000
-5.817215830695874 -5.604364574029831 -2.832789738131079 6.000000000000000
-5.886156387254506 -5.594892437109960 -2.996110412176551 5.000000000000000
-5.006037792443387 -4.694529508006850 -2.659055907475714 6.000000000000000
-4.928878748733184 -4.560483856238591 -2.727937916682416 60.000000000000000
-4.949834663492086 -4.515145876786026 -2.847980778627961 62.000000000000000
-4.976693029616266 -4.475728635101175 -2.973441721961982 59.000000000000000
-4.999835167609165 -4.431086825666595 -3.097678782595539 47.000000000000000
-4.775731115765949 -5.599548627294081 -0.549406480189198 5.000000000000000
-4.829450424408139 -5.592677080490379 -0.674367608609463 3.000000000000000
-4.881773725119492 -5.583685898137032 -0.801459348737410 22.000000000000000
-4.946176763882445 -5.587314192559134 -0.931480291824068 73.000000000000000
-5.014079816628185 -5.595119135368216 -1.063667924456831 52.000000000000000
-5.078326541653964 -5.597331934956274 -1.197321488261003 13.000000000000000
-5.149588171126021 -5.605666890447735 -1.334250494149051 7.000000000000000
-5.213821190274892 -5.605983445381711 -1.471949117988360 4.000000000000000
-5.266233025993806 -5.592152508603687 -1.608018667941884 5.000000000000000
-5.330635428150400 -5.590307358382788 -1.749053907390802 7.000000000000000
-5.399212221976558 -5.591238033594064 -1.893822756688206 16.000000000000000
-5.328449756207300 -5.448431335350929 -1.988364951295523 13.000000000000000
-5.540683856675209 -5.592953050032320 -2.191182918086236 15.000000000000000
-5.613345588201614 -5.593562926710681 -2.344376482637824 12.000000000000000
-5.495686291484725 -5.333733244820357 -2.537980665545932 3.000000000000000
-5.839613324079006 -5.591178794617649 -2.824841926879600 12.000000000000000
-5.916949417230332 -5.589242428751811 -2.992267144921752 9.000000000000000
-5.036571248950572 -4.693692998696854 -2.658306996610550 7.000000000000000
-4.934569908667975 -4.537117188876966 -2.714113378410290 66.000000000000000
-4.961029805022962 -4.496831969061811 -2.837017715083485 63.000000000000000
-4.990687409539138 -4.459870948895618 -2.963948430635125 57.000000000000000
-5.016609086414247 -4.417622724199149 -3.089779723660782 48.000000000000000
-4.794732902754243 -5.589303517966554 -0.541921189189509 98.000000000000000
-4.861688079107098 -5.597321388818800 -0.668669044998723 87.000000000000000
-4.930011312632742 -5.605999505459445 -0.798637591214960 13.000000000000000
-4.981570787034461 -5.594382507298386 -0.926898514293058 3.000000000000000
-5.031204280801489 -5.581267142547806 -1.055549415404625 13.000000000000000
-5.095647527329432 -5.583322996412623 -1.189110842163760 23.000000000000000
-5.167127420448423 -5.591481935220996 -1.325936645902548 31.000000000000000
-5.239610113090940 -5.600249213728575 -1.465796236496608 31.000000000000000
-5.311056808697144 -5.606116512031117 -1.607693138731317 16.000000000000000
-5.383840463059490 -5.612294704740846 -1.751911531859200 13.000000000000000
-5.376876844142745 -5.534626797965558 -1.871016197194209 6.000000000000000
-5.425226451300958 -5.513889142712709 -2.008981949639999 6.000000000000000
-5.573014057934779 -5.591471176278621 -2.187653627726904 5.000000000000000
-5.659551482198962 -5.605253104645150 -2.346706341493420 5.000000000000000
-5.736996475077206 -5.607131479053567 -2.504828142120382 6.000000000000000
-5.369287008223785 -5.179025771846821 -2.462759646791729 1.000000000000000
-5.881128465917550 -5.596150238362760 -2.826065547195729 5.000000000000000
-5.301500382459378 -4.976800099599223 -2.663661101456459 4.000000000000000
-5.075363891851056 -4.700343922303715 -2.661802467756955 7.000000000000000
-4.948354791040516 -4.521268161231222 -2.704792612423956 40.000000000000000
-4.972139840411947 -4.478499742854066 -2.826050505678256 67.000000000000000
-5.001878511620464 -4.441550243894690 -2.952826914322693 59.000000000000000
-5.025131973080224 -4.396933759268562 -3.076837039839986 36.000000000000000
-4.824129074837209 -5.591079161459909 -0.535563702652662 4.000000000000000
-4.878255984011938 -5.583828468849683 -0.660767875214523 46.000000000000000
-4.946788525353316 -5.592337601990197 -0.790637357325910 99.000000000000000
-5.011742816471257 -5.595385209445573 -0.921261254729875 64.000000000000000
-5.077551475115180 -5.599649077953032 -1.053482425736386 8.000000000000000
-5.142317521006323 -5.601288327598665 -1.187668128838326 4.000000000000000
-5.203399930768779 -5.597454040732772 -1.322374161256877 4.000000000000000
-5.265401331783528 -5.594419756116079 -1.459594603864496 7.000000000000000
-5.326284256963577 -5.588691122280948 -1.598337747086038 8.000000000000000
-5.377598517824476 -5.572248408428458 -1.735389828211089 20.000000000000000
-5.337906813412292 -5.461500812516274 -1.842687093950222 22.000000000000000
-5.538826518833943 -5.595378026091438 -2.035330326849910 16.000000000000000
-5.613571625317729 -5.598029542668119 -2.187248236218889 13.000000000000000
-5.686737294207900 -5.597892037994465 -2.341042433964664 13.000000000000000
-5.764425981452906 -5.599487016691400 -2.499238734946137 16.000000000000000
-5.477761868622028 -5.251194095145393 -2.495441741612228 1.000000000000000
-5.914494682935574 -5.593156484559860 -2.823262153033752 10.000000000000000
-5.338410892807594 -4.980360308045427 -2.664838520736088 5.000000000000000
-5.106008529342992 -4.699240080104375 -2.660910289321542 6.000000000000000
-5.017023891550628 -4.555280052212929 -2.725309325108102 7.000000000000000
-4.985911825443367 -4.462608225024873 -2.816631161306774 62.000000000000000
-5.015729687275813 -4.425633577626074 -2.943312273743424 58.000000000000000
-5.036294459417211 -4.378625845454816 -3.065568434003492 41.000000000000000
-4.861410391025107 -5.601775346026204 -0.529998096870279 80.000000000000000
-4.926337063086127 -5.606206006313667 -0.657055062864989 8.000000000000000
-4.976738013674870 -5.593488012932138 -0.784700320140108 3.000000000000000
-5.028664893876519 -5.581515693834704 -0.913146179190788 32.000000000000000
-5.097343917827246 -5.588545475248932 -1.045820469518673 24.000000000000000
-5.164998921352989 -5.592906742687228 -1.180591508535529 34.000000000000000
-5.234361893490981 -5.597513654977096 -1.317373314711691 33.000000000000000
-5.310110855660684 -5.608474277790575 -1.458540015205634 15.000000000000000
-5.379400011935588 -5.610821589801447 -1.600260166037184 11.000000000000000
-5.311309008552160 -5.470658407858144 -1.699775632312591 41.000000000000000
-5.380310363280444 -5.471836343568527 -1.842533968202395 7.000000000000000
-5.573736573512262 -5.596692891730040 -2.032443181186190 5.000000000000000
-5.648740731648999 -5.598984181394480 -2.184630010574763 5.000000000000000
-5.724899429156532 -5.601172197938608 -2.339814636906686 5.000000000000000
-5.802848821506686 -5.602358158670312 -2.498332367143863 6.000000000000000
-5.391385376447422 -5.136650740829151 -2.439401338314019 1.000000000000000
-5.958913646670282 -5.600388442514842 -2.825615232913502 6.000000000000000
-5.367126736003033 -4.976098053203026 -2.661830716741862 5.000000000000000
-5.150480219114972 -4.710621966839431 -2.667091711590583 4.000000000000000
-5.245874330713661 -4.733222208584167 -2.831952335496680 2.000000000000000
-4.994104581673200 -4.441781493066499 -2.804104241137030 64.000000000000000
-5.024004924204863 -4.404854189622660 -2.930571631905452 59.000000000000000
-5.050123715572239 -4.362677175523554 -3.055961112249412 48.000000000000000
-4.877792928239818 -5.588259763923357 -0.522096696148218 106.000000000000000
-4.942912904809704 -5.592530455855282 -0.649060178871570 206.000000000000000
-5.012033072501239 -5.600446622145238 -0.779524286123135 76.000000000000000
-5.069537529590280 -5.594081924083538 -0.909314391570639 5.000000000000000
-5.138536152299246 -5.600738686125988 -1.042476081857707 3.000000000000000
-5.195736739352453 -5.593135310678595 -1.175301294044811 4.000000000000000
-5.257257013661880 -5.588832935790216 -1.310286651130005 10.000000000000000
-5.325123090121823 -5.591015041659076 -1.449258734316741 10.000000000000000
-5.394611562500812 -5.593218845488377 -1.590815211206569 22.000000000000000
-5.350820635966860 -5.478433405796612 -1.698181951371212 35.000000000000000
-5.376311347944709 -5.434966014829238 -1.826477677830237 9.000000000000000
-5.614185755247099 -5.603339526575418 -2.031464608477871 12.000000000000000
-5.686711632570339 -5.602503024817980 -2.182990303435766 15.000000000000000
-5.763132407532490 -5.604293085043574 -2.338501201663481 15.000000000000000
-5.838583873852352 -5.602422945443126 -2.496160950011761 17.000000000000000
-5.434040364256013 -5.145509971301045 -2.441990265107113 1.000000000000000
-5.989617637846686 -5.594520829881330 -2.821354503854450 11.000000000000000
-5.390331166160483 -4.966628555981162 -2.656039665748884 1.000000000000000
-5.253174974044731 -4.774605615768431 -2.703055660903547 2.000000000000000
-5.373739783139850 -4.818215860366094 -2.883002023241864 2.000000000000000
-5.007724455873661 -4.425839913458171 -2.794668644846003 66.000000000000000
-5.037703643941314 -4.388886927636622 -2.921040487949589 59.000000000000000
-5.063885636655185 -4.346695723125178 -3.046341174169862 52.000000000000000
-4.923085680851148 -5.607683499755928 -0.517216729779196 5.000000000000000
-4.964734770255024 -5.584764376536559 -0.641728540419538 5.000000000000000
-5.026104971034040 -5.583594924746150 -0.770999699413651 69.000000000000000
-5.094465633568266 -5.588854881853914 -0.902539205779753 38.000000000000000
-5.166397602465821 -5.598186103215815 -1.036335933467885 40.000000000000000
-5.240010458599269 -5.607685318839492 -1.172967074833013 30.000000000000000
-5.307241020496655 -5.608717325622487 -1.309849881329817 14.000000000000000
-5.372708545359658 -5.607591263940571 -1.448766062273932 6.000000000000000
-5.437045781291785 -5.603710626814353 -1.589334572412332 4.000000000000000
-5.335670826194793 -5.430313694864043 -1.679263531988293 48.000000000000000
-5.369369043340187 -5.395405893154765 -1.809543402223584 9.000000000000000
-5.481367798665628 -5.437833236347989 -1.968146526410236 6.000000000000000
-5.716480471394454 -5.597761941889079 -2.178113004897599 6.000000000000000
-5.793147706379931 -5.599243941508842 -2.333763256104069 5.000000000000000
-5.866069164590441 -5.594425775621867 -2.490388081664961 6.000000000000000
-5.460183573819464 -5.138540345630129 -2.437058566494354 17.000000000000000
-6.036973653445965 -5.603981736619295 -2.824818897422742 6.000000000000000
-6.123852452447058 -5.607520111596097 -2.997954859350528 6.000000000000000
-5.384132828611489 -4.863143442543439 -2.752916551789171 2.000000000000000
-5.505050853310765 -4.905033363718722 -2.935159076314022 36.000000000000000
-5.012954690757957 -4.402557052243099 -2.780604371382656 44.000000000000000
-5.048562679838542 -4.370487255281972 -2.909898970610378 61.000000000000000
-5.077580140366636 -4.330681700258996 -3.036708733019383 53.000000000000000
-4.986974019518969 -4.192379567259806 -3.093054750997027 29.000000000000000
-4.942107614282642 -5.596984850714670 -0.509498684708811 255.000000000000000
-5.010451863729810 -5.603662112440303 -0.637400228151465 78.000000000000000
-5.077502220806984 -5.608010361017424 -0.768119123848221 3.000000000000000
-5.124764995246783 -5.589390673439975 -0.896655810863596 3.000000000000000
-5.188884748087374 -5.589714408696810 -1.029069434136243 5.000000000000000
-5.251907702883242 -5.587457233395847 -1.163324178966509 13.000000000000000
-5.327472695125803 -5.596944785089677 -1.301975328240317 13.000000000000000
-5.395874077063965 -5.598465824020961 -1.441591953965612 25.000000000000000
-5.465895724424422 -5.599988003693497 -1.583784798578313 26.000000000000000
-5.353211410083744 -5.415667767898928 -1.670714286372707 13.000000000000000
-5.417292755049164 -5.410947443512996 -1.811080056107956 6.000000000000000
-5.477255056744966 -5.401050552238725 -1.951518889358606 8.000000000000000
-5.577501395415916 -5.428647066992785 -2.109351845037747 6.000000000000000
-5.834264616342573 -5.604730305881147 -2.333399791041057 15.000000000000000
-5.912983185578107 -5.604747594889811 -2.492756354850479 12.000000000000000
-5.480768660530074 -5.126275181068294 -2.429613479077402 13.000000000000000
-6.064976406747555 -5.595269023923398 -2.819117900251567 9.000000000000000
-6.146549105936311 -5.593427224141038 -2.989603648738644 9.000000000000000
-5.490719039567947 -4.928521674605214 -2.789663515815596 49.000000000000000
-5.522914580716421 -4.890128346101307 -2.926457806421687 44.000000000000000
-5.026413359650176 -4.386573964686783 -2.771157445953281 54.000000000000000
-5.062117804514948 -4.354462966080095 -2.900347498188744 59.000000000000000
-5.091207145250046 -4.314635319099099 -3.027063902090191 56.000000000000000
-5.005849358543053 -4.181269331822636 -3.086926460791313 29.000000000000000
-4.961097287220829 -5.586224445267944 -0.501751087513501 15.000000000000000
-5.021661296329448 -5.583820606530112 -0.628618532208951 133.000000000000000
-5.091561022600462 -5.590988568974274 -0.759508508665128 49.000000000000000
-5.165874958593716 -5.601485576254329 -0.892568905569250 41.000000000000000
-5.235707610414809 -5.607243980954884 -1.026538239078150 26.000000000000000
-5.301761249693775 -5.607447273529606 -1.162014942171953 12.000000000000000
-5.369496284186179 -5.607903289328950 -1.299351511964476 4.000000000000000
-5.429974692987076 -5.600556593051536 -1.437276828431769 4.000000000000000
-5.456299694505875 -5.556980659384045 -1.567129731377316 6.000000000000000
-5.378965646940357 -5.409284894828648 -1.664701022890936 60.000000000000000
-5.448782236971963 -5.409812360244834 -1.806999269784312 7.000000000000000
-5.514489516263453 -5.405058343585218 -1.949627061122275 6.000000000000000
-5.578995930481059 -5.397286788720378 -2.094206228617476 7.000000000000000
-5.675262927357862 -5.418880273366828 -2.253446979246089 7.000000000000000
-5.932168707046833 -5.588625323384901 -2.483352859735259 6.000000000000000
-5.373055921812091 -4.994713408299538 -2.365665240483707 27.000000000000000
-6.112511260515418 -5.604367950421332 -2.822386572807203 5.000000000000000
-6.199923699574488 -5.607044659694429 -2.996063467893631 6.000000000000000
-5.511234239015977 -4.916123735760820 -2.782389005402924 57.000000000000000
-5.537931462129376 -4.872714760730726 -2.916263016484366 44.000000000000000
-5.039804871274840 -4.370559266450060 -2.761698491494300 62.000000000000000
-5.072815196875590 -4.336021713607416 -2.889194641673189 60.000000000000000
-5.057371141035093 -4.258646652470267 -2.989391548664910 20.000000000000000
-5.019126197722311 -4.165477285425408 -3.077355227454663 19.000000000000000
-5.062201080599781 -5.596481676239477 -0.623455745895562 3.000000000000000
-5.118993874010811 -5.588609509830054 -0.752862181595580 5.000000000000000
-5.180070216314524 -5.584267509656814 -0.883771992451938 14.000000000000000
-5.250097262338382 -5.589876106267933 -1.017575477574940 26.000000000000000
-5.324511681093901 -5.598541312051173 -1.154666417261254 15.000000000000000
-5.397940085134869 -5.604466076558073 -1.293347143656300 30.000000000000000
-5.464128293041806 -5.602506108005360 -1.432886355208494 24.000000000000000
-5.341730686190977 -5.408033157662803 -1.520721750296666 7.000000000000000
-5.407484744618345 -5.405569957021006 -1.659487323383875 10.000000000000000
-5.480307360990945 -5.408550727085295 -1.802851702612720 9.000000000000000
-5.568467122596171 -5.425151644616379 -1.953499305728495 31.000000000000000
-5.613742524008973 -5.398096968106782 -2.091540101707287 6.000000000000000
-5.685220141458061 -5.395440263247002 -2.241115862442788 5.000000000000000
-5.766889332284388 -5.399780520685113 -2.397267977847727 10.000000000000000
-5.172170636147567 -4.778499812979669 -2.261726430832458 24.000000000000000
-6.106964275788540 -5.564780525194513 -2.801139239784129 8.000000000000000
-6.222633915424527 -5.592723761399730 -2.987595033347604 8.000000000000000
-5.523306422990752 -4.896207349106279 -2.770865524038797 59.000000000000000
-5.552876127034133 -4.855265127719966 -2.906054241985311 46.000000000000000
-5.050328078451117 -4.352099359056838 -2.750701995655891 28.000000000000000
-5.086226516096354 -4.319941348186620 -2.879623339116751 57.000000000000000
-5.011977562713091 -4.193521216373488 -2.945281772375263 10.000000000000000
-5.046299519697692 -4.161168110266589 -3.076284303441282 17.000000000000000
-5.092115581232490 -5.597165779406351 -0.616893949728617 50.000000000000000
-5.162629258659543 -5.603689285226578 -0.748506200554968 44.000000000000000
-5.229438425244449 -5.604787873964336 -0.880898770823974 21.000000000000000
-5.302544935162866 -5.612833444516881 -1.015904490929839 7.000000000000000
-5.363655293926914 -5.606710166149145 -1.150799287768993 3.000000000000000
-5.420908718172294 -5.595249249214636 -1.285982312633678 6.000000000000000
-5.484553924347531 -5.590268155117506 -1.424840413801912 9.000000000000000
-5.381104538147991 -5.415607153977774 -1.518410057694509 21.000000000000000
-5.566375134444264 -5.531275719699166 -1.693883341705407 5.000000000000000
-5.484057916241356 -5.379880961321998 -1.789562408332162 5.000000000000000
-5.597533799394030 -5.420699810703888 -1.948500173691612 81.000000000000000
-5.648541089367239 -5.398763915593286 -2.088797679388262 6.000000000000000
-5.723052963834018 -5.398391299634764 -2.239740196803707 5.000000000000000
-5.793775679054357 -5.391876777850336 -2.391579434866530 9.000000000000000
-5.160659529319513 -4.738644140667521 -2.241334631544576 38.000000000000000
-6.106813932193083 -5.530361444573208 -2.782506404296422 6.000000000000000
-6.276218200500796 -5.605945921121372 -2.993840247769610 7.000000000000000
-5.535288602763308 -4.876270567844218 -2.759337136577344 58.000000000000000
-5.564937907891538 -4.835337582658346 -2.894369800672243 44.000000000000000
-5.063576136669454 -4.336029652263204 -2.741223734547379 5.000000000000000
-5.040599498857318 -4.254060566243738 -2.836851316309924 4.000000000000000
-5.027870310610567 -4.179998380041520 -2.937406625329744 13.000000000000000
-5.084700486296946 -4.165933870916019 -3.081950023573754 26.000000000000000
-5.108608061007259 -5.583020283687020 -0.608664267844708 11.000000000000000
-5.176621337924942 -5.586448716321184 -0.739787985610450 31.000000000000000
-5.251767552158235 -5.596099310043810 -0.873376259252042 50.000000000000000
-5.322381565524406 -5.601042600523056 -1.007889010800243 17.000000000000000
-5.391910612963204 -5.603302316796205 -1.144509977414381 32.000000000000000
-5.460388586915088 -5.602913282305988 -1.282459835958451 23.000000000000000
-5.532591777421846 -5.605980122463645 -1.423878889142843 19.000000000000000
-5.476048806233347 -5.478516628069868 -1.531522454197881 6.000000000000000
-5.475705061309262 -5.408800662563270 -1.652244980082327 8.000000000000000
-5.465345961816083 -5.329472668494536 -1.769070545068897 5.000000000000000
-5.609837240489838 -5.399983896222433 -1.937647041065977 83.000000000000000
-5.688995873459997 -5.404612060280108 -2.088036022110229 6.000000000000000
-5.758146865802376 -5.398550715693943 -2.237188155236546 5.000000000000000
-5.829094207739475 -5.391676759041982 -2.389298316097145 10.000000000000000
-5.168624888796204 -4.716877531983095 -2.229510956956593 36.000000000000000
-6.219196060079224 -5.597442152446335 -2.814929078380480 10.000000000000000
-6.301759231813340 -5.593899094632881 -2.986590615287068 8.000000000000000
-5.552821014804235 -4.861251481235229 -2.750597901136546 57.000000000000000
-5.582548436856321 -4.820258620091995 -2.885595222061104 44.000000000000000
-5.068300270927528 -4.312733111378410 -2.727183432359518 4.000000000000000
-5.019885628857067 -4.209728505939527 -2.808436963770852 1.000000000000000
-5.074674263745747 -4.192005044387036 -2.947493651343494 15.000000000000000
-5.160152276652705 -5.606970025444991 -0.604525942799239 29.000000000000000
-5.225835403586068 -5.607040885195622 -0.736027748370352 11.000000000000000
-5.290449674851293 -5.604675038481071 -0.868502130620908 4.000000000000000
-5.353146425885043 -5.600658348414595 -1.001894908345235 3.000000000000000
-5.414676918881908 -5.594096205038963 -1.137007261584635 9.000000000000000
-5.480608531620733 -5.590670490156031 -1.274345947388130 14.000000000000000
-5.553031613446301 -5.593534135620287 -1.415725882265554 15.000000000000000
-5.379412306464596 -5.349977352014646 -1.491137005773645 56.000000000000000
-5.375914529698204 -5.278648280207307 -1.608425100290400 40.000000000000000
-5.443549919099212 -5.276500033396239 -1.747773347961475 5.000000000000000
-5.630465734368286 -5.387299940610261 -1.929673279082565 39.000000000000000
-5.718291433455804 -5.399666869803323 -2.083083478215483 8.000000000000000
-5.790474397256562 -5.395941137658784 -2.233472966847346 5.000000000000000
-5.864462130644731 -5.391331639769277 -2.386940105712037 19.000000000000000
-5.196254200772687 -4.713039810766449 -2.226162173580972 19.000000000000000
-6.264260732925670 -5.603275726588130 -2.816528821395906 5.000000000000000
-6.355558548657431 -5.606716411835203 -2.992616014767888 7.000000000000000
-5.564640915467659 -4.841259510144690 -2.739051265919797 52.000000000000000
-5.594447563296038 -4.800275363795858 -2.873892289781498 40.000000000000000
-5.005038927659333 -4.232067640122037 -2.676861748773477 0.000000000000000
-5.038454240230227 -4.198515145930725 -2.802119454715719 2.000000000000000
-5.155503508931670 -4.231608057366389 -2.977027513850872 68.000000000000000
-5.173945298373224 -5.589705755245639 -0.595885575606074 54.000000000000000
-5.242524757944418 -5.592541848347446 -0.727605550296554 72.000000000000000
-5.318269648490259 -5.601549601938278 -0.861762149883842 25.000000000000000
-5.389444595261588 -5.605869485503347 -0.996852178664473 28.000000000000000
-5.462277843470233 -5.610337360169457 -1.134627456842549 17.000000000000000
-5.534062293512697 -5.612102349049427 -1.273859393855885 16.000000000000000
-5.581781376898639 -5.589381063152263 -1.409649598794822 8.000000000000000
-5.376917592576540 -5.315857395519005 -1.477170725795365 64.000000000000000
-5.373329664614937 -5.244747101244884 -1.594030162623195 63.000000000000000
-5.390568280056618 -5.193935489152532 -1.716743356640494 7.000000000000000
-5.606027836468046 -5.331724269200421 -1.906355741713655 8.000000000000000
-5.750421640629135 -5.397255248890159 -2.079091804926318 9.000000000000000
-5.831309260139633 -5.401052503889620 -2.232935324374049 7.000000000000000
-5.874411662536653 -5.367571298312083 -2.374211864301433 25.000000000000000
-5.430706465910443 -4.895516456423392 -2.310750939847534 17.000000000000000
-6.295245055826268 -5.596310089298325 -2.811690429530375 10.000000000000000
-6.383972400917784 -5.596904505699946 -2.986562629243807 6.000000000000000
-5.522451628741588 -4.774630334189828 -2.701127390561894 47.000000000000000
-5.050170265482880 -4.306115731853754 -2.578283846575893 0.000000000000000
-5.009310387167270 -4.208985329953828 -2.662958493339983 1.000000000000000
-5.127857135286749 -4.245918949361400 -2.834951406204795 16.000000000000000
-5.168715071218717 -4.215379614038758 -2.967315153822215 52.000000000000000
-5.186311439084759 -4.167865953553694 -3.089977839730656 38.000000000000000
-5.222996323772992 -5.610356341537247 -0.591231868919975 5.000000000000000
-5.283749795706477 -5.604073751325367 -0.722524384417426 3.000000000000000
-5.340614199284451 -5.592564262744061 -0.854087197819564 4.000000000000000
-5.409260354627486 -5.593809897479413 -0.988700787254005 17.000000000000000
-5.474003353395817 -5.589587515807973 -1.124728718462814 19.000000000000000
-5.548750155062346 -5.594028894627026 -1.264362464949640 23.000000000000000
-5.618919770220035 -5.593451978228047 -1.405610039480072 14.000000000000000
-5.379847192914140 -5.287300693692356 -1.464770137384760 46.000000000000000
-5.376185664637563 -5.216355441451709 -1.581328431345841 62.000000000000000
-5.370888364938331 -5.144076313704959 -1.696591008507836 15.000000000000000
-5.584092189765142 -5.278997697065842 -1.884102367329723 5.000000000000000
-5.757121964737772 -5.370960963040681 -2.065895693549658 6.000000000000000
-5.863725896330272 -5.398160689135912 -2.229070610584928 26.000000000000000
-5.855864892330840 -5.318026150439989 -2.350095365299791 8.000000000000000
-5.728987464604980 -5.132769380962052 -2.421048762883030 8.000000000000000
-6.329082737494161 -5.591739354392535 -2.808053185837326 6.000000000000000
-6.440838055745533 -5.611787084017109 -2.993685832434470 9.000000000000000
-4.981670056297416 -4.280249714056382 -2.421244687244553 5.000000000000000
-5.000396214454077 -4.236959855200774 -2.537122954034820 0.000000000000000
-5.039070245172469 -4.207300521683208 -2.662601995128388 1.000000000000000
-5.149425149025507 -4.236732384633591 -2.830027444315796 70.000000000000000
-5.176176753242357 -4.194516028974063 -2.954348236392092 35.000000000000000
-5.202338060164208 -4.153880553836136 -3.081858376406824 39.000000000000000
-5.242214465677317 -5.598752236901519 -0.583116528348914 96.000000000000000
-5.314114548071544 -5.603861017697603 -0.715866093835669 22.000000000000000
-5.382221123172904 -5.603574228680423 -0.849416061150238 25.000000000000000
-5.459477410571862 -5.612979836155946 -0.986016106543047 10.000000000000000
-5.530102446165839 -5.613955963773283 -1.123861811667693 7.000000000000000
-5.596845811499287 -5.609476735070904 -1.262403945257272 5.000000000000000
-5.460120484982378 -5.403396503289970 -1.352919257646046 8.000000000000000
-5.495007837404963 -5.368558837827436 -1.482714022204878 6.000000000000000
-5.378900315421904 -5.187992364510055 -1.568649936263504 62.000000000000000
-5.379178197943358 -5.121266811234147 -1.685385464195792 16.000000000000000
-5.530703464960336 -5.197164882376324 -1.851523796247301 6.000000000000000
-5.732478272233142 -5.315729760886314 -2.041594956792960 6.000000000000000
-5.876272547759124 -5.376929679673856 -2.217627598199230 21.000000000000000
-5.839878153556040 -5.271199741514913 -2.327207003399572 8.000000000000000
-5.766706976750218 -5.134918830824840 -2.420364279430022 9.000000000000000
-6.186039304220517 -5.431700156803166 -2.726377657849952 7.000000000000000
-4.970470541038011 -4.303858569475575 -2.295325688137735 1.000000000000000
-4.999913186277828 -4.269160840435906 -2.414777391018409 0.000000000000000
-5.018682913725546 -4.225804029204865 -2.530696765366247 1.000000000000000
-5.148783175154233 -4.271796814349537 -2.704152324141862 2.000000000000000
-5.162421369798317 -4.220474120722407 -2.820390717074865 75.000000000000000
-5.180685757272520 -4.171358029570330 -2.939770615801987 41.000000000000000
-5.209777991998870 -4.133077222021280 -3.068690592238497 39.000000000000000
-5.272335525400210 -5.598701095584093 -0.576166772652107 6.000000000000000
-5.336264292805112 -5.594876872204376 -0.708048149637951 6.000000000000000
-5.404587933606414 -5.594377624885266 -0.841631901783098 32.000000000000000
-5.473763071666470 -5.595032946072905 -0.976764131005640 25.000000000000000
-5.547362864295001 -5.598672257154813 -1.115004129501675 28.000000000000000
-5.622687263717987 -5.602395905886920 -1.255326271582412 16.000000000000000
-5.625985033149880 -5.534800373814369 -1.380732135063807 20.000000000000000
-5.641724768428428 -5.479333529669218 -1.508611848005921 6.000000000000000
-5.372994657618111 -5.151528681589675 -1.553543257191820 65.000000000000000
-5.376026140712709 -5.087727663263767 -1.670662790282413 6.000000000000000
-5.235363235235884 -4.890134880021857 -1.738946994687894 10.000000000000000
-5.710360671686741 -5.263303839932385 -2.018412665389897 6.000000000000000
-5.865912463956617 -5.334928922310818 -2.197632444038336 12.000000000000000
-5.835047067460128 -5.234756764286470 -2.308924281842524 5.000000000000000
-5.801633465139029 -5.134377860625534 -2.418402183363479 10.000000000000000
-6.396835225921716 -5.582196081895802 -2.800568870010916 7.000000000000000
-4.971425978390501 -4.278020015323317 -2.280921850892121 16.000000000000000
-5.003803653057251 -4.245860329005348 -2.401408559206349 0.000000000000000
-5.051255561555265 -4.226568393564794 -2.531417165616151 1.000000000000000
-5.167412802744472 -4.260210928670274 -2.697563302180483 2.000000000000000
-5.172488743995673 -4.201861657107303 -2.809188994669019 42.000000000000000
-5.193649528085300 -4.155076187480800 -2.930046152477698 43.000000000000000
-5.222822936103345 -4.116773193161335 -3.058872186636941 39.000000000000000
-5.310718428451426 -5.607215479025788 -0.570035389673308 21.000000000000000
-5.383214946983237 -5.611687851732599 -0.703434637541418 14.000000000000000
-5.451880071647836 -5.610774002481530 -0.837641198513179 5.000000000000000
-5.518604681904964 -5.608177433378838 -0.972898885083612 3.000000000000000
-5.584141718799533 -5.602978773029530 -1.110015375273287 3.000000000000000
-5.662561804941570 -5.609123148782490 -1.251301445299770 5.000000000000000
-5.716644446963147 -5.590935794658888 -1.389557198177680 5.000000000000000
-5.390615933315971 -5.204532058335729 -1.428457179349686 5.000000000000000
-5.375401204607034 -5.123247653728036 -1.540925490761773 66.000000000000000
-5.384069036883959 -5.064946251895725 -1.659486689152664 6.000000000000000
-5.242932022873906 -4.867844713114346 -1.727817019399922 14.000000000000000
-5.336727885819140 -4.889278783766722 -1.872128320209108 13.000000000000000
-5.843877249226215 -5.282688871534512 -2.173449098217315 11.000000000000000
-5.838612676919495 -5.206050204765339 -2.294067844327566 8.000000000000000
-5.836608007232957 -5.133692186718634 -2.416363280206058 11.000000000000000
-6.462328372974726 -5.604611274921628 -2.810455560379345 7.000000000000000
-4.980862359462539 -4.259584930277727 -2.270471840353930 7.000000000000000
-5.033431654748632 -4.244381229846507 -2.400387000610755 1.000000000000000
-5.463020654682653 -4.542443718602052 -2.720895880007808 13.000000000000000
-5.231953993608732 -4.286203716794946 -2.714785278230089 2.000000000000000
-5.179601113692025 -4.180918427670873 -2.796435839457509 41.000000000000000
-5.203678159097350 -4.136485212907379 -2.918702400028448 42.000000000000000
-5.232936947110097 -4.098196920119961 -3.047375413612396 35.000000000000000
-5.329922704529240 -5.595339899754685 -0.561782315454071 12.000000000000000
-5.402636342966287 -5.599610745758088 -0.695143180683230 50.000000000000000
-5.471503929790765 -5.598505295836540 -0.829317308859776 38.000000000000000
-5.546805478971223 -5.604187765669313 -0.966004381758802 30.000000000000000
-5.620985632169848 -5.607127555921755 -1.104942122720947 14.000000000000000
-5.694070152750696 -5.607356750621213 -1.245335041993262 21.000000000000000
-5.765306079228056 -5.605401041550985 -1.387921098692263 22.000000000000000
-5.375977932846266 -5.159755843320258 -1.411678753425309 7.000000000000000
-5.377667254678099 -5.094996855949213 -1.528331749271260 67.000000000000000
-5.397708991264561 -5.047496787051495 -1.650059947494803 0.000000000000000
