# This PCD file was generated using the MATLAB® pcwrite function
# from Computer Vision Toolbox®.
# .PCD v.7 - Point Cloud Data file format
VERSION .7
FIELDS x y z intensity
SIZE 8 8 8 8
TYPE F F F F
COUNT 1 1 1 1
WIDTH 631
HEIGHT 1
VIEWPOINT 0 0 0 1 0 0 0
POINTS 631
DATA ascii
-5.057371141035093 -4.258646652470267 -2.989391548664910 20.000000000000000
-5.021909961559095 -4.167787588966964 -3.079062024585808 19.000000000000000
-5.059526912041619 -5.593525267535704 -0.623126397905125 3.000000000000000
-5.118993874010811 -5.588609509830054 -0.752862181595580 5.000000000000000
-5.182772391701230 -5.587180533918502 -0.884233010705695 14.000000000000000
-5.250097262338382 -5.589876106267933 -1.017575477574940 26.000000000000000
-5.324511681093901 -5.598541312051173 -1.154666417261254 16.000000000000000
-5.395202793002448 -5.601624055221077 -1.292691288106779 31.000000000000000
-5.464128293041806 -5.602506108005360 -1.432886355208494 24.000000000000000
-5.341730686190977 -5.408033157662803 -1.520721750296666 6.000000000000000
-5.407484744618345 -5.405569957021006 -1.659487323383875 10.000000000000000
-5.480307360990945 -5.408550727085295 -1.802851702612720 9.000000000000000
-5.568467122596171 -5.425151644616379 -1.953499305728495 31.000000000000000
-5.616527118514930 -5.400774595571121 -2.092577571995832 6.000000000000000
-5.685220141458061 -5.395440263247002 -2.241115862442788 5.000000000000000
-5.766889332284388 -5.399780520685113 -2.397267977847727 9.000000000000000
-5.166576076238269 -4.773331073322580 -2.259279998781800 25.000000000000000
-6.098564049824595 -5.557126081556007 -2.797286228450176 8.000000000000000
-6.222633915424527 -5.592723761399730 -2.987595033347604 8.000000000000000
-5.520504136626981 -4.893723225641485 -2.769459706928680 59.000000000000000
-5.555677779974110 -4.857714807400956 -2.907520465114465 46.000000000000000
-5.047527009078710 -4.349685549096185 -2.749176370588972 28.000000000000000
-5.089025760188868 -4.322318861311655 -2.881208162088197 57.000000000000000
-5.017571287671477 -4.198201485588190 -2.948568917210503 9.000000000000000
-5.046299519697692 -4.161168110266589 -3.076284303441282 17.000000000000000
-5.089432696310872 -5.594216798489909 -0.616568926572806 48.000000000000000
-5.162629258659543 -5.603689285226578 -0.748506200554968 43.000000000000000
-5.232149383474228 -5.607693414593659 -0.881355431669398 19.000000000000000
-5.302544935162866 -5.612833444516881 -1.015904490929839 7.000000000000000
-5.360920130594978 -5.603851058466254 -1.150212444684970 3.000000000000000
-5.420908718172294 -5.595249249214636 -1.285982312633678 6.000000000000000
-5.479041809850699 -5.584649795162615 -1.423408413386031 9.000000000000000
-5.381104538147991 -5.415607153977774 -1.518410057694509 21.000000000000000
-5.563601654058391 -5.528519727810925 -1.693039353991552 5.000000000000000
-5.484057916241356 -5.379880961321998 -1.789562408332162 5.000000000000000
-5.594746182960070 -5.418000259005331 -1.947529805079216 88.000000000000000
-5.648541089367239 -5.398763915593286 -2.088797679388262 6.000000000000000
-5.720254404927497 -5.395751499488243 -2.238644969323608 5.000000000000000
-5.793775679054357 -5.391876777850336 -2.391579434866530 9.000000000000000
-5.160659529319513 -4.738644140667521 -2.241334631544576 38.000000000000000
-6.089959799905521 -5.515098257513667 -2.774826993796983 6.000000000000000
-6.276218200500796 -5.605945921121372 -2.993840247769610 7.000000000000000
-5.535288602763308 -4.876270567844218 -2.759337136577344 59.000000000000000
-5.567748482592493 -4.837779672346557 -2.895831603601876 46.000000000000000
-5.060766161010925 -4.333623420491693 -2.739702522708007 5.000000000000000
-5.043407632282865 -4.256430516419919 -2.838431734870543 4.000000000000000
-5.027870310610567 -4.179998380041520 -2.937406625329744 13.000000000000000
-5.084700486296946 -4.165933870916019 -3.081950023573754 27.000000000000000
-5.108608061007259 -5.583020283687020 -0.608664267844708 12.000000000000000
-5.176621337924942 -5.586448716321184 -0.739787985610450 32.000000000000000
-5.246328124346575 -5.590303246542988 -0.872471674830237 52.000000000000000
-5.319649336794671 -5.598167321980693 -1.007371613977451 17.000000000000000
-5.397398562696500 -5.609005423479966 -1.145674873065693 32.000000000000000
-5.465898565307534 -5.608567079765428 -1.283753942755584 22.000000000000000
-5.532591777421846 -5.605980122463645 -1.423878889142843 19.000000000000000
-5.473274718692196 -5.475741290365678 -1.530746606956645 6.000000000000000
-5.481269802225227 -5.414297411204087 -1.653924090834443 7.000000000000000
-5.468135827033957 -5.332193175216585 -1.769973592820336 5.000000000000000
-5.612633769522985 -5.402675812421945 -1.938612966809280 83.000000000000000
-5.683390951417181 -5.399287319334020 -2.085978843763323 6.000000000000000
-5.755339383176435 -5.395918560298675 -2.236097376028727 5.000000000000000
-5.829094207739475 -5.391676759041982 -2.389298316097145 11.000000000000000
-5.168624888796204 -4.716877531983095 -2.229510956956593 36.000000000000000
-6.219196060079224 -5.597442152446335 -2.814929078380480 10.000000000000000
-6.301759231813340 -5.593899094632881 -2.986590615287068 8.000000000000000
-5.550000892399560 -4.858782587643946 -2.749200949434596 56.000000000000000
-5.582548436856321 -4.820258620091995 -2.885595222061104 44.000000000000000
-5.071119125360747 -4.315131739360266 -2.728700219585524 4.000000000000000
-5.031153610066623 -4.219177952641973 -2.814740974912874 1.000000000000000
-5.074674263745747 -4.192005044387036 -2.947493651343494 15.000000000000000
-5.142865392173760 -4.186546990566667 -3.099380559685859 37.000000000000000
-5.157452039982556 -5.604035975196197 -0.604209602693117 27.000000000000000
-5.228550123276242 -5.609953633707412 -0.736410100447428 10.000000000000000
-5.295906559508179 -5.610456033879195 -0.869397955407520 4.000000000000000
-5.353146425885043 -5.600658348414595 -1.001894908345235 3.000000000000000
-5.409171400916599 -5.588408257702881 -1.135851178959740 9.000000000000000
-5.480608531620733 -5.590670490156031 -1.274345947388130 14.000000000000000
-5.553031613446301 -5.593534135620287 -1.415725882265554 15.000000000000000
-5.382195240922157 -5.352745058870318 -1.491908416537108 55.000000000000000
-5.378705762579666 -5.281389011401600 -1.609260211972794 40.000000000000000
-5.443549919099212 -5.276500033396239 -1.747773347961475 5.000000000000000
-5.624854906531347 -5.381931430455192 -1.927750336103907 39.000000000000000
-5.718291433455804 -5.399666869803323 -2.083083478215483 7.000000000000000
-5.793290775854448 -5.398565622647917 -2.234559286383749 5.000000000000000
-5.864462130644731 -5.391331639769277 -2.386940105712037 19.000000000000000
-5.193430149576614 -4.710478376086685 -2.224952302834461 19.000000000000000
-6.264260732925670 -5.603275726588130 -2.816528821395906 5.000000000000000
-6.355558548657431 -5.606716411835203 -2.992616014767888 7.000000000000000
-5.564640915467659 -4.841259510144690 -2.739051265919797 52.000000000000000
-5.597275898767878 -4.802702196639031 -2.875345218138314 41.000000000000000
-5.005038927659333 -4.232067640122037 -2.676861748773477 0.000000000000000
-5.032802580959078 -4.193805650534280 -2.798976303336341 2.000000000000000
-5.155503508931670 -4.231608057366389 -2.977027513850872 67.000000000000000
-5.176654170257190 -5.592632302761475 -0.596197557582832 56.000000000000000
-5.245248147429064 -5.595447064892042 -0.727983527205799 73.000000000000000
-5.318269648490259 -5.601549601938278 -0.861762149883842 26.000000000000000
-5.394944028522058 -5.611589760488554 -0.997869374765152 27.000000000000000
-5.462277843470233 -5.610337360169457 -1.134627456842549 17.000000000000000
-5.536834869812052 -5.614914023572998 -1.274497599965031 15.000000000000000
-5.590129006076452 -5.597740057763160 -1.411757748743169 8.000000000000000
-5.374125838893997 -5.313097344950200 -1.476403762801701 64.000000000000000
-5.376129732183782 -5.247480163830210 -1.594860819299914 64.000000000000000
-5.393375867702481 -5.196640663886465 -1.717637493805412 7.000000000000000
-5.606027836468046 -5.331724269200421 -1.906355741713655 8.000000000000000
-5.750421640629135 -5.397255248890159 -2.079091804926318 9.000000000000000
-5.828484013405069 -5.398435714885797 -2.231853475864178 7.000000000000000
-5.871581984471849 -5.364985763004612 -2.373068216967955 25.000000000000000
-5.422207707747828 -4.887855241311618 -2.307134741193625 16.000000000000000
-6.295245055826268 -5.596310089298325 -2.811690429530375 10.000000000000000
-6.386809721984857 -5.599392018813589 -2.987889990412359 6.000000000000000
-5.528127324146255 -4.779537456835451 -2.703903472155483 49.000000000000000
-5.617605126773092 -4.789948960151928 -2.867978660797903 1.000000000000000
-5.014983445363383 -4.213752017756721 -2.665974301373210 1.000000000000000
-5.127857135286749 -4.245918949361400 -2.834951406204795 15.000000000000000
-5.171547243860480 -4.217689411087546 -2.968941079933898 53.000000000000000
-5.186311439084759 -4.167865953553694 -3.089977839730656 39.000000000000000
-5.225713803650085 -5.613275361486017 -0.591539481755001 5.000000000000000
-5.283749795706477 -5.604073751325367 -0.722524384417426 3.000000000000000
-5.340614199284451 -5.592564262744061 -0.854087197819564 4.000000000000000
-5.409260354627486 -5.593809897479413 -0.988700787254005 18.000000000000000
-5.476773598007859 -5.592416254429334 -1.125297913158393 19.000000000000000
-5.551531483460874 -5.596832919135610 -1.264996230596232 23.000000000000000
-5.618919770220035 -5.593451978228047 -1.405610039480072 14.000000000000000
-5.379847192914140 -5.287300693692356 -1.464770137384760 46.000000000000000
-5.376185664637563 -5.216355441451709 -1.581328431345841 62.000000000000000
-5.370888364938331 -5.144076313704959 -1.696591008507836 15.000000000000000
-5.586915289962192 -5.281666553333318 -1.885054896332418 5.000000000000000
-5.757121964737772 -5.370960963040681 -2.065895693549658 6.000000000000000
-5.863725896330272 -5.398160689135912 -2.229070610584928 25.000000000000000
-5.858703411425522 -5.320603962437294 -2.351234529315932 8.000000000000000
-5.723303945294855 -5.127677347846017 -2.418646928792868 8.000000000000000
-6.334771800628986 -5.596765636958281 -2.810577278588641 6.000000000000000
-6.440838055745533 -5.611787084017109 -2.993685832434470 9.000000000000000
-4.981670056297416 -4.280249714056382 -2.421244687244553 6.000000000000000
-5.003242199778183 -4.239371329221947 -2.538566962545937 0.000000000000000
-5.030534270731183 -4.200173530398595 -2.658091658603607 1.000000000000000
-5.149425149025507 -4.236732384633591 -2.830027444315796 71.000000000000000
-5.176176753242357 -4.194516028974063 -2.954348236392092 34.000000000000000
-5.196664845267627 -4.149350694998800 -3.078497571198092 40.000000000000000
-5.242214465677317 -5.598752236901519 -0.583116528348914 97.000000000000000
-5.311373901063772 -5.600970939813283 -0.715496900388616 22.000000000000000
-5.390484512819537 -5.612177464446054 -0.850720179974931 24.000000000000000
-5.462244505052639 -5.615824732170218 -0.986515861285340 10.000000000000000
-5.530102446165839 -5.613955963773283 -1.123861811667693 7.000000000000000
-5.591265706004273 -5.603884036431753 -1.261145317196199 4.000000000000000
-5.465720608556717 -5.408938448421551 -1.354306867141068 7.000000000000000
-5.480961293853315 -5.354835527914789 -1.478923853436461 6.000000000000000
-5.376082662035094 -5.185274715288205 -1.567828223358181 62.000000000000000
-5.376352999309985 -5.118577070261860 -1.684500282754513 17.000000000000000
-5.536367267791838 -5.202487119839073 -1.853419877963888 6.000000000000000
-5.726802551171525 -5.310466662113159 -2.039573575647621 6.000000000000000
-5.879115446911401 -5.379531000273602 -2.218700470767299 22.000000000000000
-5.842725485664062 -5.273769804772598 -2.328341672830776 8.000000000000000
-5.763856404838824 -5.132380561506587 -2.419167856157936 9.000000000000000
-6.183185965058054 -5.429194760051872 -2.725120103579725 7.000000000000000
-4.976180444014505 -4.308802691898868 -2.297962478129852 1.000000000000000
-5.005624109391794 -4.274037094965245 -2.417535560511292 0.000000000000000
-5.015828145287703 -4.223400272646728 -2.529257233645333 1.000000000000000
-5.140220897146770 -4.264692939381106 -2.699655396773555 2.000000000000000
-5.162421369798317 -4.220474120722407 -2.820390717074865 74.000000000000000
-5.186385081537946 -4.175946982298131 -2.943004686886478 41.000000000000000
-5.212623310399744 -4.135334500678855 -3.070366556516071 39.000000000000000
-5.272335525400210 -5.598701095584093 -0.576166772652107 6.000000000000000
-5.336264292805112 -5.594876872204376 -0.708048149637951 7.000000000000000
-5.404587933606414 -5.594377624885266 -0.841631901783098 33.000000000000000
-5.476538813589221 -5.597870183875173 -0.977259447502094 25.000000000000000
-5.547362864295001 -5.598672257154813 -1.115004129501675 28.000000000000000
-5.622687263717987 -5.602395905886920 -1.255326271582412 17.000000000000000
-5.628793812497435 -5.537563629118320 -1.381421467133234 20.000000000000000
-5.647360857108176 -5.484807389339220 -1.510118952749184 6.000000000000000
-5.375821061961940 -5.154238586209134 -1.554360481419696 65.000000000000000
-5.373192178593198 -5.085045677147129 -1.669782103518954 6.000000000000000
-5.235363235235884 -4.890134880021857 -1.738946994687894 9.000000000000000
-5.713207312101341 -5.265927620510618 -2.019418853159284 6.000000000000000
-5.865912463956617 -5.334928922310818 -2.197632444038336 12.000000000000000
-5.832190950442281 -5.232194475121376 -2.307794118219497 5.000000000000000
-5.798774109069469 -5.131847363897774 -2.417210265086810 10.000000000000000
-6.396835225921716 -5.582196081895802 -2.800568870010916 7.000000000000000
-4.968562253748571 -4.275555718079466 -2.279607955816723 16.000000000000000
-5.003803653057251 -4.245860329005348 -2.401408559206349 0.000000000000000
-5.054119085116238 -4.228964407393345 -2.532852209360831 1.000000000000000
-5.170275635322169 -4.262571156331588 -2.699057797084740 2.000000000000000
-5.169627854203640 -4.199537618580141 -2.807635239694092 43.000000000000000
-5.193649528085300 -4.155076187480800 -2.930046152477698 43.000000000000000
-5.219968934498917 -4.114523590323541 -3.057200671780855 41.000000000000000
-5.313461568135544 -5.610111768012890 -0.570329829440701 21.000000000000000
-5.383214946983237 -5.611687851732599 -0.703434637541418 13.000000000000000
-5.449108399013546 -5.607921550014584 -0.837215351437169 5.000000000000000
-5.518604681904964 -5.608177433378838 -0.972898885083612 3.000000000000000
-5.584141718799533 -5.602978773029530 -1.110015375273287 3.000000000000000
-5.665369222792307 -5.611904072505236 -1.251921822813552 5.000000000000000
-5.716644446963147 -5.590935794658888 -1.389557198177680 5.000000000000000
-5.387789181384499 -5.201802885782851 -1.427708119475879 5.000000000000000
-5.378236331824655 -5.125949788566500 -1.541738215176731 66.000000000000000
-5.381226339398804 -5.062272045849317 -1.658610508218582 6.000000000000000
-5.242932022873906 -4.867844713114346 -1.727817019399922 14.000000000000000
-5.339583277946384 -4.891894770274891 -1.873129994002692 13.000000000000000
-5.846737688408410 -5.285274622328215 -2.174512949954083 12.000000000000000
-5.838612676919495 -5.206050204765339 -2.294067844327566 9.000000000000000
-5.839476119275824 -5.136214885581887 -2.417550682309353 11.000000000000000
-6.462328372974726 -5.604611274921628 -2.810455560379345 7.000000000000000
-4.980862359462539 -4.259584930277727 -2.270471840353930 7.000000000000000
-5.024812764928857 -4.237113453768004 -2.396276748897381 1.000000000000000
-5.474509657111008 -4.551996702237387 -2.726618058514659 13.000000000000000
-5.229082449155599 -4.283851244941601 -2.713295275333146 2.000000000000000
-5.179601113692025 -4.180918427670873 -2.796435839457509 41.000000000000000
-5.203678159097350 -4.136485212907379 -2.918702400028448 42.000000000000000
-5.232936947110097 -4.098196920119961 -3.047375413612396 35.000000000000000
-5.329922704529240 -5.595339899754685 -0.561782315454071 12.000000000000000
-5.402636342966287 -5.599610745758088 -0.695143180683230 52.000000000000000
-5.471503929790765 -5.598505295836540 -0.829317308859776 38.000000000000000
-5.544012525557845 -5.601365918858805 -0.965517974718641 30.000000000000000
-5.620985632169848 -5.607127555921755 -1.104942122720947 14.000000000000000
-5.696886211184302 -5.610129924088386 -1.245950934694545 21.000000000000000
-5.770958340090045 -5.610896532768192 -1.389281805651764 22.000000000000000
-5.370307070047905 -5.154313062894814 -1.410189640816211 7.000000000000000
-5.374823432756005 -5.092302515993661 -1.527523535760276 67.000000000000000
-5.400560395908651 -5.050163187889874 -1.650931611492423 0.000000000000000
-5.261829016576059 -4.856106063843304 -1.720431718209851 15.000000000000000
-5.321526752036145 -4.845974756654417 -1.852702265673521 18.000000000000000
-5.428463652134297 -4.877439883602812 -2.004242140884512 21.000000000000000
-5.666743499756146 -5.022023829898897 -2.210845711464071 9.000000000000000
-5.868753079580616 -5.130346635449158 -2.413064584931072 24.000000000000000
-6.516519122178485 -5.616791886336080 -2.815196518161978 10.000000000000000
-5.001739594832201 -4.250932189939587 -2.265240062779930 6.000000000000000
-5.063097464017822 -4.242780154214175 -2.399300863348037 2.000000000000000
-5.355685102017968 -4.425261895834268 -2.650997970821568 6.000000000000000
-5.265057166925600 -4.286095103127963 -2.715493656031603 18.000000000000000
-5.189488994890009 -4.162285082664743 -2.785234435831573 49.000000000000000
-5.216497012139255 -4.120151177804471 -2.908960156890887 41.000000000000000
-5.242965354442329 -4.079605970235298 -3.035876384133243 36.000000000000000
-5.376691491123760 -5.612211786407030 -0.556355528229350 4.000000000000000
-5.435894735928395 -5.601767860217174 -0.688579160404864 3.000000000000000
-5.505033930925710 -5.600357996642625 -0.823047828985427 3.000000000000000
-5.569416376815997 -5.594458995115187 -0.958088604268177 4.000000000000000
-5.646639955440126 -5.599957384982420 -1.097596692782919 5.000000000000000
-5.728432632873502 -5.608227837700727 -1.239912936890556 5.000000000000000
-5.808430990964027 -5.614164369417243 -1.384811848726939 4.000000000000000
-5.361095809083719 -5.115103750182024 -1.394978620158305 12.000000000000000
-5.374088091784471 -5.061403769781068 -1.514154899931423 67.000000000000000
-5.339775913884865 -4.963551253420295 -1.618942909482872 4.000000000000000
-5.272090800490669 -4.836415826756675 -1.710227044014683 15.000000000000000
-5.308954162269204 -4.805396702265625 -1.834347905054858 22.000000000000000
-5.413266194040684 -4.834320856883469 -1.984053165910069 27.000000000000000
-5.620489408104952 -4.950690299076362 -2.177329643396068 4.000000000000000
-5.848987734417337 -5.081744986319294 -2.388487884971218 16.000000000000000
-6.544860144784141 -5.606460198474408 -2.808648381007924 6.000000000000000
-5.034161966319934 -4.251968005157067 -2.265172262760262 9.000000000000000
-5.089910154149270 -4.238649904497519 -2.396789020709023 3.000000000000000
-5.380472670936665 -4.417846008614436 -2.646857472829458 6.000000000000000
-5.483101378428547 -4.435407928209095 -2.810910846016794 33.000000000000000
-5.199291512112174 -4.143637871723352 -2.774031175040806 48.000000000000000
-5.226363344824901 -4.101523983189053 -2.897607841512664 38.000000000000000
-5.255788054173684 -4.063227057813367 -3.026033345199374 36.000000000000000
-5.395906800779878 -5.600134217769604 -0.547998668122000 76.000000000000000
-5.469200488710582 -5.603784701576362 -0.681940637201401 43.000000000000000
-5.541408322078214 -5.604898877610183 -0.817115891270285 31.000000000000000
-5.617296241119547 -5.609907446747931 -0.954430394751937 13.000000000000000
-5.694865602986548 -5.614950449147486 -1.094541555875838 17.000000000000000
-5.765674404127681 -5.611712793154584 -1.235021535331301 23.000000000000000
-5.840279708896808 -5.611807744570575 -1.378913615795396 25.000000000000000
-5.363086566656457 -5.086811251697459 -1.382770323717268 18.000000000000000
-5.376056656131371 -5.033230685674747 -1.501619024535748 66.000000000000000
-5.378876246950333 -4.970091219965946 -1.617369341001281 17.000000000000000
-5.288016615430815 -4.821955103438772 -1.701871104211007 16.000000000000000
-5.293273939591638 -4.762337076121843 -1.815075914069513 28.000000000000000
-5.397824164639362 -4.791327654048707 -1.963943379831375 32.000000000000000
-5.663417854566509 -4.958113033587088 -2.178464906935877 5.000000000000000
-5.745006831799856 -4.960821477044279 -2.329967118967393 4.000000000000000
-5.284044252729855 -4.498523118482920 -2.252505735323952 0.000000000000000
-5.104319888781499 -4.284494893787473 -2.281875977808324 2.000000000000000
-5.122540205842707 -4.239211109946011 -2.396934501573885 2.000000000000000
-5.413954206943299 -4.417431039043233 -2.646920259550405 6.000000000000000
-5.737071824258186 -4.611527548291038 -2.923391960489682 71.000000000000000
-5.209008680857202 -4.124977082838118 -2.762826203150433 46.000000000000000
-5.239037109361682 -4.085138708905696 -2.887848315914721 39.000000000000000
-5.268542318538405 -4.046818494837471 -3.016179356008417 35.000000000000000
-5.426192633494432 -5.599456448272098 -0.540718954832152 4.000000000000000
-5.491385907619919 -5.594284701048656 -0.673857178641228 6.000000000000000
-5.563817325943555 -5.595174951387268 -0.809059964958589 11.000000000000000
-5.639940348995957 -5.599948664211643 -0.946395170085723 7.000000000000000
-5.712086163833757 -5.599201425897553 -1.085448777771555 6.000000000000000
-5.791611398197794 -5.604038984902478 -1.227635315539017 7.000000000000000
-5.860748373554706 -5.598424758365313 -1.370280528504344 7.000000000000000
-5.382105683243715 -5.074737886772246 -1.374972652438607 18.000000000000000
-5.366406624565911 -4.994406221168279 -1.485929486136774 20.000000000000000
-5.372023694355092 -4.934173242020123 -1.601973734185454 42.000000000000000
-5.301005915134500 -4.804834363072659 -1.692574084388986 17.000000000000000
-5.280241097110313 -4.721989572447196 -1.796867394686439 34.000000000000000
-5.382138343431386 -4.748461245940542 -1.943913230565200 34.000000000000000
-5.694847767044916 -4.955252723702312 -2.175066747119347 5.000000000000000
-5.776676202979747 -4.957599853972766 -2.326760781390450 4.000000000000000
-5.285271588999718 -4.471829906361754 -2.238038766214968 16.000000000000000
-6.727183017601766 -5.611682116053674 -2.987903692566709 8.000000000000000
-5.161038868213619 -4.244416325863932 -2.399709951958364 1.000000000000000
-5.621898769876712 -4.558290756227247 -2.731654371063798 20.000000000000000
-5.754097618450388 -4.595973408980402 -2.914410578708605 51.000000000000000
-5.221544602680220 -4.108588091752869 -2.753150895706153 38.000000000000000
-5.248741089385411 -4.066476347575403 -2.876487978630723 39.000000000000000
-5.278331079191958 -4.028169644946764 -3.004665427292317 36.000000000000000
-5.464864036364437 -5.607227956352827 -0.534190705222279 34.000000000000000
-5.541551764091150 -5.613069035772296 -0.669115868555313 27.000000000000000
-5.614346551206275 -5.613509418746880 -0.804999881116925 8.000000000000000
-5.690832423727843 -5.617817368407063 -0.943004952411084 12.000000000000000
-5.763318547184452 -5.616604415544471 -1.082734576415677 15.000000000000000
-5.840344583956345 -5.618203337633518 -1.224982611164484 21.000000000000000
-5.912641215680279 -5.614856013388359 -1.368900947313355 13.000000000000000
-5.412567883408804 -5.073362276765760 -1.370051136338227 17.000000000000000
-5.373818463945280 -4.971654738180754 -1.475041789538739 48.000000000000000
-5.370752016196720 -4.903605051366299 -1.588337583995846 64.000000000000000
-5.313925453383613 -4.787683739641526 -1.683266076725207 16.000000000000000
-5.281477150221285 -4.694637958162173 -1.783624835404954 43.000000000000000
-5.372017100257874 -4.710815373814528 -1.926045375470078 38.000000000000000
-5.729215990072484 -4.954779527099189 -2.172704300390758 4.000000000000000
-5.796729048164178 -4.944316267463913 -2.318828365675510 4.000000000000000
-5.295103263135462 -4.452521967229105 -2.227274918835669 33.000000000000000
-6.761669076109929 -5.605454438540695 -2.983770742302960 7.000000000000000
-5.187959712303598 -4.239917919443019 -2.397003558591591 1.000000000000000
-5.667657501185824 -4.566516556071556 -2.736925463430898 26.000000000000000
-5.768152381037592 -4.578056924049354 -2.903940238588617 38.000000000000000
-5.231099679843585 -4.089893145682862 -2.741938401284150 8.000000000000000
-5.261269602452237 -4.050040788126198 -2.866711667542833 45.000000000000000
-5.290939748906276 -4.011710248045522 -2.994794393471799 37.000000000000000
-5.484058531813538 -5.594877132423021 -0.525695627462410 21.000000000000000
-5.552543816665203 -5.592019463080341 -0.659575233421985 28.000000000000000
-5.625505190426310 -5.592324509492921 -0.795224454485277 11.000000000000000
-5.707844848721697 -5.602054009447505 -0.933917586382395 10.000000000000000
-5.786221649649522 -5.606180022706882 -1.074601588557104 11.000000000000000
-5.860618428108346 -5.604803903620571 -1.216274986208494 13.000000000000000
-5.935989839886551 -5.603961919254266 -1.360812782241437 8.000000000000000
-5.402764103349980 -5.034311720138944 -1.354957397125297 19.000000000000000
-5.375351774297642 -4.943594570502781 -1.462590176724366 63.000000000000000
-5.372218615366351 -4.875712809438485 -1.575584890949618 64.000000000000000
-5.326775160022307 -4.770503451102934 -1.673947196773036 16.000000000000000
-5.291296904627114 -4.675026568661600 -1.773331229463821 44.000000000000000
-5.355863221100444 -4.668189560699963 -1.906166672207719 37.000000000000000
-5.568204111510640 -4.786182013146949 -2.096678494568166 8.000000000000000
-5.501376424600610 -4.663625809309933 -2.185577211078772 11.000000000000000
-5.301925648779730 -4.430758170672938 -2.215288344172524 35.000000000000000
-6.816644946873217 -5.615954764551633 -2.988541408576706 11.000000000000000
-5.223672626695979 -4.242438291143788 -2.398269716888429 1.000000000000000
-5.745696278953031 -4.600288436951113 -2.757520728277335 47.000000000000000
-5.785056763325402 -4.562412789173970 -2.894920341958446 37.000000000000000
-5.243490598308987 -4.073454794094399 -2.732246765194278 36.000000000000000
-5.270811183922836 -4.031344312949440 -2.855343848625618 42.000000000000000
-5.300565804397015 -3.993026691144179 -2.983272699078515 38.000000000000000
-5.534037124965351 -5.613729863004021 -0.520067423246324 13.000000000000000
-5.605700692785399 -5.613264290430519 -0.654968509687947 5.000000000000000
-5.687532331474179 -5.621489267670505 -0.792546775844310 12.000000000000000
-5.761771077226804 -5.622317719633137 -0.930781130627342 10.000000000000000
-5.831948798072134 -5.617683101372254 -1.070623084573470 12.000000000000000
-5.912391185305625 -5.621326182517405 -1.214012529451261 10.000000000000000
-5.988088410295900 -5.619991639219034 -1.359215643519477 16.000000000000000
-5.424509200439892 -5.024773456365218 -1.347815880063195 6.000000000000000
-5.425967994856162 -4.960567658265846 -1.463439724267283 37.000000000000000
-5.370643358413257 -4.845235151167686 -1.562013523187503 66.000000000000000
-5.330825448098303 -4.745522663154763 -1.661896114500552 20.000000000000000
-5.274787308913894 -4.632355473161651 -1.754308301294330 28.000000000000000
-5.348230659560984 -4.633284788063516 -1.889464708543428 31.000000000000000
-5.458748302017057 -4.663494094581642 -2.040878684544490 27.000000000000000
-5.359351644561877 -4.515365122578241 -2.114527786465785 20.000000000000000
-5.308644442623947 -4.408997282029409 -2.203309589879540 22.000000000000000
-6.854161900107457 -5.611798983943647 -2.985511817247485 12.000000000000000
-5.256520649629621 -4.242435969275515 -2.398114197992812 2.000000000000000
-5.762454016934552 -4.584682229785685 -2.748529162043257 43.000000000000000
-5.798972753099406 -4.544422476506748 -2.884420802142252 38.000000000000000
-5.255813207709935 -4.056988162657402 -2.722544870836753 51.000000000000000
-5.283194290317364 -4.014859422481265 -2.845551248610962 40.000000000000000
-5.315951178013189 -3.978704719277298 -2.975020643589008 40.000000000000000
-5.553245932766036 -5.601167785857784 -0.511463630072071 39.000000000000000
-5.627940477768369 -5.603315985712070 -0.646652876711994 14.000000000000000
-5.701501011417472 -5.602919405177303 -0.783073659302337 24.000000000000000
-5.778778289259424 -5.606354070549540 -0.921591839816578 17.000000000000000
-5.852006617879072 -5.604290173912665 -1.061854128816897 19.000000000000000
-5.929798912713239 -5.604989529150170 -1.204608331741822 12.000000000000000
-6.008585135384417 -5.606160691548070 -1.350352165688149 10.000000000000000
-5.495455997112331 -5.060483072917139 -1.352752177052843 17.000000000000000
-5.395425649481832 -4.903409552704082 -1.442421859014861 0.000000000000000
-5.366000998622842 -4.812196528561471 -1.547637507066685 65.000000000000000
-5.349346446194436 -4.733472387662317 -1.654374731983459 24.000000000000000
-5.252188923993661 -4.584709920548193 -1.733436601409259 20.000000000000000
-5.337479111755802 -4.595940162894891 -1.871789184352812 25.000000000000000
-5.436521025068780 -4.616182833825893 -2.018127644297122 33.000000000000000
-5.844898377288403 -4.894236586445929 -2.290242606158895 9.000000000000000
-5.365237304000382 -4.428491366365346 -2.211943238374413 7.000000000000000
-6.891713836649820 -5.607489952560281 -2.982401855160520 8.000000000000000
-5.286477500093445 -4.239934514536621 -2.396550636528857 2.000000000000000
-5.776214199040945 -4.566702537799178 -2.738122250385528 43.000000000000000
-5.809874730463521 -4.524110003539678 -2.872455446511510 39.000000000000000
-5.268067443395684 -4.040493465091386 -2.712832831264811 47.000000000000000
-5.298444288173229 -4.000562642204702 -2.837320332800054 32.000000000000000
-5.328353803594113 -3.962159016504922 -2.965118154754188 39.000000000000000
-5.360895677479687 -3.922347965931566 -3.094441463225972 35.000000000000000
-5.589327282863061 -5.605503490447162 -0.504356167432632 3.000000000000000
-5.669992168272682 -5.612923891351370 -0.640538993054632 3.000000000000000
-5.755264122718333 -5.623270743960322 -0.778984606953885 5.000000000000000
-5.832916485453906 -5.626212310073605 -0.918235435874864 5.000000000000000
-5.900750899768400 -5.618184254775358 -1.058206264523444 4.000000000000000
-5.981757473353142 -5.621126104123463 -1.202137617548664 10.000000000000000
-6.063771729881520 -5.624479656979100 -1.349185308294590 11.000000000000000
-5.552150607568685 -5.082552338839688 -1.353953231773496 23.000000000000000
-5.376207742815608 -4.856985691481555 -1.424617948375266 2.000000000000000
-5.367026573468621 -4.784430730119913 -1.534976334790182 66.000000000000000
-5.373685132862109 -4.726509831727689 -1.648620302992239 15.000000000000000
-5.305572104855377 -4.603391016992363 -1.737639716642808 29.000000000000000
-5.344149342896469 -4.573781623348592 -1.860313270053717 44.000000000000000
-5.384594719803731 -4.544202616038311 -1.984631524452931 26.000000000000000
-5.838245235020584 -4.858661981190519 -2.271889154050716 6.000000000000000
-5.699160477063382 -4.675060294896253 -2.333924826502181 9.000000000000000
-5.531050478928996 -4.472403745555365 -2.378042332735409 0.000000000000000
-5.316467383416689 -4.237309085257422 -2.394921768463728 1.000000000000000
-5.789900765342898 -4.548690702755903 -2.727703432953029 40.000000000000000
-5.820685924610845 -4.503781085637999 -2.860487248649535 39.000000000000000
-5.289092951225554 -4.030707473688257 -2.707636056572186 18.000000000000000
-5.307754834326712 -3.981805051752756 -2.825935446629601 47.000000000000000
-5.343626904120296 -3.947756457615457 -2.956831828311714 37.000000000000000
-5.376241870858210 -3.907876480362254 -3.086115480707505 35.000000000000000
-5.703610712809900 -5.613950807936658 -0.633376004271932 23.000000000000000
-5.777769573840975 -5.612848669451564 -0.770566392618637 26.000000000000000
-5.849916331965662 -5.610047741188668 -0.908944030502060 27.000000000000000
-5.926571166943415 -5.610035693192451 -1.050351238520556 12.000000000000000
-6.004932459750040 -5.609998253879033 -1.193784631043029 15.000000000000000
-6.081380345307797 -5.607742852293119 -1.339564555465500 8.000000000000000
-5.594464890674220 -5.091100079368787 -1.351487539293140 22.000000000000000
-5.371337547789775 -4.823824255158786 -1.410740409517467 7.000000000000000
-5.367914261934436 -4.756700176298678 -1.522341587594913 67.000000000000000
-5.392150810234824 -4.714321587278801 -1.641031873974730 1.000000000000000
-5.344416554582726 -4.609135674776194 -1.736923723888726 36.000000000000000
-5.371340861621037 -4.569171549996681 -1.855972169775479 41.000000000000000
-5.367635434141068 -4.502248685382435 -1.964286797065373 27.000000000000000
-5.875710340693114 -4.859817583586953 -2.270712893901623 7.000000000000000
-5.753961681818209 -4.690848883034729 -2.340623361564091 22.000000000000000
-5.535077253262658 -4.447824706226455 -2.364324678020316 9.000000000000000
-5.358324778070104 -4.243933135328650 -2.398525195944272 1.000000000000000
-5.797597722299416 -4.526028556385415 -2.714502930035696 49.000000000000000
-5.837320548966724 -4.487983120141037 -2.851405324035839 39.000000000000000
-5.336695250613864 -4.040983714714243 -2.715936379867852 4.000000000000000
-5.325836618835408 -3.969636927907480 -2.819238012312034 44.000000000000000
-5.355900209715560 -3.931146344658751 -2.946904369070187 37.000000000000000
-5.391535680902690 -3.893360766859607 -3.077770124722043 35.000000000000000
-5.731571029579317 -5.609256615336462 -0.625515592284657 3.000000000000000
-5.811707634527541 -5.613412842412430 -0.763614190159854 3.000000000000000
-5.886998927202501 -5.613038110221549 -0.902719670948359 3.000000000000000
-5.975498385603720 -5.623544292493155 -1.046495405634917 4.000000000000000
-6.054189185996605 -5.623037135324934 -1.190525377687746 10.000000000000000
-6.139684952406808 -5.628317280873549 -1.338808900108440 12.000000000000000
-5.642716192434458 -5.104741294035520 -1.350316367599281 21.000000000000000
-5.363366873798427 -4.788115476470518 -1.396145393941901 9.000000000000000
-5.371601252225835 -4.731592361718388 -1.510559402874991 68.000000000000000
-5.369367697690361 -4.666256885607587 -1.620972919119595 0.000000000000000
-5.362694890795005 -4.597006873761853 -1.729455206366275 37.000000000000000
-5.386727456509329 -4.554459176815080 -1.847520748466286 30.000000000000000
-5.454013087660647 -4.546774437995264 -1.981657752897614 35.000000000000000
-5.877685378351146 -4.831588489756898 -2.255806565015232 7.000000000000000
-5.823752201061021 -4.718392741157206 -2.353171528136424 10.000000000000000
-5.538982051275031 -4.423264442257119 -2.350624068096994 8.000000000000000
-5.388412659677831 -4.241026873825072 -2.396746975489326 1.000000000000000
-5.847966998331042 -4.467606163526492 -2.839422679709928 31.000000000000000
-5.402210244149899 -4.064417317278561 -2.733111843486838 2.000000000000000
-5.340922527269716 -3.955216734777607 -2.810954133143770 44.000000000000000
-5.371060548735407 -3.916663864338662 -2.938584141317349 39.000000000000000
-5.400874361738531 -3.874566469813742 -3.066054598292484 39.000000000000000
-5.770973100696583 -5.615576764689245 -0.618823941778870 28.000000000000000
-5.845686700131667 -5.613833311033652 -0.756586121887453 32.000000000000000
-5.924138774772126 -5.615867974922600 -0.896409875826980 15.000000000000000
-5.998468659997595 -5.612425645123458 -1.038003907982625 18.000000000000000
-6.083204420256946 -5.617045499154242 -1.183182083112076 12.000000000000000
-6.154369584000211 -5.608705924917487 -1.328449047321185 17.000000000000000
-5.688166681960897 -5.115524705471950 -1.348328886413128 23.000000000000000
-5.352271040981068 -4.749884208633268 -1.380847098143651 16.000000000000000
-5.372222407721821 -4.703925753521903 -1.497973600343125 69.000000000000000
-5.375833919873681 -4.643859445697687 -1.609855619159656 4.000000000000000
-5.369104267802201 -4.574735634682039 -1.718171479869953 34.000000000000000
-5.313162393285316 -4.464995326129364 -1.808785813804824 17.000000000000000
-5.490290061696241 -4.549065066150220 -1.980586292583886 22.000000000000000
-5.873576311490897 -4.798537583179649 -2.238660844323097 6.000000000000000
-5.554791628538312 -4.472642266915579 -2.229471936517917 7.000000000000000
-5.536814701943510 -4.394001200818246 -2.334431923091783 7.000000000000000
-5.424482861088957 -4.242650452454951 -2.397533488407609 5.000000000000000
-5.839442261158425 -4.501343904809443 -2.700503865805759 0.000000000000000
-5.617639216722830 -4.264358642806478 -2.711182582612131 8.000000000000000
-5.360975120936975 -4.007560580734635 -2.696304868600108 4.000000000000000
-5.347049456142219 -3.934199689153203 -2.797990514536467 42.000000000000000
-5.383204163354068 -3.899990104747830 -2.928632124135163 41.000000000000000
-5.419005959552005 -3.862087951582601 -3.059350758670919 49.000000000000000
-5.796116009321827 -5.607855003096240 -0.610528845126636 5.000000000000000
-5.868182901325420 -5.603107140734599 -0.748013239214990 6.000000000000000
-5.952653546148022 -5.610354658959307 -0.888718380717408 3.000000000000000
-6.041754805520837 -5.620148439923035 -1.032950329491491 5.000000000000000
-6.129730669070325 -5.627008917359095 -1.179147390541101 4.000000000000000
-6.209966131657927 -5.626196538302383 -1.326834260959429 9.000000000000000
-5.733727593577076 -5.126099977123167 -1.346228400826058 23.000000000000000
-5.367484849543850 -4.735144164652555 -1.372392119575923 20.000000000000000
-5.369752841080371 -4.673725090537451 -1.484598330791852 68.000000000000000
-5.367394042113446 -4.608756172435183 -1.594349942680612 44.000000000000000
-5.333878295271384 -4.517295413312395 -1.693708499151972 19.000000000000000
-5.375737513151372 -4.490151838004256 -1.816501764756668 16.000000000000000
-5.464132162151804 -4.499729799984101 -1.957045590085547 6.000000000000000
-5.627965584440813 -4.569608201106703 -2.130216014569445 8.000000000000000
-5.537638048346157 -4.431232229614882 -2.207697844527482 7.000000000000000
-5.543442942619940 -4.371849016340931 -2.322025090354544 5.000000000000000
-5.460617087330191 -4.244116667731401 -2.398235754933626 13.000000000000000
-5.511122380172295 -4.156878606067545 -2.643776534653035 4.000000000000000
-5.417712000407960 -4.024009266986813 -2.708824486717407 3.000000000000000
-5.367960421518115 -3.924069598652504 -2.792780460033735 42.000000000000000
-5.398251257563921 -3.885428371116823 -2.920278365692220 42.000000000000000
-5.428197754017882 -3.843245845816562 -3.047619810916208 39.000000000000000
-5.838498031119634 -5.616630416427782 -0.603969788872302 25.000000000000000
-5.916654106053983 -5.616984727540033 -0.742664634876711 11.000000000000000
-5.998587135000006 -5.621044830405213 -0.883533473269279 22.000000000000000
-6.073471992522070 -5.616895997252682 -1.025823236282357 15.000000000000000
-6.150029267864186 -5.612729275451723 -1.169988925118974 25.000000000000000
-6.227546940920506 -5.609047473714819 -1.317004759385873 15.000000000000000
-5.785289225100109 -5.141702491370046 -1.345384730171865 23.000000000000000
-5.391508094136783 -4.728132514523917 -1.366163751517107 22.000000000000000
-5.367129834802254 -4.643577936435840 -1.471259761096515 69.000000000000000
-5.364704970996097 -4.578806920934955 -1.580649156191187 63.000000000000000
-5.322114481359264 -4.480122166238628 -1.676883664087435 21.000000000000000
-5.417667148880995 -4.497686598783129 -1.817053087574026 18.000000000000000
-5.500359691748637 -4.501874320811000 -1.955902569406084 9.000000000000000
-5.536186561063698 -4.467432047874444 -2.080969307491595 15.000000000000000
-5.583044003073600 -4.439896064833542 -2.210874621777439 2.000000000000000
-5.558942224354448 -4.356735263074445 -2.313361881282926 1.000000000000000
-5.481853183451190 -4.233869836696374 -2.392324367847865 21.000000000000000
-5.613205272943453 -4.206907853478588 -2.676549434652757 4.000000000000000
-5.390955179243756 -3.978438704505073 -2.679605144397383 5.000000000000000
-5.379895560177283 -3.907359072679487 -2.782900077030087 45.000000000000000
-5.413245678151362 -3.870823240920624 -2.911905675931889 50.000000000000000
-5.863671265984671 -5.608669586543026 -0.595550798381623 18.000000000000000
-5.933377310323179 -5.600556572851608 -0.733255595021764 8.000000000000000
-6.018432494484196 -5.607122899202431 -0.874429586974542 5.000000000000000
-6.111055963218075 -5.618887746527128 -1.019603602555462 3.000000000000000
-6.190821316827695 -5.617017992351787 -1.164663168778036 4.000000000000000
-6.280398492659217 -5.623484739008946 -1.314548653925484 8.000000000000000
-5.842900199600951 -5.162282934806728 -1.345769727147397 25.000000000000000
-5.400714908499715 -4.708115205700525 -1.356168753127874 22.000000000000000
-5.367324063346306 -4.616039402193567 -1.458765449419528 66.000000000000000
-5.329114074810756 -4.521128459514547 -1.557414726468674 25.000000000000000
-5.328047373899667 -4.458029146510683 -1.665720057615350 8.000000000000000
-5.450728308551382 -4.497633339849029 -1.814516808033217 17.000000000000000
-5.530664102383930 -4.498991195671979 -1.952561601555189 7.000000000000000
-5.554605069236484 -4.454700233299287 -2.073418519319155 23.000000000000000
-5.580582441387159 -4.410433065554809 -2.195066237985116 1.000000000000000
-5.571386638357532 -4.339240106046211 -2.303438783213315 1.000000000000000
-5.515071055123531 -4.232758074502298 -2.391579883607117 19.000000000000000
-5.682727533379027 -4.231856758157071 -2.693398626237163 5.000000000000000
-5.417852572631096 -3.972601889906452 -2.677149925862632 6.000000000000000
-5.394755373075891 -3.892781941530197 -2.774549913114772 45.000000000000000
-5.422209097306888 -3.851927969695507 -2.900316434694646 53.000000000000000
-5.911961927682742 -5.622608515977783 -0.589389210695154 7.000000000000000
-5.987809928566344 -5.619525988877536 -0.728420153271611 13.000000000000000
-6.067418349615399 -5.620169004750686 -0.869477388314402 14.000000000000000
-6.148693762408810 -5.620716767054170 -1.013297607157487 26.000000000000000
-6.222856486243111 -5.613164959730194 -1.157599363544739 17.000000000000000
-6.300906480995235 -5.608765104039632 -1.305230832251341 15.000000000000000
-5.903646593928569 -5.185190010171398 -1.346679417090183 24.000000000000000
-5.403893361779449 -4.682937972003854 -1.344694941196861 17.000000000000000
-5.370360729826285 -4.591085546565058 -1.447101632803002 36.000000000000000
-5.337969880514761 -4.501448657632941 -1.547301372523084 18.000000000000000
-5.426614797615085 -4.513067502669898 -1.683332871018056 0.000000000000000
-5.486831930628402 -4.499895746115222 -1.812895374568184 14.000000000000000
-5.563998091381450 -4.498408204871050 -1.950206363811894 6.000000000000000
-5.581998353024427 -4.449091216965873 -2.069179965578085 24.000000000000000
-5.589994252429054 -4.390470472584616 -2.183993884417434 1.000000000000000
-5.433335114212794 -4.205291194356559 -2.231719406047596 6.000000000000000
-5.554351963323150 -4.236093823075367 -2.393353168596520 18.000000000000000
-5.716407091344148 -4.229767237374086 -2.693060542146632 6.000000000000000
-5.456782313362674 -3.975413422375237 -2.680543024420817 6.000000000000000
-5.409562475383023 -3.878161937761310 -2.766181087605679 49.000000000000000
-5.449070484014937 -3.845714076401400 -2.898292273530283 16.000000000000000
-5.928482221160820 -5.606167562397788 -0.579986047848485 13.000000000000000
-6.007432964036927 -5.605615136722021 -0.719258035447260 13.000000000000000
-6.090183737399648 -5.608731428104739 -0.860679854593454 5.000000000000000
-6.171690106910018 -5.609027900735125 -1.004513430992315 5.000000000000000
-6.263762852077209 -5.617118066005649 -1.152095293580597 4.000000000000000
-6.356898091520979 -5.625420060601192 -1.303165298725611 6.000000000000000
-5.973492482932728 -5.215585414455667 -1.349441492197232 24.000000000000000
-5.436742531152660 -4.683445476736787 -1.340585363335542 8.000000000000000
-5.319515400120142 -4.520467198327493 -1.421094021073134 21.000000000000000
-5.370689289061455 -4.501833959319629 -1.544073690947785 27.000000000000000
-5.459596777791127 -4.513049938746357 -1.680352128071449 0.000000000000000
-5.519992334432660 -4.499550085628189 -1.810203760555151 6.000000000000000
-5.597376514827126 -4.497682378357111 -1.947775493910337 9.000000000000000
-5.618440546458340 -4.450531136964885 -2.068211407187131 26.000000000000000
-5.593287433103766 -4.365789165333386 -2.170580718273592 1.000000000000000
-5.421090081421461 -4.169587747912070 -2.212162819861008 26.000000000000000
-5.566556559107669 -4.218675622793501 -2.383405979665075 14.000000000000000
-5.753144772911457 -4.229751386950952 -2.694058727368068 6.000000000000000
-5.486751083513814 -3.971508656242226 -2.679428584783150 5.000000000000000
-5.424316720958562 -3.863499205666355 -2.757793683099734 54.000000000000000
-5.590151565457743 -3.919467500576419 -2.956616307053653 2.000000000000000
-5.982734900820958 -5.625212337413728 -0.574189224478484 6.000000000000000
-6.062069800141172 -5.624165163911417 -0.714196014593794 9.000000000000000
-6.145202106428985 -5.626770578333091 -0.856341012649653 16.000000000000000
-6.221180682735534 -5.621222481059198 -0.999952364461885 15.000000000000000
-6.301778840911481 -5.618252954770402 -1.145956882458484 19.000000000000000
-6.380380244269335 -5.613080362325694 -1.294331018175505 8.000000000000000
-6.043574280736596 -5.245638476677541 -1.352014380551943 21.000000000000000
-5.508470431166721 -4.717066048488862 -1.345889075353389 20.000000000000000
-5.340135886145280 -4.510886255933940 -1.414311812695362 13.000000000000000
-5.367431322794876 -4.472064066591354 -1.530499258210486 13.000000000000000
-5.528719778446177 -4.542547853532464 -1.688318870884778 0.000000000000000
-5.562236562175273 -4.506385371310535 -1.810378775737004 4.000000000000000
-5.621745956331322 -4.489583833047421 -1.942141449151341 9.000000000000000
-5.651922038039889 -4.449433285326558 -2.066053415414793 25.000000000000000
-5.560177841906457 -4.312985968982352 -2.143200969982471 2.000000000000000
-5.426793258639744 -4.147861871366724 -2.200030187075708 38.000000000000000
-5.545411505935327 -4.176168364135935 -2.359290788400251 8.000000000000000
-5.820175682148155 -4.251662248618607 -2.709044693725561 8.000000000000000
-5.519769314046390 -3.969651859234582 -2.679715439405321 5.000000000000000
-5.439017964184050 -3.848793889960588 -2.749387782377240 44.000000000000000
-6.002155520916997 -5.611296314597836 -0.564959089232466 21.000000000000000
-6.084630796777629 -5.612730521910704 -0.705257509933233 9.000000000000000
-6.159170936690589 -5.607044053215175 -0.846199951506926 15.000000000000000
-6.244191508236113 -5.609296213209599 -0.991046114438933 6.000000000000000
-6.336879208195374 -5.616593789542084 -1.139198009135576 4.000000000000000
-6.436580045366065 -5.629298404916441 -1.292029716376749 9.000000000000000
-6.066102125224895 -5.234114291013705 -1.343811219981477 7.000000000000000
-5.562482286935738 -4.735031566773454 -1.346644299429171 22.000000000000000
-5.369745839123411 -4.508795194457291 -1.409857977831692 10.000000000000000
-5.376062124852809 -4.452322224104697 -1.520367995738693 4.000000000000000
-6.328006389742581 -5.167800380887947 -1.917247598687097 7.000000000000000
-5.598531100249291 -4.508162461965751 -1.808497922604377 2.000000000000000
-5.727805344333276 -4.546234768845296 -1.964479412966536 2.000000000000000
-5.697562474155367 -4.457671309510934 -2.068217674583516 14.000000000000000
-5.529782313586055 -4.262740057482820 -2.117113782176628 15.000000000000000
-5.438460145008537 -4.130750498883752 -2.190350558044386 39.000000000000000
-5.536149187004798 -4.142895533138128 -2.340399278057112 7.000000000000000
-5.905617415785751 -4.286451168633767 -2.732267065512857 24.000000000000000
-5.558890226276280 -3.971982785201791 -2.682851506563615 5.000000000000000
-5.462745415224921 -3.840429120467288 -2.745526670623681 16.000000000000000
