# This PCD file was generated using the MATLAB® pcwrite function
# from Computer Vision Toolbox®.
# .PCD v.7 - Point Cloud Data file format
VERSION .7
FIELDS x y z intensity
SIZE 8 8 8 8
TYPE F F F F
COUNT 1 1 1 1
WIDTH 636
HEIGHT 1
VIEWPOINT 0 0 0 1 0 0 0
POINTS 636
DATA ascii
5.346439037316570 -5.645999096531232 -1.504886647633631 81.000000000000000
5.348576442516322 -5.591324170282744 -1.632877234017131 82.000000000000000
5.348960636993147 -5.535061026340501 -1.760265757942334 83.000000000000000
5.369062210633329 -5.499873647786269 -1.894100535012676 96.000000000000000
5.426072758414302 -5.500864381946837 -2.042128661916980 93.000000000000000
5.475870660757936 -5.493887010407997 -2.189896349949178 98.000000000000000
5.524035573671699 -5.484584354502297 -2.338535746820689 71.000000000000000
2.990474833809701 -2.938004933457514 -1.336109007278279 56.000000000000000
2.946132920834819 -2.864034578704703 -1.385100265236085 80.000000000000000
2.938854532597643 -2.826740568292135 -1.450605320478919 73.000000000000000
2.982321066281755 -2.837827054599262 -1.541854294606509 33.000000000000000
2.981142235370700 -2.806403682861589 -1.611486686668524 86.000000000000000
2.944263174424739 -2.740916857844988 -1.660901302939917 120.000000000000000
2.949379890802486 -2.715578510456244 -1.733844172144130 82.000000000000000
2.975466895892581 -2.708537369919159 -1.819746704131862 82.000000000000000
2.998091556067122 -2.697132198136708 -1.904868742778166 74.000000000000000
3.089798991264660 -2.745776423721981 -2.036545610712516 57.000000000000000
3.141540204524932 -2.759078874417953 -2.146673917504474 10.000000000000000
5.344510833030368 -5.907440673875953 -0.993545489777433 56.000000000000000
5.350506171542703 -5.856116133380354 -1.127001127171480 81.000000000000000
5.346509080112885 -5.794818947226969 -1.256650319352907 76.000000000000000
5.346614863606296 -5.737146052240845 -1.387141188027201 77.000000000000000
5.344638998979000 -5.678324557097970 -1.516113516479183 83.000000000000000
5.349473774790979 -5.626373490910652 -1.645341202790913 83.000000000000000
5.349863398273423 -5.569963890958874 -1.773200460531363 83.000000000000000
5.350968155771030 -5.515173568143651 -1.900804121726912 95.000000000000000
5.394231550340512 -5.502543914988711 -2.043785811901947 94.000000000000000
5.443828993216538 -5.495864039414112 -2.191301976654471 100.000000000000000
5.491802862140023 -5.486857973990815 -2.339691196855699 91.000000000000000
2.988474098159022 -2.954610808948255 -1.343518340879184 44.000000000000000
2.944266813913929 -2.880438703635831 -1.392648485110961 77.000000000000000
2.934287175013578 -2.840426512801578 -1.456994166057194 60.000000000000000
2.964065224145229 -2.838639178711809 -1.541395783079494 39.000000000000000
2.979090873024988 -2.822671651960529 -1.619656233735304 86.000000000000000
2.936918663263030 -2.751940163084433 -1.666154285827131 119.000000000000000
2.936613526874086 -2.721606898437953 -1.735987581797487 80.000000000000000
2.967975158103278 -2.719608965924790 -1.825171370952141 77.000000000000000
2.985144532067519 -2.703393501164696 -1.906964000847389 90.000000000000000
3.036440669529146 -2.716482441551375 -2.012134986816855 46.000000000000000
3.120096250086547 -2.758784637077551 -2.143353147855191 52.000000000000000
6.804836655080734 -7.566186808778252 -1.277713298177508 31.000000000000000
5.348484758825066 -5.888820572093549 -1.137013216415607 81.000000000000000
5.349857139813515 -5.833233396845364 -1.268334625213025 76.000000000000000
5.344639196770932 -5.769631598654504 -1.397972486191069 77.000000000000000
5.345360168200142 -5.713559393444386 -1.528119016897167 80.000000000000000
5.352878754628752 -5.664324461380708 -1.658656514908464 81.000000000000000
5.353277614096018 -5.607744505288869 -1.787052419438489 82.000000000000000
5.354379524707245 -5.552780443213452 -1.915190135433563 90.000000000000000
5.357034593240000 -5.498558810559270 -2.043322630827296 102.000000000000000
5.411825992477138 -5.497713067159970 -2.192644626547435 97.000000000000000
5.405606359614563 -5.434710138488627 -2.317630167974068 57.000000000000000
2.978288192945631 -2.963176167752778 -1.347267767974356 4.000000000000000
2.934218266975076 -2.888889132264277 -1.396347644118445 65.000000000000000
2.929653987283984 -2.854116281272809 -1.463380937338094 29.000000000000000
2.967397091939358 -2.860159126948367 -1.552179199475304 30.000000000000000
2.979646284902425 -2.841525429230868 -1.629302075092738 71.000000000000000
2.926839002641182 -2.760416757083765 -1.669864898675792 109.000000000000000
2.921154159571936 -2.725089796777150 -1.736513741816242 82.000000000000000
2.949728721906898 -2.720792441700738 -1.823966270615122 77.000000000000000
2.974856752832047 -2.712045703186222 -1.910751528576839 96.000000000000000
2.991337911738910 -2.694108317705472 -1.992922946393987 72.000000000000000
3.096039519401715 -2.756035278816311 -2.138154539836325 48.000000000000000
3.125433457754282 -2.748438961181538 -2.234709148370199 1.000000000000000
6.797712018746481 -7.603136706709392 -1.289117345038032 9.000000000000000
5.348956897009144 -5.924504804127812 -1.147605742319542 20.000000000000000
5.350348264943252 -5.868801110659433 -1.279407271880750 76.000000000000000
5.350504580009408 -5.810849038673997 -1.410925295343384 75.000000000000000
5.345901953535555 -5.748851419558470 -1.540142739821636 79.000000000000000
5.348051403712578 -5.693794625165186 -1.669488828859890 80.000000000000000
5.353810856638251 -5.642771097389461 -1.800027681400629 80.000000000000000
5.352220703101580 -5.584856108928917 -1.927666928660186 86.000000000000000
5.354860505130124 -5.530508490679779 -2.056202520452795 89.000000000000000
5.379862237872678 -5.499434317471919 -2.193924449319928 97.000000000000000
5.397853436857741 -5.461073430917084 -2.329040844711522 70.000000000000000
2.973454877939748 -2.977102086127448 -1.353450870047343 1.000000000000000
2.937591393630908 -2.910639178613422 -1.406470894112711 54.000000000000000
2.933020041931469 -2.875717202139684 -1.473818172959685 21.000000000000000
2.962549322964902 -2.873912289439453 -1.558741050209775 44.000000000000000
2.974733410252355 -2.855264091347352 -1.636008590011305 46.000000000000000
2.914052059610134 -2.766323204760631 -1.672022882823319 97.000000000000000
2.911049224896718 -2.733534331976639 -1.740206443538596 79.000000000000000
2.939510902605061 -2.729331603357131 -1.827700372703901 80.000000000000000
2.959217115604463 -2.715785260299628 -1.911085681661836 101.000000000000000
2.972990057506985 -2.695572096347391 -1.991386750824143 75.000000000000000
3.029707640997496 -2.715237062393581 -2.103511184920504 41.000000000000000
3.127737691734571 -2.769212909191300 -2.248166540821908 24.000000000000000
7.262263371566052 -8.171006223674807 -1.390894681375141 48.000000000000000
6.803570325668310 -7.580676754580264 -1.473103786653209 18.000000000000000
5.350660704364381 -5.904424635860944 -1.290497480125082 69.000000000000000
5.350838035595281 -5.846344344149497 -1.422495738643180 75.000000000000000
5.348927796968938 -5.787081975441447 -1.552957704618426 79.000000000000000
5.348418175261004 -5.729008651911860 -1.682004425932585 80.000000000000000
5.346144127542041 -5.669350657538065 -1.810305523777809 79.000000000000000
5.355251724012389 -5.622593443240234 -1.942096275804642 87.000000000000000
5.355202279009736 -5.565284227198747 -2.070129469714824 88.000000000000000
5.358660990761911 -5.512057646307817 -2.199542882024832 93.000000000000000
5.392655098126322 -5.490177773980508 -2.341613760367543 92.000000000000000
5.446373787801931 -5.487609573016256 -2.494499897310968 88.000000000000000
2.932800396458575 -2.924419459665239 -1.412738000644033 35.000000000000000
2.936264320119831 -2.897367852969619 -1.484273346445812 18.000000000000000
2.960311769220728 -2.890281702024969 -1.566716921448446 56.000000000000000
2.999157493014234 -2.897411568698906 -1.658976953928631 33.000000000000000
2.895916812939417 -2.767085913759722 -1.671077903153331 94.000000000000000
2.895587811260052 -2.736915500719132 -1.740680547718497 78.000000000000000
2.926605815679707 -2.735358381997578 -1.829756519776691 79.000000000000000
2.948888963908268 -2.724365666730927 -1.914834090065711 103.000000000000000
2.957313397730909 -2.699375690073807 -1.991595428655082 72.000000000000000
2.984828119623967 -2.693118882478517 -2.083433651724889 73.000000000000000
3.098382774187443 -2.761922712158821 -2.238853080637447 34.000000000000000
7.268939255086364 -8.227180295579668 -1.405934027573898 47.000000000000000
7.043771944159530 -7.895276921449232 -1.539072166047517 47.000000000000000
5.311158586352717 -5.896102536942221 -1.291963368085679 0.000000000000000
5.350991869930080 -5.881895141563525 -1.434083523227841 75.000000000000000
5.351755189806447 -5.825383498038424 -1.565796758574156 76.000000000000000
5.353923675758859 -5.770011541054866 -1.696222889316849 78.000000000000000
5.351670860875446 -5.710152299445424 -1.825123479108961 81.000000000000000
5.352748651297326 -5.654767536058352 -1.954602258561883 86.000000000000000
5.352692475067677 -5.597324995406770 -2.083035324508076 84.000000000000000
5.358796926873210 -5.546735552148379 -2.213954880088445 91.000000000000000
5.368605088272580 -5.500143730571248 -2.346016698412772 92.000000000000000
5.411423306039931 -5.486969272401380 -2.493925822186965 90.000000000000000
2.935957779335198 -2.946245280579225 -1.422886736400960 18.000000000000000
2.944726011156835 -2.924370344479509 -1.497461454443872 17.000000000000000
2.952654594829490 -2.901427304077868 -1.571857004559807 47.000000000000000
2.972699088712765 -2.890519851282170 -1.653859461172563 11.000000000000000
2.883128303425056 -2.772890700459106 -1.673183895839537 84.000000000000000
2.880135014804678 -2.740238128827732 -1.741125295265895 79.000000000000000
2.916339155625990 -2.743833857369764 -1.833455124216040 74.000000000000000
2.935888979410566 -2.730460155082963 -1.916840953777831 100.000000000000000
2.944280372508422 -2.705542288540260 -1.993559132050515 69.000000000000000
2.971689826588799 -2.699413296022063 -2.085378486464252 74.000000000000000
3.058651685706766 -2.745094362634561 -2.221866513937123 52.000000000000000
3.114905952115242 -2.761946401643655 -2.340766751285720 0.000000000000000
7.267474276295890 -8.274522104311826 -1.419477928194899 47.000000000000000
7.289968896391941 -8.220186475743631 -1.607390367533513 45.000000000000000
6.799031283093198 -7.593311851341940 -1.668044585672117 19.000000000000000
5.350965724249526 -5.917500756760824 -1.445688283013253 21.000000000000000
5.351738247589160 -5.860858123671353 -1.577879521220434 75.000000000000000
5.351259950038503 -5.802478305231537 -1.707933975430921 78.000000000000000
5.354324589074665 -5.748190122748651 -1.839060224018031 76.000000000000000
5.355397749169907 -5.692632508958471 -1.969073402932224 87.000000000000000
5.358000121305542 -5.637804469244419 -2.099078718547119 32.000000000000000
5.358750230879835 -5.581469613368026 -2.228384373956766 90.000000000000000
5.360517425550956 -5.526500318262647 -2.357403478958872 87.000000000000000
5.384520547988293 -5.494337074354108 -2.496986700338983 94.000000000000000
2.957627861666836 -2.986939515339855 -1.442139301036264 15.000000000000000
2.976971377768518 -2.975383043495606 -1.522929138346837 32.000000000000000
2.952923316004079 -2.920446010761275 -1.581257407264240 36.000000000000000
2.978175695345353 -2.914680324878629 -1.666508965298306 10.000000000000000
2.878281049262073 -2.786349504009557 -1.679907926930676 86.000000000000000
2.872626525853641 -2.751102016049782 -1.746364950475376 80.000000000000000
2.903404132708249 -2.749781437073676 -1.835469011042598 92.000000000000000
2.922878509583611 -2.736510970269301 -1.918824882007232 102.000000000000000
2.928610151548394 -2.709235314990018 -1.993711761579048 71.000000000000000
2.961158727170266 -2.708058053145257 -2.089147331639990 70.000000000000000
2.995609515356322 -2.706847351342143 -2.187639149411686 60.000000000000000
3.119432293816247 -2.784958998798287 -2.356511306849332 2.000000000000000
7.270993882158300 -8.327904677320602 -1.434069611657057 46.000000000000000
7.296077773309051 -8.276417505085515 -1.623350364936549 45.000000000000000
6.788524401099431 -7.627302430179368 -1.679672019847181 14.000000000000000
6.810774670445466 -7.577547969892207 -1.854953140217009 13.000000000000000
5.356812875227588 -5.902196435859874 -1.591545491752890 63.000000000000000
5.351074532348083 -5.837866174445787 -1.720504541847377 77.000000000000000
5.351487301282525 -5.780583183117621 -1.851190354142346 79.000000000000000
5.357846002809387 -5.730567819165333 -1.983568168762079 85.000000000000000
5.357785763572642 -5.672755898409184 -2.113061340501532 49.000000000000000
5.358520539493986 -5.616259143999489 -2.242830991239242 90.000000000000000
5.362916890981480 -5.563878768537670 -2.373485089365690 83.000000000000000
5.365581874481592 -5.509782031480295 -2.503712665984549 87.000000000000000
2.949863860743513 -2.998131378478859 -1.447140435638447 15.000000000000000
2.974424574262972 -2.991946339215595 -1.530751304188546 30.000000000000000
2.976924525851368 -2.963224493732607 -1.603507707224304 29.000000000000000
5.430094713932889 -5.348909651203130 -3.056170960693149 25.000000000000000
2.870726886900567 -2.797237804006624 -1.685079169850006 77.000000000000000
2.862435103525192 -2.759412523256132 -1.749983944098901 80.000000000000000
2.895719223446937 -2.760700441656365 -1.840803968487199 98.000000000000000
2.912481592638815 -2.744991069781908 -1.922517880113902 104.000000000000000
2.918182584648281 -2.717744183879550 -1.997417571176432 65.000000000000000
2.950598151348804 -2.716673988242963 -2.092899660963492 66.000000000000000
2.982311557713881 -2.713210699403501 -2.189531793185148 57.000000000000000
3.100504012253803 -2.787076861848754 -2.354574576467133 29.000000000000000
3.163797702693834 -2.807126099681737 -2.481862840068888 0.000000000000000
7.274243467050997 -8.381380350848691 -1.448692305658227 46.000000000000000
7.299289286562065 -8.329780877992782 -1.638762470801072 43.000000000000000
7.358371308750102 -8.317479015602016 -1.836151003480750 38.000000000000000
6.849839405552926 -7.667284209773350 -1.880626747840885 11.000000000000000
5.327518523870599 -5.905761011198307 -1.595016381240516 0.000000000000000
5.355971246633441 -5.879086064578613 -1.734796544414758 76.000000000000000
5.356394476654950 -5.821610342354266 -1.866085537228727 78.000000000000000
5.354814696638278 -5.762892180987313 -1.996118552336507 83.000000000000000
5.354746676406635 -5.704947484900451 -2.126011812300231 50.000000000000000
5.363394229071652 -5.656679286228973 -2.259521585714322 87.000000000000000
5.362469720587558 -5.598566673576806 -2.388412380075251 85.000000000000000
5.362455802875190 -5.541570326458577 -2.517858232530974 84.000000000000000
2.936765387313744 -3.003902405366989 -1.449522472715192 8.000000000000000
2.963867343100387 -3.000503918671418 -1.534474048832536 2.000000000000000
2.963704644294962 -2.969157507344670 -1.605808979288401 3.000000000000000
2.863125551023482 -2.808113458621027 -1.690241072329016 62.000000000000000
2.849589001412294 -2.765146611298726 -1.751972243231398 85.000000000000000
2.887986832538488 -2.771606453481426 -1.846129389318209 104.000000000000000
2.904670231506473 -2.755923289038095 -1.927929892692569 104.000000000000000
2.915549488459238 -2.733559643117904 -2.006491180609122 54.000000000000000
2.945207156851444 -2.730080222320544 -2.100343015539422 58.000000000000000
2.966411779506272 -2.717156546197427 -2.189488857670415 58.000000000000000
3.053210685507389 -2.763423421730632 -2.330926747483512 44.000000000000000
3.165255586012861 -2.827860190647915 -2.496024803034441 2.000000000000000
7.272041090196725 -8.428942442379416 -1.462303554514367 45.000000000000000
7.302228923934956 -8.383236728446359 -1.654205155739667 42.000000000000000
7.368958205412363 -8.379800551675865 -1.854384448009275 37.000000000000000
7.042515244318898 -7.930873412807683 -1.949072072437579 57.000000000000000
6.808665573174761 -7.593807715891647 -2.054111361813002 6.000000000000000
5.350158178650672 -5.908803378026247 -1.745694733692849 13.000000000000000
5.358455118415881 -5.859848674820124 -1.880088362851991 76.000000000000000
5.356878660608167 -5.800950822604224 -2.010652771924630 82.000000000000000
5.354175296421853 -5.739999950152793 -2.140024174497071 53.000000000000000
5.360144710618956 -5.688797339440650 -2.272891003105212 84.000000000000000
5.359203696178616 -5.630540537348530 -2.402175056098193 84.000000000000000
5.367068619272103 -5.581618024682236 -2.535748146517516 80.000000000000000
2.926290810283919 -3.012340996371255 -1.453189531764149 0.000000000000000
2.948016629575184 -3.003668901176763 -1.535438401190925 0.000000000000000
2.953104065052921 -2.977697900506831 -1.609520299432450 0.000000000000000
2.868587611176887 -2.831919267004762 -1.703177730646363 53.000000000000000
2.836733542585621 -2.770837518754167 -1.753937927360566 91.000000000000000
2.880206984144622 -2.782499312578228 -1.851445193352001 101.000000000000000
2.894206181188491 -2.764353974963683 -1.931593560217267 106.000000000000000
2.918027908033219 -2.754297204600369 -2.019164192597983 44.000000000000000
2.950109687879722 -2.753156410965571 -2.115211243880239 85.000000000000000
2.955682622034217 -2.725804070067465 -2.193247001458927 83.000000000000000
3.019006080495664 -2.751245852397429 -2.317037881778404 43.000000000000000
3.148654962498934 -2.832505190269967 -2.495985231171157 53.000000000000000
3.185836802067591 -2.830203053832587 -2.607759679239718 1.000000000000000
6.200848400561173 -7.230366589003418 -1.258944836710905 5.000000000000000
7.302306637955578 -8.433793318784915 -1.669085983791374 42.000000000000000
7.376619262752629 -8.439287285416139 -1.872008110719714 37.000000000000000
7.007130949863708 -7.939052336503539 -1.954837039172279 48.000000000000000
7.736557369111841 -8.681506880260383 -2.351938426581984 31.000000000000000
6.812874934026970 -7.570553960138341 -2.239337372961189 12.000000000000000
5.360314121225967 -5.898154848702472 -1.894113487231700 61.000000000000000
5.356120123209412 -5.836222269103288 -2.024219071981600 82.000000000000000
5.353420213612038 -5.775105699340249 -2.154052501202750 37.000000000000000
5.361979029453870 -5.726559698787081 -2.288510193100429 86.000000000000000
5.361022893444757 -5.668104299959590 -2.418315773578961 84.000000000000000
5.366208316256179 -5.616254171560045 -2.551170983485312 79.000000000000000
5.367043557179305 -5.560248068946395 -2.681582530357399 79.000000000000000
5.371282452809840 -5.507937719820223 -2.814393520231082 85.000000000000000
5.402833640728316 -5.483137587745765 -2.962109863672163 88.000000000000000
2.884358460343154 -2.866172586749655 -1.722378290391418 40.000000000000000
2.826476356404862 -2.779048939950906 -1.757502317506876 92.000000000000000
2.872379703081320 -2.793378858955768 -1.856751300434563 89.000000000000000
2.883713402251484 -2.772756009278937 -1.935240844619271 106.000000000000000
2.925561135305978 -2.780001878676391 -2.035456115504073 83.000000000000000
2.934224644263544 -2.756896277770526 -2.115219291376546 108.000000000000000
2.939780024622727 -2.729645933356617 -2.193150812265058 94.000000000000000
2.995188576427804 -2.748306789554396 -2.310980567232359 57.000000000000000
3.124402348238831 -2.830152149582589 -2.489812197040716 63.000000000000000
3.169111296310403 -2.834986976314845 -2.607628507997834 39.000000000000000
6.163387397341054 -7.229771925890968 -1.263372348081224 24.000000000000000
7.309870525451742 -8.493419766522900 -1.685775065294890 41.000000000000000
7.383968671793001 -8.498893775804582 -1.889673845289084 37.000000000000000
6.925067062108917 -7.893886586798041 -1.947408724450043 37.000000000000000
7.776486031849215 -8.779781515331290 -2.382168243323934 34.000000000000000
7.085346400612409 -7.921834230171703 -2.346031716113119 17.000000000000000
5.828796362265142 -6.453375633130277 -2.074289252964744 21.000000000000000
5.360399891775332 -5.877271637861978 -2.039788002474321 81.000000000000000
5.360321626320213 -5.818775170479034 -2.171272340776375 83.000000000000000
5.363610021125729 -5.764389764842510 -2.304151509831452 83.000000000000000
5.362638451932774 -5.705735921637340 -2.434478676511529 83.000000000000000
5.365162960020850 -5.650943131970804 -2.566609462238526 78.000000000000000
5.365962441484667 -5.594760553261709 -2.697473897601719 77.000000000000000
5.370145535535857 -5.542278049250268 -2.830740354035131 82.000000000000000
5.380651973601193 -5.496045624205473 -2.967423602324658 84.000000000000000
5.362882563313695 -5.421803868354947 -3.089258394048200 23.000000000000000
3.004037304686722 -3.004697575313219 -1.804164170178920 14.000000000000000
2.821387119507880 -2.792374766589234 -1.764299828484587 77.000000000000000
2.864505014819084 -2.804244932604761 -1.862047630442583 77.000000000000000
2.873191998254945 -2.781129309059172 -1.938871709901356 105.000000000000000
2.922614935340866 -2.795912122717423 -2.044558960207374 98.000000000000000
2.923490563786165 -2.765441169039963 -2.118924742418223 100.000000000000000
2.929010881193801 -2.738219615634439 -2.196868815929412 94.000000000000000
2.976540604412796 -2.749979695592806 -2.308833840731983 67.000000000000000
3.062063472822504 -2.792897740752468 -2.453027822529933 41.000000000000000
3.142263223566440 -2.830585671560177 -2.599088799902778 40.000000000000000
3.198575406938887 -2.843922887864852 -2.728918095876857 21.000000000000000
6.136229775508764 -7.241128550871785 -1.269849381583955 31.000000000000000
6.180732903480513 -7.224809628586829 -1.438096869655297 18.000000000000000
7.388427755780522 -8.555633611688464 -1.906715710366541 41.000000000000000
6.853682629828294 -7.860184061416334 -1.942731306755147 0.000000000000000
7.813264049780106 -8.875422641643173 -2.411721754394877 14.000000000000000
7.088372976196765 -7.974102982148800 -2.364283016140208 16.000000000000000
5.797384848178490 -6.458407387954620 -2.077758150825949 20.000000000000000
5.421692650235783 -5.981547435332373 -2.077314392490456 45.000000000000000
5.359169742982198 -5.854007823261494 -2.185341179563807 82.000000000000000
5.362431609329144 -5.799468754051333 -2.318687863005693 83.000000000000000
5.369262822894923 -5.749016198782981 -2.453044941457314 80.000000000000000
5.366538582991638 -5.688446932869483 -2.583317852915098 79.000000000000000
5.364695702147380 -5.629325190348291 -2.713380534438842 78.000000000000000
5.368822775119845 -5.576670493494845 -2.847102424630764 80.000000000000000
5.371442203040464 -5.522256083177419 -2.979915504037957 85.000000000000000
2.977492475041769 -2.997716514656101 -1.798526691163553 2.000000000000000
2.816231953209772 -2.805702515783300 -1.771094288469005 83.000000000000000
2.854000139926706 -2.812552077501989 -1.865645736102538 64.000000000000000
2.862642073040882 -2.789473791663299 -1.942486120228347 106.000000000000000
2.909302649150695 -2.801937279075217 -2.046433380243126 97.000000000000000
2.915289142847437 -2.776396376444642 -2.124480259842607 100.000000000000000
2.918212533629238 -2.746763802465437 -2.200569976627610 89.000000000000000
2.957919391741048 -2.751577755114435 -2.306650543433417 75.000000000000000
3.045678616070894 -2.797202488813820 -2.452827756729416 52.000000000000000
3.125586671242343 -2.835216651007884 -2.598882548788968 63.000000000000000
3.164120591740942 -2.833073464713149 -2.713601965001351 49.000000000000000
3.488410727976515 -3.082356384339256 -3.084011302323873 16.000000000000000
6.114157660038067 -7.258459742119107 -1.277346577963107 25.000000000000000
6.148219126205507 -7.230243239319560 -1.443254751052140 30.000000000000000
6.203304571727788 -7.226938860022329 -1.614300809601571 4.000000000000000
7.547344438488620 -8.708596804384229 -2.156411283935338 14.000000000000000
7.867560844125388 -8.991999274950908 -2.447008664322086 13.000000000000000
7.083368538331743 -8.017685805992334 -2.379958921191939 13.000000000000000
5.763403068613978 -6.460420061508167 -2.080234048743988 19.000000000000000
5.731191311779618 -6.362485068381046 -2.211010154298267 22.000000000000000
5.363022224069769 -5.894995519200367 -2.201555007884503 46.000000000000000
5.366260328861024 -5.840249929126031 -2.335498843552651 82.000000000000000
5.367853884778875 -5.783997906782025 -2.468063387760835 79.000000000000000
5.365112556433615 -5.723246913759181 -2.598789722340836 78.000000000000000
5.371030858326639 -5.672165784978750 -2.733265231663295 78.000000000000000
5.369907984237151 -5.613826346659124 -2.864863345847750 79.000000000000000
5.369878180284430 -5.556517972557653 -2.996741622087058 63.000000000000000
5.297787508304666 -5.426211739764715 -3.087558529338454 22.000000000000000
3.007882594293335 -3.048227908852237 -1.827371039127390 8.000000000000000
2.816168623567616 -2.824204486364642 -1.781147748737063 82.000000000000000
2.840893702011564 -2.818277658398925 -1.867535813322065 60.000000000000000
2.857197958870935 -2.802825899261616 -1.949587341529504 110.000000000000000
2.898540976687709 -2.810400742478881 -2.050095576585738 104.000000000000000
2.901935191165530 -2.782442669077761 -2.126285244168924 99.000000000000000
2.912472376498251 -2.760099544096778 -2.208111220661538 85.000000000000000
2.949460880150226 -2.762594566587277 -2.312377083679458 82.000000000000000
3.011630026355799 -2.785104803445329 -2.438290347390550 33.000000000000000
3.088810183637528 -2.821420560033693 -2.581839203528418 52.000000000000000
3.139809764953803 -2.831082254775902 -2.706837251589710 64.000000000000000
3.174149643225478 -2.824556144313116 -2.820754620670608 39.000000000000000
6.117473599618671 -7.306121982920922 -1.290176084357567 6.000000000000000
6.125930002521703 -7.247637259336737 -1.450770747319599 30.000000000000000
6.160305778560462 -7.220517298718144 -1.616523013614910 24.000000000000000
7.563516786927275 -8.780649423231415 -2.178227150729488 20.000000000000000
7.903183794978481 -9.088272320514889 -2.476814109082951 12.000000000000000
7.085871816779538 -8.070116554374712 -2.398260910530098 10.000000000000000
5.729459572486499 -6.462301294229913 -2.082645190577891 25.000000000000000
5.715398710268448 -6.384617050551006 -2.220087092993231 27.000000000000000
5.658766970639851 -6.259172740589085 -2.338514266679167 13.000000000000000
5.364692166244243 -5.875445573485843 -2.350070908386223 80.000000000000000
5.366259059535371 -5.819030204602623 -2.483096289690932 78.000000000000000
5.366087728001891 -5.760875252965029 -2.615537194375681 78.000000000000000
5.366776769431169 -5.704106060680707 -2.747886670807144 76.000000000000000
5.368202939509431 -5.648328392487706 -2.881257984086040 78.000000000000000
5.375873679559644 -5.598898101064628 -3.017930787031526 30.000000000000000
3.001893878394799 -3.062181304150371 -1.834277733432908 2.000000000000000
2.808292969677848 -2.834956572953480 -1.786307875458715 84.000000000000000
2.830341909376542 -2.826519703439013 -1.871097817351564 65.000000000000000
2.846572209984417 -2.811127418103106 -1.953175182243877 109.000000000000000
2.885199471262119 -2.816344585636007 -2.051926700929527 95.000000000000000
2.891114111765104 -2.790899110048178 -2.129940222232765 97.000000000000000
2.904131090090321 -2.771017324822709 -2.213716693053381 73.000000000000000
2.933380713062877 -2.766453766995269 -2.312123514717243 90.000000000000000
2.970176290962939 -2.765817285946725 -2.417536668048683 46.000000000000000
3.002113997956324 -2.761383760294554 -2.522634985814675 43.000000000000000
3.123038574966170 -2.835774819596250 -2.706502398265541 71.000000000000000
3.152298226372098 -2.824999662955694 -2.815927697280513 64.000000000000000
3.300607617554637 -2.918836484226581 -3.038138728446763 12.000000000000000
6.967381392528017 -8.371345276507853 -1.483320192185095 46.000000000000000
6.116297466191570 -7.280105557698346 -1.461289969112295 20.000000000000000
6.135246624862823 -7.234967339580327 -1.623383025448794 30.000000000000000
6.183581628400890 -7.222631778435906 -1.794960845821101 15.000000000000000
7.361909615667313 -8.517976090439038 -2.324733561820374 10.000000000000000
7.082965936370061 -8.116756133690076 -2.414842315851260 7.000000000000000
5.718686711295719 -6.490304228174305 -2.093459654206999 23.000000000000000
5.694366110447370 -6.400936252055608 -2.227131270785090 30.000000000000000
5.671398555790153 -6.312622180063196 -2.359428666680888 15.000000000000000
5.605185170652253 -6.177680418944771 -2.471469976367591 22.000000000000000
5.367055845298354 -5.856925516884470 -2.499343722483234 77.000000000000000
5.366857301306189 -5.798568448067468 -2.632305198963992 77.000000000000000
5.367508749634757 -5.741594243902850 -2.765170765246876 74.000000000000000
5.371461008916635 -5.688334244387592 -2.900447578187842 78.000000000000000
5.371334671073313 -5.630586318148826 -3.033342309268936 22.000000000000000
2.800370363698707 -2.845694928559916 -1.791458121108710 87.000000000000000
2.819762060607074 -2.834732835278862 -1.874643345853501 72.000000000000000
2.841014191893631 -2.824466128192019 -1.960262597754435 105.000000000000000
2.871848370896472 -2.822244013200836 -2.053734565256990 96.000000000000000
2.882797459879088 -2.801787928329986 -2.135454801670838 94.000000000000000
2.900791067343012 -2.786770876799647 -2.223181338497675 82.000000000000000
2.919824131159663 -2.772641369250339 -2.313832941380886 91.000000000000000
2.946458398029796 -2.762767194051657 -2.411040509852877 66.000000000000000
2.980808271020677 -2.760945473193583 -2.518007574545118 62.000000000000000
3.059096050213590 -2.797266152850337 -2.665036102135482 47.000000000000000
3.135431671579160 -2.829812037695880 -2.815494284165712 75.000000000000000
3.172601397981802 -2.825688617335156 -2.935469333409301 58.000000000000000
7.282872444906409 -8.803253503145775 -1.565094473370406 43.000000000000000
6.098911110867756 -7.303481771772860 -1.469973221223904 0.000000000000000
6.115228017139928 -7.255369796461465 -1.631557358777679 26.000000000000000
6.148077678526073 -7.225218792608610 -1.798802451005894 29.000000000000000
6.201623284423224 -7.219742294741622 -1.973218141924173 3.000000000000000
7.102832156410573 -8.189989414531036 -2.439342687637289 3.000000000000000
5.799967131405983 -6.623583594767446 -2.138252005199072 11.000000000000000
5.683532428900610 -6.428796904957470 -2.238180842658696 26.000000000000000
5.683726760480440 -6.366205994902147 -2.380393106751589 8.000000000000000
5.602345357862937 -6.213668802603533 -2.486368939393984 21.000000000000000
5.372783405297242 -5.900525844340402 -2.518018514632796 27.000000000000000
5.367420864545474 -5.836325717965249 -2.649093312184254 74.000000000000000
5.370601686014609 -5.781910369929802 -2.783805669272776 74.000000000000000
5.369362605875710 -5.722950396235291 -2.916876406167036 77.000000000000000
5.374316033290913 -5.670421056972300 -3.053128921443927 20.000000000000000
2.792400832981668 -2.856419394098387 -1.796598406150324 87.000000000000000
2.809154260121999 -2.842916972858175 -1.878172363834942 76.000000000000000
2.830312835327173 -2.832724146559279 -1.963823608087615 100.000000000000000
2.866083485788345 -2.835613898625503 -2.060981142663172 82.000000000000000
2.869385700781401 -2.807722956584583 -2.137199452371995 96.000000000000000
2.887304606317035 -2.792807709797229 -2.224895774286423 94.000000000000000
2.903752023437561 -2.776388500281932 -2.313522656445040 88.000000000000000
2.937781860500559 -2.773752835945059 -2.416815455346274 71.000000000000000
2.969488075275177 -2.769688534943854 -2.521778338831368 68.000000000000000
3.007886802801023 -2.769807806834977 -2.634250879231410 51.000000000000000
3.059498015774547 -2.780869281741665 -2.761706343791317 41.000000000000000
3.155607661757279 -2.830645813568538 -2.934948136370668 68.000000000000000
3.173989457001839 -2.808572676062602 -3.040454974196417 46.000000000000000
7.288727946233968 -8.863620597961573 -1.581053705975634 42.000000000000000
7.225009609068278 -8.704596722555776 -1.756683251625709 48.000000000000000
6.112849850818212 -7.296875184653961 -1.644469288534445 7.000000000000000
6.122758003012058 -7.239672208069273 -1.805570479449952 30.000000000000000
6.165894064953370 -7.222483360054261 -1.976735817835080 24.000000000000000
7.117193068260504 -8.257502224482346 -2.462152684496588 0.000000000000000
5.788587870279187 -6.651850818150648 -2.149164293655842 31.000000000000000
5.682783223233606 -6.468286713700806 -2.253273580170929 19.000000000000000
5.698307254697015 -6.422804478582794 -2.402484768102426 5.000000000000000
5.558389664498386 -6.204022322860429 -2.482997252323693 51.000000000000000
5.467818874042139 -6.043194890628597 -2.578964186364162 1.000000000000000
5.370336530918986 -5.876946158818970 -2.667171796307841 56.000000000000000
5.370911119010827 -5.819533402877720 -2.801132757381613 73.000000000000000
5.372188088224791 -5.763098514922986 -2.936112166118340 79.000000000000000
5.374517850872867 -5.707622417294758 -3.071482412816849 20.000000000000000
2.786924902251273 -2.869745804826353 -1.803372564084659 79.000000000000000
2.801053502663687 -2.853654528188507 -1.883389261136615 78.000000000000000
2.824640928816811 -2.846048713125091 -1.970896837932397 91.000000000000000
2.862773990420037 -2.851495923122593 -2.070047361822855 70.000000000000000
2.863506690216312 -2.821043740866079 -2.144569338400310 99.000000000000000
2.876313973823619 -2.801239885835610 -2.228527995334740 83.000000000000000
2.892680757208147 -2.784881664444412 -2.317181078793589 83.000000000000000
2.926570444338135 -2.782358537817737 -2.420522753737141 92.000000000000000
2.958138129625050 -2.778400569812693 -2.525531445007747 73.000000000000000
2.956949895480773 -2.742084992789829 -2.603347308357656 50.000000000000000
2.986475379587307 -2.733761598323956 -2.709962422368268 58.000000000000000
3.111793884316243 -2.811305595217147 -2.909315326985510 53.000000000000000
3.149666554733018 -2.807138553575553 -3.032818777148742 68.000000000000000
7.291763066546489 -8.921031218939294 -1.596501604151728 41.000000000000000
7.349053579803082 -8.907961558353467 -1.802491707631519 39.000000000000000
6.970187344371008 -8.371205027130575 -1.890648242829425 24.000000000000000
6.115093478445805 -7.275101140878940 -1.817556364972351 18.000000000000000
6.137799248064583 -7.234045748904490 -1.982641292118851 31.000000000000000
6.176972567192802 -7.211201251617368 -2.152506077301457 15.000000000000000
5.779617516754956 -6.683055984651345 -2.161018293776136 19.000000000000000
5.676736569264369 -6.502006408474152 -2.266351823379954 18.000000000000000
5.605596322463536 -6.358220540865086 -2.379230426693590 7.000000000000000
5.524745777560121 -6.205636049162309 -2.484119425202589 84.000000000000000
5.480078780834988 -6.035547530759489 -2.738777566686484 11.000000000000000
5.371013460141308 -5.857218963341372 -2.818479098105064 71.000000000000000
5.374786964680871 -5.803323914918580 -2.955373516635534 77.000000000000000
5.379599288625272 -5.750323911626149 -3.092779721416158 18.000000000000000
2.781382771097363 -2.883072738763000 -1.810142940113946 76.000000000000000
2.797956147779930 -2.869557355260487 -1.892011094040131 77.000000000000000
2.818902437852687 -2.859373281591166 -1.977965996267566 78.000000000000000
2.866916211558873 -2.874951236852597 -2.084596560877101 82.000000000000000
2.850047437551537 -2.826911641389456 -2.146276817067800 94.000000000000000
2.860302853460433 -2.804747087061944 -2.228254331108467 83.000000000000000
2.884066862812728 -2.795754612545316 -2.322824676392331 96.000000000000000
2.895514426612371 -2.771963695137057 -2.407735342208888 66.000000000000000
2.914701758558992 -2.756761776842104 -2.501751819105061 67.000000000000000
2.940651505939021 -2.746191253146454 -2.602742077456096 62.000000000000000
2.967629800557142 -2.735797964050835 -2.707061666593596 71.000000000000000
2.995314676229814 -2.725432991121807 -2.815089519227963 55.000000000000000
3.120574959763136 -2.801263063394932 -3.020457112782525 73.000000000000000
7.294503344705001 -8.978537746050090 -1.611980426941129 40.000000000000000
7.356638174114988 -8.971544746203515 -1.820108689617784 37.000000000000000
7.466632070571501 -9.022414352841595 -2.042055035583293 28.000000000000000
6.104737535339790 -7.307538952966338 -1.828789237581266 0.000000000000000
6.114730122786159 -7.251501738759255 -1.990141215658598 23.000000000000000
6.151196527196535 -7.225825548994313 -2.159178181463105 27.000000000000000
5.866712342055658 -6.826227892093126 -2.209100056761044 8.000000000000000
5.670519458312802 -6.535754902901572 -2.279434342571411 19.000000000000000
5.716346192401248 -6.524855800697859 -2.442496057052962 4.000000000000000
5.498760178388478 -6.215728484874996 -2.488624500177296 53.000000000000000
5.373446544440908 -5.897752164752785 -2.837184455968607 22.000000000000000
5.372085967185688 -5.838112874140379 -2.971853702651419 75.000000000000000
2.773253254353842 -2.893769257969750 -1.815259174014838 75.000000000000000
2.792257480371057 -2.882877736627833 -1.898924463734001 79.000000000000000
2.813097318544367 -2.872697612324768 -1.985030958081528 48.000000000000000
2.860902272762668 -2.888356420775811 -2.091845924599741 108.000000000000000
2.854042611794887 -2.850174775368195 -2.161184980494236 64.000000000000000
2.861705594594114 -2.825377917757544 -2.241583527713566 89.000000000000000
2.870451656194667 -2.801776861200049 -2.324446108106896 84.000000000000000
2.881853829052858 -2.778071286346779 -2.409319911499701 78.000000000000000
2.903416765281571 -2.765317402892324 -2.505429054741471 66.000000000000000
2.934142092519681 -2.759435541963755 -2.610809389950064 59.000000000000000
2.956110243874053 -2.744536232607574 -2.710817790624650 77.000000000000000
2.978830149167186 -2.729831754074099 -2.814314399078634 72.000000000000000
3.009782736532823 -2.721294244629786 -2.928443530787949 50.000000000000000
7.294459453731120 -9.033057149312061 -1.626934483971303 40.000000000000000
7.361391653943621 -9.032188367816948 -1.837145123696374 36.000000000000000
7.483526583151122 -9.098358960112003 -2.063563450010713 32.000000000000000
6.984902918380127 -8.412729208279522 -2.108936814834758 0.000000000000000
6.109200162331564 -7.289894165153673 -2.003376259574436 4.000000000000000
6.125379814359704 -7.240371693409998 -2.165807902631696 28.000000000000000
5.763743254289120 -6.748458339136318 -2.185674665538805 14.000000000000000
5.840899028589279 -6.774554839920494 -2.364066255149089 10.000000000000000
5.704714781350554 -6.552828005077839 -2.453866010871029 11.000000000000000
5.465172417036886 -6.217103613744976 -2.489628307201373 24.000000000000000
6.359573775822385 -7.164480688970121 -3.057641876879369 9.000000000000000
5.352895562849283 -5.913222056867416 -2.843824537380095 43.000000000000000
5.381829677367459 -5.886766826584199 -2.995377380771023 39.000000000000000
2.770099725179089 -2.909727221516654 -1.823671847928706 68.000000000000000
2.786492346565408 -2.896197925696503 -1.905833670004728 80.000000000000000
2.807225528040385 -2.886021465405724 -1.992091598279501 15.000000000000000
2.849834617348531 -2.896691981160921 -2.095424114598275 93.000000000000000
2.850438126143837 -2.865999104191768 -2.170436735727994 104.000000000000000
2.858030175259073 -2.841127205003471 -2.251025482374143 82.000000000000000
2.876563288676552 -2.827151333678871 -2.342113358212218 56.000000000000000
2.878014537914090 -2.793676594288400 -2.419144354121993 64.000000000000000
2.899443041137294 -2.780882293695922 -2.515456960436617 58.000000000000000
2.925129542354425 -2.770370614288280 -2.616692534466626 72.000000000000000
2.944560972542783 -2.753242914799454 -2.714555973098457 72.000000000000000
2.964763833957011 -2.736394743699982 -2.815798148928938 78.000000000000000
2.988401802570330 -2.721458121305081 -2.922886306440437 56.000000000000000
7.299096980625440 -9.093834007390292 -1.643028397032868 39.000000000000000
7.370801978070753 -9.099079522995076 -1.855469222132226 37.000000000000000
7.502500539601685 -9.177531894614244 -2.085830764135640 30.000000000000000
7.550716505664833 -9.150427547606530 -2.297697096460756 21.000000000000000
7.002594160247265 -8.407875222392725 -2.313690833180908 16.000000000000000
6.112068027795319 -7.269761103569608 -2.176863321531385 15.000000000000000
5.854818895533062 -6.898131089250512 -2.235907685040813 40.000000000000000
5.816055410907658 -6.788311367419219 -2.370196666147931 8.000000000000000
5.692950359637430 -6.580798458970742 -2.465226935824044 12.000000000000000
5.451782479004707 -6.241422462882362 -2.499809881059908 31.000000000000000
6.252005952272646 -7.088454013834400 -3.025230117941834 11.000000000000000
5.435562642703523 -6.043455645118470 -2.905637042497142 84.000000000000000
5.484413779323239 -6.038067211563438 -3.071091963099100 11.000000000000000
2.764358721836012 -2.923054292231535 -1.830430130236052 66.000000000000000
2.780660703482457 -2.909517682799654 -1.912738587885072 75.000000000000000
2.796306958708279 -2.894190210228708 -1.995593751166795 1.000000000000000
2.843705795678321 -2.910080299046080 -2.102657842048819 81.000000000000000
2.844271740477059 -2.879330677771561 -2.177794552837150 103.000000000000000
2.854268284990580 -2.856889474906057 -2.260468775601186 82.000000000000000
2.875139084382393 -2.845300684060800 -2.353771285137942 81.000000000000000
2.874088779555899 -2.809294393144395 -2.428969884514492 61.000000000000000
2.900257138383972 -2.801167115669837 -2.529737401657083 54.000000000000000
2.916068528980489 -2.781288619777904 -2.622564002609563 75.000000000000000
2.940224031662440 -2.768737475126384 -2.724987970150591 65.000000000000000
2.953087512612124 -2.745143367032194 -2.819549970703390 78.000000000000000
2.969453274243117 -2.723722473324592 -2.919633391436911 66.000000000000000
3.003342791779876 -2.717532360231370 -3.039579896327646 49.000000000000000
7.303419028819722 -9.154717427195521 -1.659157411964453 38.000000000000000
7.377379712108499 -9.163028526348784 -1.873211362523826 35.000000000000000
7.516072855519996 -9.250781459651645 -2.106776498891336 30.000000000000000
7.554205006279339 -9.211345559150713 -2.316807223965459 21.000000000000000
7.095524750865704 -8.572482069723666 -2.362087143633442 17.000000000000000
6.983419704782619 -8.358117793277913 -2.505332748467758 32.000000000000000
6.117686925278309 -7.253163169827853 -2.352808261659158 24.000000000000000
5.718502819009353 -6.716636245150759 -2.346466931220041 8.000000000000000
5.701118376154152 -6.632108905350281 -2.485325879769277 14.000000000000000
5.448319344450872 -6.277292909676152 -2.514610515967018 38.000000000000000
6.252957981664177 -7.135049074539189 -3.045141570347714 8.000000000000000
2.768519006103324 -2.946991159153541 -1.843822556732490 69.000000000000000
2.772276162947395 -2.920217738624758 -1.917918985613045 69.000000000000000
2.839983669029663 -2.926015935227592 -2.111726191161866 27.000000000000000
2.835572493686463 -2.890147494413642 -2.183248976544655 81.000000000000000
2.855334329130440 -2.877617276105993 -2.273826880205601 73.000000000000000
2.871161138732946 -2.861037661111343 -2.363421506446168 72.000000000000000
2.874953379804096 -2.829724573581925 -2.442940421217758 59.000000000000000
2.896090943808978 -2.816770179335415 -2.539773021747092 58.000000000000000
2.914208367168928 -2.799152460706919 -2.634978385953291 56.000000000000000
2.933395856339740 -2.781962662999248 -2.733179923035983 81.000000000000000
2.941381454597987 -2.753859965220013 -2.823283625586608 80.000000000000000
2.957664214127294 -2.732501786010272 -2.923393984040032 75.000000000000000
2.979585381589857 -2.715658767439519 -3.031370055378408 69.000000000000000
7.309885354884406 -9.218809127551619 -1.675884950770026 38.000000000000000
7.386088147887576 -9.230180800121847 -1.891625826821117 34.000000000000000
7.529248290011323 -9.324191972980520 -2.127780119835516 27.000000000000000
7.557371446211220 -9.272368267500704 -2.335951098768398 22.000000000000000
7.097993774784647 -8.628928863033092 -2.380724059993676 15.000000000000000
7.075970034425221 -8.521952017516947 -2.557030676987512 18.000000000000000
5.956895693982216 -7.107006587520218 -2.307159954567589 4.000000000000000
5.636453161797269 -6.662172761453736 -2.328706476009690 16.000000000000000
5.669022166589014 -6.636732197521377 -2.487920700726910 24.000000000000000
5.444666698522614 -6.313206413368442 -2.529421539443833 24.000000000000000
5.331920589635647 -5.947083789823612 -3.022319841220757 48.000000000000000
2.757641792375247 -2.955026474542203 -1.847259126300401 50.000000000000000
2.771274286423579 -2.938781197682648 -1.928258255927982 57.000000000000000
2.821390254311087 -2.926628235970747 -2.109740316080908 3.000000000000000
2.834193467606686 -2.908509199497361 -2.194396870352945 46.000000000000000
2.853827255497238 -2.895902542199725 -2.285238381846030 64.000000000000000
2.869534385625842 -2.879232848252707 -2.375090443594416 60.000000000000000
2.878121396708849 -2.852602477813793 -2.458999050300205 66.000000000000000
2.896673775287908 -2.837121064673571 -2.554073042014421 50.000000000000000
2.912242144314052 -2.817041577297644 -2.647399184984669 66.000000000000000
2.921710234257467 -2.790609509655269 -2.736879221240271 79.000000000000000
2.934409427116063 -2.767036394432888 -2.831595823195151 77.000000000000000
2.950581405367426 -2.745655912259113 -2.931842250493120 83.000000000000000
2.967659409073421 -2.724485293143469 -3.035146375248306 77.000000000000000
7.313564997788748 -9.279908988001630 -1.692085162610277 39.000000000000000
7.396897973445269 -9.300556013219980 -1.910720862763303 32.000000000000000
7.546955334593960 -9.403904217596232 -2.150245252039762 25.000000000000000
7.560215173994757 -9.333494436255796 -2.355128049869369 21.000000000000000
7.092735840644818 -8.676385137980530 -2.396881146878794 11.000000000000000
7.033598065941253 -8.524087257319239 -2.560228637523457 18.000000000000000
7.078736068546112 -8.498717209513041 -2.761032680826367 12.000000000000000
5.679139257517066 -6.755186561373280 -2.362483399893072 11.000000000000000
5.629482332854566 -6.632441270832585 -2.487158107767766 33.000000000000000
5.440824235906984 -6.349162258922716 -2.544242567806493 1.000000000000000
5.964667184233504 -6.827636032334919 -3.095566441104086 34.000000000000000
3.945779830379442 -4.473141408181094 -2.148820018658248 0.000000000000000
3.957728299748895 -4.443226112216556 -2.257127471164103 0.000000000000000
2.756626523747262 -2.973699928912074 -1.857341902117488 9.000000000000000
2.767699816635454 -2.954738875629516 -1.936878907376427 12.000000000000000
2.822461915662756 -2.947672235324198 -2.122483716717792 0.000000000000000
2.854724048611388 -2.949645464660215 -2.222693464940505 4.000000000000000
2.849776048785733 -2.911723311365474 -2.294693842284424 8.000000000000000
2.875086107406977 -2.904814133410675 -2.392829021332904 50.000000000000000
2.883563485155788 -2.877949006692203 -2.477154646354477 48.000000000000000
2.899539255852445 -2.859886768459725 -2.570520526150227 75.000000000000000
2.910169684525149 -2.834955568696331 -2.659826184318903 77.000000000000000
2.914765718814483 -2.803813188997482 -2.745053078836119 70.000000000000000
2.927369633562904 -2.780208764288557 -2.839901803842324 81.000000000000000
2.936355225696092 -2.752173890138506 -2.933216130285517 86.000000000000000
2.951015576281736 -2.728944002290872 -3.034084326597277 71.000000000000000
7.319368604552078 -9.344228558729808 -1.708888490486036 37.000000000000000
7.404882331393365 -9.367977921955848 -1.929228683170086 32.000000000000000
7.564225253826390 -9.483802289174291 -2.172778509012729 25.000000000000000
7.550430409506719 -9.379436912049238 -2.370474181273540 19.000000000000000
7.094633250689794 -8.732999043824968 -2.415568409041431 8.000000000000000
6.986333132872967 -8.520036730817385 -2.561536152788785 19.000000000000000
7.018856125499007 -8.480070486951886 -2.757021440952665 19.000000000000000
5.656868400270385 -6.771427049192289 -2.369411661043594 13.000000000000000
