# This PCD file was generated using the MATLAB® pcwrite function
# from Computer Vision Toolbox®.
# .PCD v.7 - Point Cloud Data file format
VERSION .7
FIELDS x y z intensity
SIZE 8 8 8 8
TYPE F F F F
COUNT 1 1 1 1
WIDTH 636
HEIGHT 1
VIEWPOINT 0 0 0 1 0 0 0
POINTS 636
DATA ascii
2.962549170391361 -5.089389809049308 -1.249725483679715 29.000000000000000
2.806827460363357 -4.783986256232218 -1.278303214394543 4.000000000000000
2.801492832811170 -4.737923610868166 -1.369416578432435 12.000000000000000
2.809506398838390 -4.713827662860893 -1.465913558070035 16.000000000000000
2.822531842010563 -4.698064746408742 -1.565727191878530 22.000000000000000
2.832463852687556 -4.677586516464803 -1.664328364297453 34.000000000000000
2.841968270334808 -4.655253259473240 -1.762854911946514 42.000000000000000
2.771092985384784 -4.502464387157169 -1.809586170573998 31.000000000000000
2.800522031362114 -4.513379656116594 -1.919995945727039 71.000000000000000
2.858735465907674 -4.569655844471716 -2.053217231334062 15.000000000000000
2.898105878930777 -4.594858428652679 -2.175813028535838 36.000000000000000
2.890830185077055 -4.545913544102724 -2.264973927132666 31.000000000000000
2.918359197304958 -4.551266875689920 -2.381934806360844 10.000000000000000
3.373035344589228 -5.129525553906245 -3.087876965809142 16.000000000000000
3.262324904585327 -4.918010669039423 -3.095044955430654 15.000000000000000
3.242852272453867 -5.653460116065183 -1.269605393459330 29.000000000000000
2.971984753097916 -5.141893185626297 -1.263892833654563 32.000000000000000
2.926987890826829 -5.024386958299655 -1.343615116103361 40.000000000000000
2.798078283229115 -4.766045570079331 -1.378398906285399 7.000000000000000
2.804070666679197 -4.738533184199696 -1.474276418622905 11.000000000000000
2.813068665270539 -4.716104932657792 -1.572241377344420 16.000000000000000
2.822921319460130 -4.695600555318785 -1.671057943049070 24.000000000000000
2.818544040858721 -4.650456058585382 -1.761171183305673 39.000000000000000
2.777619014421973 -4.546010727077745 -1.827031220317695 35.000000000000000
2.771352323927779 -4.499095695508799 -1.913672965612018 30.000000000000000
2.880485772493255 -4.638292262263723 -2.083598474823884 16.000000000000000
2.874270471295180 -4.590719500431791 -2.173191138900550 37.000000000000000
2.868981227334630 -4.545003612371543 -2.263650344185494 32.000000000000000
2.900266607605583 -4.556718246818051 -2.383692183131753 10.000000000000000
3.236364623474433 -4.915798273718404 -3.091403460570999 16.000000000000000
3.213572960638105 -5.642245532134026 -1.268648959235478 30.000000000000000
2.948012940794495 -5.136818938287155 -1.263901458248471 31.000000000000000
2.895410859253418 -5.005787052617451 -1.339696958257677 27.000000000000000
2.970386042533256 -5.095925680705850 -1.474702754810690 48.000000000000000
2.804371108990819 -4.773245971077376 -1.485748828924728 6.000000000000000
2.805472548801880 -4.737445010749034 -1.579848900385150 12.000000000000000
2.815246877306079 -4.716890817251997 -1.678946704914170 17.000000000000000
2.803025287476953 -4.658610514801548 -1.764384682869697 36.000000000000000
2.803497368052101 -4.621985173366656 -1.857501430552273 42.000000000000000
2.791347822406710 -4.564887422331373 -1.941402625883194 35.000000000000000
2.884147471701046 -4.678479043938631 -2.101186140471032 28.000000000000000
2.852453287860766 -4.589642800280354 -2.172018693843819 37.000000000000000
2.849126425721149 -4.547138203341529 -2.263843804234163 32.000000000000000
2.880213296637395 -4.559020632082890 -2.383803314477867 10.000000000000000
3.216268585518403 -4.922380275746127 -3.093303219335752 16.000000000000000
3.186322569919306 -5.634332570894515 -1.268408830377663 25.000000000000000
2.922161640149025 -5.128257012949851 -1.263031020193969 32.000000000000000
2.879500221146770 -5.014083704381759 -1.342959076766297 19.000000000000000
2.903501147866755 -5.017141233706939 -1.452773528590761 22.000000000000000
2.905674160014955 -4.981508406688986 -1.551262605076375 21.000000000000000
2.805555903246109 -4.772043331187037 -1.591872645356476 6.000000000000000
2.805508696452097 -4.734893129221788 -1.685658331032705 11.000000000000000
2.787479244245628 -4.666722121235878 -1.767574639461523 27.000000000000000
2.766460265350290 -4.594472783886508 -1.846375216028464 55.000000000000000
2.810923327102625 -4.630842020198203 -1.969189740252812 36.000000000000000
2.864165599573398 -4.680501752968295 -2.101626693464154 38.000000000000000
2.836518199969884 -4.597961629059307 -2.175290637808632 38.000000000000000
2.825395658226371 -4.542948402390173 -2.260889910565339 35.000000000000000
2.860175408906422 -4.561255555267848 -2.383880951269417 10.000000000000000
3.190386295798976 -4.919993057889818 -3.089577251646913 17.000000000000000
3.153383158523188 -5.616048883401144 -1.265806302240229 15.000000000000000
2.896389119893910 -5.119595049922797 -1.262114333555472 34.000000000000000
3.029509481627559 -5.313388260059845 -1.424211184686784 47.000000000000000
2.883532121168793 -5.018751994130739 -1.454095914166781 18.000000000000000
2.897271044874064 -5.003238268114576 -1.558708223179757 26.000000000000000
2.933310888357480 -5.025778122075200 -1.677014460257793 28.000000000000000
2.807310576090844 -4.772662417529665 -1.699401299772471 6.000000000000000
2.773845816917436 -4.678062169976931 -1.771980168568593 23.000000000000000
2.783957312394419 -4.657674347413391 -1.871697453172621 26.000000000000000
2.800981887686245 -4.648668291415373 -1.976501854601426 30.000000000000000
2.850015809121825 -4.692032921282784 -2.106332583746973 32.000000000000000
2.812806503431863 -4.593581958260362 -2.172553420976408 38.000000000000000
2.807529493076268 -4.548072382810545 -2.262571931723481 35.000000000000000
2.834356987812034 -4.554110006195344 -2.379060007043231 11.000000000000000
3.164559976943027 -4.917510171057045 -3.085805870413896 17.000000000000000
3.128227879657787 -5.611340181705543 -1.266236825443227 15.000000000000000
2.887931483060787 -5.141518867065822 -1.268723566720706 36.000000000000000
3.154614257856124 -5.572921947038599 -1.494899948607386 63.000000000000000
2.886640777706931 -5.060727988441889 -1.467106419957475 34.000000000000000
2.869507786165006 -4.991490635424569 -1.555712795347277 48.000000000000000
2.901450281676923 -5.007636570593047 -1.671447947085406 26.000000000000000
2.920705062548247 -5.001984448624652 -1.781357211039431 21.000000000000000
2.771736586082165 -4.709032372381103 -1.783814568064853 16.000000000000000
2.777906406280485 -4.682007775978506 -1.881392883908791 20.000000000000000
2.789018612251612 -4.663259927931711 -1.982432350689529 26.000000000000000
2.831960557754357 -4.697135938752484 -2.108148327846848 27.000000000000000
2.794933630469714 -4.598620808879727 -2.174269683688699 38.000000000000000
2.789657691876063 -4.553141050503448 -2.264225372258045 36.000000000000000
2.816304838275469 -4.559303350025868 -2.380688140086618 10.000000000000000
3.142596937957050 -4.920892991452991 -3.085727248512384 18.000000000000000
3.099327499762159 -5.599672907497991 -1.265072479445753 15.000000000000000
2.885073284274871 -5.173686926295654 -1.277855912472461 21.000000000000000
3.152161172331290 -5.609129679180821 -1.505725136198464 63.000000000000000
2.847462355998559 -5.028523265321413 -1.458599294286272 35.000000000000000
2.849501669767939 -4.993044876915470 -1.556849090662905 55.000000000000000
2.871651228227247 -4.992691350684806 -1.666933801990371 49.000000000000000
2.894590164426518 -4.993890321907038 -1.778765648636288 28.000000000000000
2.763693709537522 -4.730189938080363 -1.791925285704184 11.000000000000000
2.767882641405104 -4.699839845378790 -1.888468986030266 15.000000000000000
2.776984219089039 -4.677830298757947 -1.988347641372752 20.000000000000000
2.810065887432977 -4.695776934731373 -2.107060674857357 26.000000000000000
2.771309689260343 -4.594079670121571 -2.171455408427125 37.000000000000000
2.766041792951120 -4.548717242765675 -2.261159049030824 33.000000000000000
2.796336894407248 -4.561325220380196 -2.380661296131893 11.000000000000000
3.118754225494520 -4.921216998817927 -3.083741125890036 20.000000000000000
3.074304874777693 -5.594769576087314 -1.265411761999183 15.000000000000000
2.910440706628962 -5.257192937672250 -1.299677386617967 22.000000000000000
3.145710549016770 -5.638574361639808 -1.514730441386461 62.000000000000000
2.827518391756836 -5.029945258932652 -1.459826851519648 35.000000000000000
2.831414259621069 -4.997891182503843 -1.559000005857861 52.000000000000000
2.851500873855434 -4.994304518062927 -1.667935594457394 55.000000000000000
2.872368388374937 -4.992320620185718 -1.778487747141612 53.000000000000000
2.765071102848012 -4.767789194406375 -1.806258008673371 7.000000000000000
2.763487591089046 -4.727449415955400 -1.899466860326814 10.000000000000000
2.770599190968712 -4.702087512705493 -1.998373625191893 15.000000000000000
2.792021332478322 -4.700757235128186 -2.108814428861865 27.000000000000000
2.753459217933033 -4.598991173198296 -2.173108033215044 37.000000000000000
2.744388721709068 -4.547355884466271 -2.259617003867256 33.000000000000000
2.774486473200163 -4.560158829108555 -2.378972942959340 11.000000000000000
3.094946622606119 -4.921457275194034 -3.081714407867589 19.000000000000000
2.500132955304819 -4.617577024481928 -0.948795883620616 0.000000000000000
3.045580834887030 -5.582886615665908 -1.264148098439135 15.000000000000000
2.888236255077162 -5.255246304860515 -1.300374411509147 7.000000000000000
3.139099964538457 -5.668035079069456 -1.523734148423787 41.000000000000000
2.805701146555945 -5.027915004413519 -1.460038281898138 35.000000000000000
3.150087308968277 -5.601523349609064 -1.747994882618781 36.000000000000000
2.831366521768004 -4.995850552115735 -1.668904095607735 47.000000000000000
2.850184347956195 -4.990672252656914 -1.778171996525050 67.000000000000000
2.819311479352599 -4.897666675420528 -1.855545181035995 10.000000000000000
2.764622294460212 -4.764885972198563 -1.914405714815674 7.000000000000000
2.764077059318796 -4.726356221625807 -2.008397091325963 12.000000000000000
2.772076688559280 -4.702467575264709 -2.109097801509037 25.000000000000000
2.733710642568233 -4.600661445136770 -2.173227183232628 36.000000000000000
2.724665718171563 -4.549073959363422 -2.259605902909231 33.000000000000000
2.754562963904663 -4.562041226483934 -2.378877618908910 11.000000000000000
3.074915249806064 -4.927608661235690 -3.083398301910591 20.000000000000000
2.457914450182392 -4.572702812860019 -0.940862126374879 20.000000000000000
2.559275709065287 -4.725771333374509 -1.071257741929595 1.000000000000000
2.882916942149303 -5.284102704759248 -1.308681974440127 1.000000000000000
3.128577975603255 -5.690687838208753 -1.530900316360678 24.000000000000000
2.787678972537802 -5.032590005412994 -1.462183225005617 35.000000000000000
3.169549361836248 -5.677992784570140 -1.772556002289593 33.000000000000000
3.056032300091498 -5.432462065482917 -1.815237308972728 26.000000000000000
2.829922474813023 -4.992269157195149 -1.779002936665976 61.000000000000000
2.848206988806280 -4.985017881989693 -1.888716406758319 67.000000000000000
2.837168113197444 -4.926774605196811 -1.979335516541715 23.000000000000000
2.862964792811044 -4.932478411935372 -2.095677768865222 23.000000000000000
2.754032795300152 -4.707330968192003 -2.110791917340922 25.000000000000000
2.710215255065293 -4.595882319128418 -2.170299283493902 35.000000000000000
2.704960159432375 -4.550725846981447 -2.259562081797837 34.000000000000000
2.732779662384310 -4.560724490294534 -2.377116623240508 11.000000000000000
3.049297463086868 -4.924690227692114 -3.079417338212828 20.000000000000000
2.440079351471766 -4.572767185304393 -0.942144907922587 64.000000000000000
2.512957483184613 -4.674352851353816 -1.060761098809199 7.000000000000000
2.544282627842405 -4.697826979656411 -1.164504864254187 2.000000000000000
3.030293709356349 -5.552731761192790 -1.494821067310785 12.000000000000000
2.765916454428517 -5.030416323426604 -1.462324786128152 35.000000000000000
3.151141876067863 -5.687125873490508 -1.776092389479315 32.000000000000000
3.070074401975293 -5.498280520876772 -1.837703588744143 22.000000000000000
2.895840452954072 -5.146941839434592 -1.834381032531793 41.000000000000000
2.829697466163260 -4.989970833079747 -1.890662141949915 67.000000000000000
2.850552155896438 -4.987482157946547 -2.003604284952248 60.000000000000000
2.872412808053274 -4.986349815309120 -2.118250263660600 47.000000000000000
2.735984051018981 -4.712138717634899 -2.112457331719600 24.000000000000000
2.692394869589299 -4.600606323522446 -2.171858034535062 35.000000000000000
2.687140979442971 -4.555479579336109 -2.261057973350079 33.000000000000000
2.711035927250183 -4.559330074562195 -2.375318393889844 12.000000000000000
3.029282695137647 -4.930702634404360 -3.081031302018448 20.000000000000000
2.424105816640094 -4.576248766294178 -0.944115574875602 61.000000000000000
2.483600253904383 -4.653854170520550 -1.057246961846932 9.000000000000000
2.461019561804639 -4.577762872339671 -1.135724350819056 22.000000000000000
2.554712828953519 -4.716092082430117 -1.270457331680312 5.000000000000000
2.747906022834171 -5.034969765915299 -1.464408394537034 36.000000000000000
3.123408062602617 -5.679305397356345 -1.774320229842415 23.000000000000000
3.048354514588102 -5.500431342871418 -1.838883845094099 23.000000000000000
2.895588823269756 -5.185334268213511 -1.848316502508681 26.000000000000000
2.809319505200168 -4.991556890846378 -1.891324330501229 75.000000000000000
2.833745822410465 -4.995765672172284 -2.006804913965542 57.000000000000000
2.851720684670374 -4.988197516568722 -2.118714391398888 55.000000000000000
2.716069074123028 -4.713660088838560 -2.112646054473617 25.000000000000000
2.670850397128888 -4.598870199317546 -2.170365647992396 38.000000000000000
2.665602449569336 -4.553831479774138 -2.259376558847161 34.000000000000000
2.693041507136611 -4.564144876724683 -2.376756820776412 11.000000000000000
3.009260021204395 -4.936653897515102 -3.082613569834838 19.000000000000000
2.406299292009398 -4.576198133925560 -0.945341396708776 36.000000000000000
2.434198629454547 -4.595111396171583 -1.045009229210755 17.000000000000000
2.466832873308284 -4.622732535460365 -1.147856907790241 16.000000000000000
2.508380280371405 -4.665154652519497 -1.257575618847456 15.000000000000000
2.622836365746806 -4.841841687122685 -1.408955100546872 16.000000000000000
3.092057142403319 -5.664608565743267 -1.770383129444199 25.000000000000000
3.028499056025530 -5.505874309170687 -1.841153323128386 23.000000000000000
2.902515239770183 -5.237136755054196 -1.867026483947739 13.000000000000000
2.787106462708882 -4.989759853491923 -1.890696741946377 73.000000000000000
2.972480960185032 -5.280357917045629 -2.120984962047355 38.000000000000000
2.834748143473868 -4.996503734252316 -2.121916444319639 37.000000000000000
2.699872868245280 -4.721587336297106 -2.115702134288237 25.000000000000000
2.651195158751838 -4.600265309849768 -2.170350043012330 38.000000000000000
2.644104391907703 -4.552106591433839 -2.257658420780032 35.000000000000000
2.669512041036497 -4.559457788396408 -2.373249700008933 11.000000000000000
2.983751551583552 -4.933486212263591 -3.078512054845292 19.000000000000000
2.390333291038270 -4.579575378396922 -0.947259262997643 57.000000000000000
2.405258543519732 -4.574306088602995 -1.041364079750644 18.000000000000000
2.424837898743622 -4.578013327010100 -1.137704330014841 18.000000000000000
2.484379669490429 -4.655192213255614 -1.255714583600479 20.000000000000000
2.504536109206708 -4.658280155163719 -1.356217118933250 7.000000000000000
2.539055776150243 -4.686677407410122 -1.465276303114750 3.000000000000000
2.997602142964939 -5.491044380583279 -1.836630883698954 21.000000000000000
2.859445216693154 -5.198706221767454 -1.853559460197330 19.000000000000000
2.755728467487914 -4.971280388750700 -1.883739873204207 73.000000000000000
2.846073627266712 -5.094576458982822 -2.046218857247420 38.000000000000000
3.025720161453486 -5.374154431004928 -2.281941641734948 45.000000000000000
2.678132105852934 -4.719745065974109 -2.114377198092331 26.000000000000000
2.633396083446896 -4.604808080620756 -2.171817581735707 36.000000000000000
2.624482430021314 -4.553489372018182 -2.257482339560350 40.000000000000000
2.651542689780775 -4.564145357841182 -2.374624710721029 11.000000000000000
2.913145195267811 -4.975476583299464 -2.713042911626493 11.000000000000000
2.967376983053186 -4.945348329615740 -3.083796967897365 19.000000000000000
2.374365979973473 -4.582903128501359 -0.949151783392449 57.000000000000000
2.423635137985227 -4.643750015926956 -1.058260132246186 27.000000000000000
2.404959421554846 -4.574589504158970 -1.137789545176596 27.000000000000000
2.453179403127708 -4.631382949981096 -1.250098710780228 16.000000000000000
2.482279247344800 -4.651817062699225 -1.354999539993165 11.000000000000000
2.505596924255968 -4.660035561951520 -1.457462388710672 7.000000000000000
2.533596438807035 -4.676439328807708 -1.564525579607065 5.000000000000000
2.812998785710886 -5.153377208500943 -1.837619432442993 36.000000000000000
2.634842982840909 -4.789687000503504 -1.814965810416761 40.000000000000000
2.565412721189457 -4.627556042122097 -1.858506563609226 5.000000000000000
2.612298096212236 -4.675720962075681 -1.985063258773380 2.000000000000000
2.658260137900804 -4.721072673065628 -2.114469639148445 27.000000000000000
2.611940395762742 -4.602858407281136 -2.170221613454286 36.000000000000000
2.604879267107320 -4.554806527950515 -2.257273908220668 35.000000000000000
2.629926973404109 -4.562458354237806 -2.372684951780820 11.000000000000000
2.893542536706132 -4.980926131098213 -2.714628973693317 22.000000000000000
2.918248775633446 -4.982480979707073 -2.842675389553149 16.000000000000000
2.945539386830903 -4.948080752270258 -3.083394004930352 22.000000000000000
2.370990062270168 -4.610669026321241 -0.956096885434763 12.000000000000000
2.405533261847196 -4.643720276822576 -1.059324179264143 48.000000000000000
2.421261404352566 -4.640353542859181 -1.155081040043029 34.000000000000000
2.407670044151686 -4.579890355902762 -1.236983947512448 16.000000000000000
2.456460430101107 -4.638424216856061 -1.351748105170012 14.000000000000000
2.475964399215314 -4.640049919330457 -1.451713828528123 10.000000000000000
2.500117548510080 -4.649970912688663 -1.556020165287489 11.000000000000000
2.537820830904185 -4.684975194115423 -1.670786898665400 6.000000000000000
2.604310189026600 -4.770684851439744 -1.807793817772253 27.000000000000000
2.531633323156745 -4.601959703893089 -1.848086470062092 7.000000000000000
2.500025762593002 -4.509515540066639 -1.914194551311012 5.000000000000000
2.638406736555794 -4.722334084523047 -2.114529424398929 26.000000000000000
2.594156767445022 -4.607280740243937 -2.171628616153433 37.000000000000000
2.585295168419831 -4.556058168243026 -2.257033198632903 36.000000000000000
2.608352384405762 -4.560694571900093 -2.370708514475324 10.000000000000000
2.872127300073453 -4.983181723441531 -2.714476871025258 50.000000000000000
2.891246541410319 -4.975585446633457 -2.837128636497158 22.000000000000000
2.931949480653135 -5.005912016969551 -2.984475351088972 18.000000000000000
2.925509766328835 -4.953776788967208 -3.084845560510984 23.000000000000000
2.372826117467735 -4.648967466506052 -0.965226248934051 117.000000000000000
2.387451774228714 -4.643629821746920 -1.060358479154497 72.000000000000000
2.404841413627442 -4.643827505346152 -1.156866403649489 49.000000000000000
2.405693462441826 -4.610949641483051 -1.246148614119511 13.000000000000000
2.437957330711174 -4.638641058986137 -1.352448586645572 20.000000000000000
2.457309458162817 -4.640380888769887 -1.452308312295557 14.000000000000000
2.474059067870747 -4.636893451900259 -1.551982875037943 46.000000000000000
2.498847148480703 -4.648633406127225 -1.658009162811793 9.000000000000000
2.528741429789438 -4.668134865389466 -1.768954397321121 6.000000000000000
2.507089674096235 -4.592770887183979 -1.844250781177904 10.000000000000000
2.464806581846099 -4.480671977397486 -1.901642223198953 6.000000000000000
2.596901226729365 -4.684438130788780 -2.097056846493111 19.000000000000000
2.572761687304466 -4.605189397248209 -2.169964035603113 39.000000000000000
2.565730398583979 -4.557244402766391 -2.256760283068740 37.000000000000000
2.588618143615396 -4.562024486726696 -2.370342736620847 10.000000000000000
2.850728484635011 -4.985366799081125 -2.714289775523275 63.000000000000000
2.869701582630079 -4.977908869359468 -2.836846861394315 55.000000000000000
2.890468267306666 -4.974619421552906 -2.963973482742693 22.000000000000000
2.901910633268703 -4.953330331366748 -3.082481030741994 25.000000000000000
2.358449123150526 -4.655742129292230 -0.967805227844919 125.000000000000000
2.374735412230140 -4.653952775230610 -1.063757156414677 104.000000000000000
2.384850047088419 -4.640304163453854 -1.156893911962193 73.000000000000000
2.405328576067309 -4.645494929519647 -1.256252880976304 41.000000000000000
2.417683866732708 -4.635362337758927 -1.352117124448351 29.000000000000000
2.436881790130771 -4.637237176192396 -1.451803882302366 20.000000000000000
2.455288702647306 -4.637270478465878 -1.552438049070353 54.000000000000000
2.476299335582390 -4.642411166547625 -1.655963816424784 12.000000000000000
2.498792407956885 -4.648744705831724 -1.761620039037519 8.000000000000000
2.482633073696646 -4.583486571502947 -1.840371666332566 13.000000000000000
2.444175933567772 -4.477991788876124 -1.900191975703013 7.000000000000000
2.553888664087685 -4.643086607619941 -2.078043177026107 15.000000000000000
2.553201514735400 -4.606256876669177 -2.169786996755851 38.000000000000000
2.546185221592599 -4.558365342247457 -2.256455234198246 38.000000000000000
2.565327867890044 -4.556937479130228 -2.366646095537939 10.000000000000000
2.856105638490654 -5.034651839719642 -2.739736745490252 60.000000000000000
2.848173072877994 -4.980161453143547 -2.836529930664557 64.000000000000000
2.870552483634549 -4.980096877262926 -2.965398376571953 48.000000000000000
2.880120049387816 -4.955847686712372 -3.081971156130760 24.000000000000000
2.342283165687545 -4.658963483575535 -0.969631285822841 119.000000000000000
2.358433331494829 -4.657252958235473 -1.065537941089447 119.000000000000000
2.371997905097537 -4.650623229113037 -1.160359219831131 98.000000000000000
2.386991261846338 -4.645491491483216 -1.257006570558110 43.000000000000000
2.401012919848902 -4.638888971711648 -1.353758496501756 43.000000000000000
2.418279000422531 -4.637438202029626 -1.452335222485369 32.000000000000000
2.434755220120390 -4.634189737419749 -1.551725650909334 51.000000000000000
2.453816444292982 -4.636104777577954 -1.653879484435375 18.000000000000000
2.470782635775931 -4.632575179457367 -1.755498895876519 13.000000000000000
2.461834401044272 -4.580750730752750 -1.839116669638754 21.000000000000000
2.420019172113919 -4.468647075320376 -1.895910473316638 7.000000000000000
2.505836543297391 -4.591728725189143 -2.054558476302941 12.000000000000000
2.535442906881197 -4.610499145963354 -2.171103611303939 38.000000000000000
2.526659900802924 -4.559421098266942 -2.256118125088497 39.000000000000000
2.545655028882818 -4.558125402645791 -2.366211589794700 10.000000000000000
2.832799261915838 -5.033625154203147 -2.737796586429024 0.000000000000000
2.837274541759493 -5.001050471664197 -2.846826892269846 28.000000000000000
2.847102683288863 -4.979343457999083 -2.963120152489789 60.000000000000000
2.861863672698948 -4.964396068529140 -3.085218305672795 45.000000000000000
2.331383230037800 -4.672690696642809 -0.973631289660649 84.000000000000000
2.343890166135300 -4.664004315979271 -1.068094859842033 104.000000000000000
2.355574779005035 -4.653945036142734 -1.162066719718700 102.000000000000000
2.372207687531033 -4.652355026056513 -1.259606049026978 62.000000000000000
2.384340908366432 -4.642364160132699 -1.355373541650333 57.000000000000000
2.401468143207860 -4.640999612041528 -1.453908304601149 45.000000000000000
2.416037396367701 -4.634436201816481 -1.552117389454037 70.000000000000000
2.431398834259331 -4.629714537466873 -1.651756341089769 25.000000000000000
2.453549563305827 -4.636404650361819 -1.756949190644133 18.000000000000000
2.439304799880569 -4.574613982791715 -1.836490947902041 33.000000000000000
2.404818119123446 -4.475711491660649 -1.898586963336781 7.000000000000000
2.477658871643685 -4.576145771747383 -2.047085829046717 12.000000000000000
2.514140849796821 -4.608196361338059 -2.169336784073324 39.000000000000000
2.507154698933287 -4.560411783257096 -2.255749029202178 39.000000000000000
2.527767290048428 -4.562433877976934 -2.367398073085633 11.000000000000000
2.839466909642915 -5.006321352564646 -2.977343477648859 31.000000000000000
2.840083383825222 -4.966780994353233 -3.084641458427767 53.000000000000000
2.320417520859179 -4.686398106671680 -0.977617161609714 51.000000000000000
2.331073304917544 -4.674221987539489 -1.071433646243752 68.000000000000000
2.342655345223539 -4.664193274317423 -1.165491756001598 89.000000000000000
2.357401302261919 -4.659177666347522 -1.262183256703348 72.000000000000000
2.365910296375204 -4.642338937552989 -1.355954888034698 68.000000000000000
2.382896381085294 -4.641081504946473 -1.454380727820055 57.000000000000000
2.399102137935218 -4.638025473935633 -1.553619205236222 49.000000000000000
2.414333725777976 -4.633386848288026 -1.653214739434229 36.000000000000000
2.431026322734623 -4.630108290462892 -1.754555281761786 24.000000000000000
2.420366697978751 -4.575057511275694 -1.836501515337053 37.000000000000000
2.386069111831298 -4.476122157613672 -1.898436362821924 6.000000000000000
2.458419460760123 -4.576839272780782 -2.046893262016215 14.000000000000000
2.494640882262913 -4.609068591919899 -2.169063757366303 39.000000000000000
2.487669878059830 -4.561337510499384 -2.255348020396203 41.000000000000000
2.506369313165671 -4.560304846250346 -2.365245986210959 11.000000000000000
2.923967066553756 -5.197373807665003 -3.089073986991377 24.000000000000000
2.820056361233656 -4.972156246289046 -3.085929419470642 63.000000000000000
2.307652307305961 -4.696556874658031 -0.980851850020107 32.000000000000000
2.321687826261972 -4.691432482337632 -1.076365598230605 45.000000000000000
2.329691458823583 -4.674410982195412 -1.168898488413503 64.000000000000000
2.342572252172040 -4.665959345019532 -1.264738168151219 63.000000000000000
2.354487790069688 -4.656068407714349 -1.360543358036461 63.000000000000000
2.371341148814265 -4.654832485161337 -1.459127030462728 64.000000000000000
2.383916247993637 -4.644972972290878 -1.556236938656576 77.000000000000000
2.397267539939121 -4.637006595306791 -1.654646239241354 45.000000000000000
2.413824075221273 -4.633816243790851 -1.755945429864553 34.000000000000000
2.406704701237700 -4.585449747653248 -1.840499685625379 39.000000000000000
2.372594731023594 -4.486403110838608 -1.902467179579386 7.000000000000000
2.437451216094267 -4.574184978169006 -2.045201054824094 15.000000000000000
2.475161506837471 -4.609875966302231 -2.168758882489967 40.000000000000000
2.468205699613237 -4.562198394122126 -2.254915172920307 41.000000000000000
2.486756963099077 -4.561296592508117 -2.364715036035439 11.000000000000000
2.854849417321005 -5.116125178891461 -3.038930397086240 41.000000000000000
2.798298640382447 -4.974403743479193 -3.085283798306722 63.000000000000000
2.296566097659398 -4.710218984745583 -0.984807227239812 22.000000000000000
2.307033904307156 -4.698082865166535 -1.078864197388104 27.000000000000000
2.316683214731208 -4.684598002170431 -1.172286842305871 43.000000000000000
2.331187132886363 -4.679658595281803 -1.269157981919586 50.000000000000000
2.341262685651829 -4.666317664230768 -1.364105748562881 54.000000000000000
2.352767946597372 -4.654810748641756 -1.459546465102486 59.000000000000000
2.366968149478208 -4.648462978912669 -1.557687296293473 58.000000000000000
2.381940391586937 -4.643966034416601 -1.657261428414848 54.000000000000000
2.396620791119428 -4.637471256608907 -1.757308489622778 43.000000000000000
2.386035345711385 -4.582439925412118 -1.839112736893779 48.000000000000000
2.362554142689455 -4.503284403030879 -1.909290839102237 7.000000000000000
2.420003752254356 -4.578034084055070 -2.046413879034467 22.000000000000000
2.455702984325107 -4.610618599267901 -2.168422233989880 40.000000000000000
2.448762424375463 -4.562994549098152 -2.254450561415651 42.000000000000000
2.467165301580226 -4.562223173931814 -2.364152086038053 11.000000000000000
2.819441752387129 -5.174560641492613 -2.808817255075833 25.000000000000000
2.814909066452695 -5.125324968907903 -2.911074528536091 9.000000000000000
2.834487860571652 -5.121489240255777 -3.040270140993437 43.000000000000000
2.778272173470358 -4.979652033857100 -3.086506982305911 63.000000000000000
2.287126182425137 -4.727399055424788 -0.989488755082269 15.000000000000000
2.299221257210532 -4.718778606055648 -1.084578294740748 21.000000000000000
2.305349835921954 -4.698257724733280 -1.176534098952800 30.000000000000000
2.316291042126579 -4.686368127322787 -1.271671963745871 42.000000000000000
2.327992814759909 -4.676535536815589 -1.367649380260589 45.000000000000000
2.341122566311844 -4.668498522795421 -1.464254988778399 51.000000000000000
2.353475409430146 -4.658741853961696 -1.561403802785545 64.000000000000000
2.364861444716616 -4.647485777809474 -1.658641098113605 59.000000000000000
2.375958219429805 -4.634327606550322 -1.756088316312572 51.000000000000000
2.368868462128396 -4.586051866699730 -1.840377810416483 54.000000000000000
2.366250484167813 -4.546723588210110 -1.927365886018888 7.000000000000000
2.404282398865583 -4.585123447752046 -2.049071281185588 28.000000000000000
2.436265574879308 -4.611296606441859 -2.168053886801659 41.000000000000000
2.427617376084672 -4.560489406071332 -2.252355711792195 42.000000000000000
2.449314614620192 -4.566291371015537 -2.365218178857284 11.000000000000000
2.761489904162576 -5.109849277609196 -2.772311286512564 23.000000000000000
2.772449066523987 -5.089649823197504 -2.889215611676620 17.000000000000000
2.810705627025194 -5.120569678790361 -3.037886772554516 42.000000000000000
2.754835469079593 -4.978685333623046 -3.083886814892499 58.000000000000000
2.279299754733331 -4.748111523831506 -0.994901796827726 11.000000000000000
2.287889000634221 -4.732420282828618 -1.088662568222704 14.000000000000000
2.297366352738771 -4.718913291883650 -1.182524919393909 20.000000000000000
2.304794808712770 -4.700014929708472 -1.276058208017223 34.000000000000000
2.316391582830091 -4.690190942724367 -1.372189110793488 36.000000000000000
2.325979302185467 -4.675268809450023 -1.466784866702882 41.000000000000000
2.341654271909638 -4.672414148522562 -1.566249435924406 49.000000000000000
2.351216950488369 -4.657757611993031 -1.662422593583580 55.000000000000000
2.360493954500762 -4.641244649165849 -1.758673476616602 54.000000000000000
2.353418868305526 -4.592963525039703 -1.842961119491780 54.000000000000000
2.359372472714657 -4.570274051323549 -1.937000937220981 46.000000000000000
2.385105718791254 -4.585571361434170 -2.048757184095767 34.000000000000000
2.418563615685686 -4.615180962518795 -2.169191259452579 40.000000000000000
2.408228018544941 -4.561151380720180 -2.251825901984764 42.000000000000000
2.426336402737086 -4.560669564812882 -2.361267621711340 12.000000000000000
2.710851757129704 -5.057576842231592 -2.742589877431463 17.000000000000000
2.745588821100981 -5.082120417386768 -2.883353965198495 20.000000000000000
2.792052272201454 -5.128916020571123 -3.041006504962389 42.000000000000000
2.733130584241478 -4.980719637920759 -3.083135595122981 59.000000000000000
2.562896258465887 -4.631638356182566 -2.990967887804887 19.000000000000000
2.554918459850715 -4.576744350330480 -3.080941871446472 22.000000000000000
2.278123920143205 -4.783015338155158 -1.003284445929405 8.000000000000000
2.279878460759849 -4.753103266621717 -1.094358049722884 9.000000000000000
2.289272396028837 -4.739567112455323 -1.188508091395376 15.000000000000000
2.296631930991325 -4.720628499545328 -1.282327704930174 26.000000000000000
2.303021325570720 -4.700350515937263 -1.375696842074875 26.000000000000000
2.312517728493160 -4.685449985716251 -1.470375525760828 32.000000000000000
2.326354571548736 -4.679203131620793 -1.568779289914443 40.000000000000000
2.339233409415490 -4.671404208373523 -1.667400905080874 47.000000000000000
2.348420154286318 -4.654884713774964 -1.763799047625890 51.000000000000000
2.273098208336862 -4.472245832451295 -1.794331560603497 50.000000000000000
2.263654522772694 -4.420605506104987 -1.873226937913555 42.000000000000000
2.367655560882448 -4.589259581042059 -2.049887714689781 43.000000000000000
2.397455132526158 -4.612459210110772 -2.167222398045085 40.000000000000000
2.388860359451985 -4.561749008045001 -2.251264571444098 42.000000000000000
2.406819727989026 -4.561396303875107 -2.360607243053646 12.000000000000000
2.675860298288910 -5.033735472642294 -2.728310622987025 20.000000000000000
2.708676348177232 -5.055566894041571 -2.866715859776849 26.000000000000000
2.761576830719595 -5.115363547410298 -3.031152451767915 37.000000000000000
2.713123828819853 -4.985770255012762 -3.084259076945365 55.000000000000000
2.533953531513498 -4.617921156783058 -2.980031491421809 25.000000000000000
2.532715636149417 -4.575337276544997 -3.077704390005977 19.000000000000000
2.280108792208008 -4.825061946047064 -1.013165885975381 5.000000000000000
2.280171833424471 -4.791464855933570 -1.104119986419583 7.000000000000000
2.281067917071251 -4.760218753987838 -1.194483391215925 10.000000000000000
2.288358061295106 -4.741239825428485 -1.288589267795049 15.000000000000000
2.291297576107599 -4.713957133499241 -1.380204173756575 18.000000000000000
2.302397332330207 -4.702514509362564 -1.476117818235834 22.000000000000000
2.312726675633230 -4.689385213917589 -1.572438119388344 31.000000000000000
2.323792251050453 -4.678203515140105 -1.669927377130108 37.000000000000000
2.337973829950387 -4.671889681580249 -1.770192411465806 43.000000000000000
2.259727944929303 -4.482245094860706 -1.798146969661472 34.000000000000000
2.290983680953521 -4.510636117833070 -1.911025794201761 40.000000000000000
2.353591378721045 -4.599512224254115 -2.053946182582916 51.000000000000000
2.379773998302843 -4.616224941078946 -2.168300488945750 41.000000000000000
2.369514656848430 -4.562282406422626 -2.250671796381481 42.000000000000000
2.389010765224056 -4.565280168043553 -2.361581790011050 12.000000000000000
2.647798554222058 -5.022507583164818 -2.720881547093051 25.000000000000000
2.685414124264818 -5.054123022693195 -2.864330890920535 28.000000000000000
2.716171074785142 -5.073554941283255 -3.004582991078926 28.000000000000000
2.696450006760732 -4.996944474530521 -3.089174530436726 52.000000000000000
2.516788383875746 -4.625486430104013 -2.982843528533091 28.000000000000000
2.510555456876571 -4.573852638010207 -3.074429921743924 21.000000000000000
2.738889723007531 -5.842019512805515 -1.227971944794883 1.000000000000000
2.380548670296267 -5.042329914861608 -1.162889959558681 11.000000000000000
2.286151559569213 -4.809052707951663 -1.207527680354382 8.000000000000000
2.279973152877540 -4.761848472728398 -1.294842671884063 14.000000000000000
2.286226332721252 -4.741476741615253 -1.388777687138422 12.000000000000000
2.292187468424794 -4.719566358737201 -1.481848168697593 15.000000000000000
2.302420041961361 -4.706415436341167 -1.578385152915546 20.000000000000000
2.311695933348956 -4.691794447393826 -1.674870375623846 28.000000000000000
2.322384690437659 -4.678702827860356 -1.772716897361869 34.000000000000000
2.306933183524754 -4.613441680645002 -1.850571572795756 44.000000000000000
2.270594883878067 -4.507318698875247 -1.909265047099615 53.000000000000000
2.337799601024972 -4.606417214755628 -2.056505159013827 59.000000000000000
2.358732247860106 -4.613364719060366 -2.166265023452549 42.000000000000000
2.350191168111868 -4.562751695062143 -2.250047653392369 44.000000000000000
2.369526458874687 -4.565882670226625 -2.360859970946386 12.000000000000000
2.472815005356627 -4.729931054475339 -2.561120490955649 9.000000000000000
2.650524636092716 -5.030452174457436 -2.849363099705274 23.000000000000000
2.677751039847450 -5.044059567466526 -2.985338916847683 24.000000000000000
2.669783334760142 -4.989495016238882 -3.082585348107068 61.000000000000000
2.497946092500087 -4.629942057006733 -2.983656459400750 29.000000000000000
2.490085122633934 -4.575316645083698 -3.073151099320890 23.000000000000000
2.687662827680916 -5.778603864952681 -1.215874128623582 1.000000000000000
2.404646706903675 -5.134256166511766 -1.185053514240268 19.000000000000000
2.350840811164592 -4.984966167946108 -1.252503007978709 67.000000000000000
2.288142437276311 -4.817541710098966 -1.310633456841371 7.000000000000000
2.277661583572446 -4.762035292707339 -1.395305551385782 8.000000000000000
2.281888140990202 -4.736605188732515 -1.487566401234078 10.000000000000000
2.293695387843804 -4.726877696998956 -1.585475545506114 14.000000000000000
2.301204449311594 -4.708784238731100 -1.681019058650460 20.000000000000000
2.310118565279218 -4.692268281143209 -1.777792617863414 24.000000000000000
2.262959488905866 -4.562851177149041 -1.830067618084236 48.000000000000000
2.277000963272831 -4.557467775957336 -1.930144576026650 39.000000000000000
2.325325944843417 -4.619916297747898 -2.062003067903007 52.000000000000000
2.342741521667890 -4.620302989146913 -2.168828820154629 42.000000000000000
2.332556261567047 -4.566418721660821 -2.251000076652577 44.000000000000000
2.348401227752757 -4.563188991174574 -2.358436326109423 12.000000000000000
2.427724732052023 -4.682839904483897 -2.534377054496069 14.000000000000000
2.451933139502878 -4.692925243222455 -2.656737198319213 8.000000000000000
2.548785606602805 -4.841916766350768 -2.864002437028589 15.000000000000000
2.616870669044337 -4.932311930765696 -3.045305718498854 50.000000000000000
2.477460961423600 -4.631273151327821 -2.982464783096714 28.000000000000000
2.467999826245348 -4.573682432898774 -3.069804857095330 24.000000000000000
2.681292545192826 -5.811267797313016 -1.223966043240622 1.000000000000000
2.382001816606379 -5.126952878991300 -1.184313101458701 22.000000000000000
2.335115403767964 -4.991726604840053 -1.254992252413368 78.000000000000000
2.347293138731082 -4.982248277706030 -1.356097717777472 68.000000000000000
2.293846326198173 -4.834992596482606 -1.417184400050155 7.000000000000000
2.281454794892378 -4.774464681782430 -1.499816995928096 7.000000000000000
2.284858365730002 -4.747336108791059 -1.592557100615920 9.000000000000000
2.288961768983130 -4.722333337809210 -1.685931750323643 14.000000000000000
2.299446135379132 -4.709212632338454 -1.784141209073401 18.000000000000000
2.259218271728130 -4.593106255444150 -1.841984724933836 25.000000000000000
2.259843200738983 -4.560786966697625 -1.931182785878866 35.000000000000000
2.316102203599986 -4.640038833511012 -2.070450725322639 36.000000000000000
2.321756191894620 -4.617309812711654 -2.166728935246784 41.000000000000000
2.313266555512620 -4.566765065787985 -2.250315239482068 44.000000000000000
2.328973096645800 -4.563657775148153 -2.357649682720035 13.000000000000000
2.406070475990215 -4.680415551968071 -2.531824465768437 18.000000000000000
2.420222466703571 -4.671643412167351 -2.643258413628275 15.000000000000000
2.437717007736619 -4.670473427617259 -2.760963192821069 11.000000000000000
2.494130530122216 -4.741271129438629 -2.925487476620610 9.000000000000000
2.460255317444785 -4.638680938783782 -2.985193950340358 20.000000000000000
2.449206395733399 -4.578042924501768 -3.070494261925578 24.000000000000000
2.684551735288148 -5.865380725318224 -1.236573866627803 2.000000000000000
2.362699864824470 -5.126677798906771 -1.185178507632863 22.000000000000000
2.316084737056103 -4.991368559966958 -1.255678059595346 76.000000000000000
2.333071731467875 -4.992534656399301 -1.359540363680829 78.000000000000000
2.345798431766219 -4.985051746592982 -1.461673288157589 73.000000000000000
2.312108332023812 -4.878433892366313 -1.532834569938235 12.000000000000000
2.338578891515564 -4.899077208698364 -1.643677362309914 6.000000000000000
2.288199864504151 -4.759881146848421 -1.699404851105276 10.000000000000000
2.291983494099592 -4.732957623417219 -1.793058782558970 17.000000000000000
2.271794056586323 -4.657208183934755 -1.867465580927851 23.000000000000000
2.278964909686650 -4.637883791236736 -1.963450248771401 28.000000000000000
2.315003043248185 -4.676799853677319 -2.086313504340958 29.000000000000000
2.304108172385723 -4.620844228770902 -2.167690970452190 41.000000000000000
2.292356548837255 -4.563776107076081 -2.247987788553227 46.000000000000000
2.309567745500365 -4.564062371055111 -2.356831666043027 13.000000000000000
2.386097610799546 -4.681126268396895 -2.530971957778524 20.000000000000000
2.400122717892052 -4.672476711985432 -2.642304356998313 16.000000000000000
2.414206327422084 -4.665149597458350 -2.756195029741071 14.000000000000000
2.434500752735818 -4.667806787929187 -2.878330397207893 11.000000000000000
2.439789373952706 -4.639887387482208 -2.983939818801812 20.000000000000000
2.427185789851651 -4.576264720305328 -3.067078471645451 23.000000000000000
2.671259275771465 -5.883797766575441 -1.241651208531109 1.000000000000000
2.336910269244937 -5.112099697030574 -1.182718513052647 22.000000000000000
2.297076507264756 -4.990948013647647 -1.256333333490340 76.000000000000000
2.313906655442294 -4.992217315072280 -1.360083184585555 77.000000000000000
2.331409360283326 -4.995336462775821 -1.465182588773711 75.000000000000000
2.345381660818385 -4.989591473583531 -1.568115363051877 76.000000000000000
2.342190240911262 -4.947386316525503 -1.660094428168548 31.000000000000000
2.288850152545674 -4.800908767222475 -1.714113178293086 7.000000000000000
2.282746255345906 -4.753294980181746 -1.800677751593341 31.000000000000000
2.262661190348415 -4.677400771298148 -1.875329934265061 19.000000000000000
2.273021126702476 -4.664729371449221 -1.974431272215661 22.000000000000000
2.313675721085635 -4.713603911481518 -2.102184298134916 36.000000000000000
2.283191724109960 -4.617713736395553 -2.165525201806621 39.000000000000000
2.276388114806209 -4.570542915113614 -2.250465421168203 47.000000000000000
2.291814296472126 -4.567649275586946 -2.357658017125476 13.000000000000000
2.367772083978092 -4.684986828111657 -2.531824989756268 23.000000000000000
2.383287573912939 -4.679610798356668 -2.644916466721745 17.000000000000000
2.393996175472304 -4.666041095186296 -2.755107767376199 17.000000000000000
2.410895553108277 -4.662609939104606 -2.873309448661191 14.000000000000000
2.420951273820485 -4.644108441973580 -2.984633262056947 21.000000000000000
2.406810701424120 -4.577455449547147 -3.065665972496264 25.000000000000000
2.651423799098254 -5.887866695365314 -1.243685496893531 2.000000000000000
2.317696795472284 -5.111679666400494 -1.183515336768069 22.000000000000000
2.279710075937485 -4.994011968981800 -1.257851510845229 78.000000000000000
2.294764226273650 -4.991837096141712 -1.360595293023672 75.000000000000000
2.308857015273296 -4.988047410511322 -1.463525303339365 78.000000000000000
2.327567743744568 -4.992903279524159 -1.569499678112971 75.000000000000000
2.345507227086908 -4.995765205224496 -1.676529111572875 75.000000000000000
2.351078916700843 -4.972759781375844 -1.775524734881398 51.000000000000000
2.271768491789802 -4.770209813496037 -1.806992599580083 39.000000000000000
2.253415104811568 -4.697588265689424 -1.883184762965148 15.000000000000000
2.262039556849808 -4.681492233817031 -1.981136923071583 19.000000000000000
2.302371037923669 -4.730420078413013 -2.109131926996815 42.000000000000000
2.263944475983972 -4.617820267695334 -2.164876759754201 39.000000000000000
2.255536250195904 -4.567421916364736 -2.248074122880134 47.000000000000000
2.270826407508186 -4.564679487253030 -2.355101824893113 13.000000000000000
2.352673376248550 -4.695232139973763 -2.536128375388092 20.000000000000000
2.366428855179506 -4.686698259277889 -2.647503333303930 17.000000000000000
2.377018128778164 -4.673177140463959 -2.757712136772990 18.000000000000000
2.388958078232306 -4.660448580792628 -2.870171131872905 16.000000000000000
2.402111927081295 -4.648272150943912 -2.985297355462778 23.000000000000000
2.388047165486344 -4.581629745077621 -3.066262156834052 24.000000000000000
2.634788633641606 -5.899048004816188 -1.247205473411316 1.000000000000000
2.293690436237735 -5.100488990875062 -1.181800421676112 23.000000000000000
2.262344195948207 -4.997022984687576 -1.259342697427321 77.000000000000000
2.278865706045349 -4.998459079930414 -1.363003272216042 76.000000000000000
2.291209792326954 -4.991213703974863 -1.464923018045180 78.000000000000000
2.306525831875729 -4.989178065460457 -1.568660835878240 76.000000000000000
2.325916367012001 -4.995643918124417 -1.676679724029672 74.000000000000000
2.341104201178255 -4.993393651647152 -1.782937732764511 77.000000000000000
2.254236552817220 -4.773421999268255 -1.808109504660766 37.000000000000000
2.244055765016590 -4.717770222786562 -1.891029838073483 12.000000000000000
2.254196823737832 -4.704980452621232 -1.990681195044143 14.000000000000000
2.286135055791958 -4.737190763034314 -2.111595174578090 34.000000000000000
2.246332319245035 -4.621178392578110 -2.165750995725134 38.000000000000000
2.237948810744395 -4.570799864784361 -2.248881881419077 47.000000000000000
2.251490931167460 -4.564892253894781 -2.354190157400653 14.000000000000000
2.337528494091373 -4.705440741348445 -2.540410196989675 17.000000000000000
2.347948396972960 -4.690546005053954 -2.648262165954212 15.000000000000000
2.360016513601453 -4.680266159695630 -2.760291058916862 18.000000000000000
2.373420178838068 -4.670716320707718 -2.874693323844968 17.000000000000000
2.380104413437446 -4.646195975031087 -2.981964108224730 28.000000000000000
2.367704181789962 -4.582691795170727 -3.064785933472225 23.000000000000000
2.619696768880127 -5.913778610988303 -1.251461297578264 3.000000000000000
2.276149472961986 -5.103503469546339 -1.183359587388101 23.000000000000000
2.243382355664606 -4.996424914640405 -1.259910186740839 78.000000000000000
2.259746819074983 -4.997962765520831 -1.363457556415991 76.000000000000000
2.271962007265193 -4.990809116759671 -1.465260726837404 78.000000000000000
2.290337879330905 -4.995868063317923 -1.571085832289895 78.000000000000000
2.306348449837055 -4.995458526374198 -1.676799015746833 75.000000000000000
2.321390081352249 -4.993314827472845 -1.782946752973634 77.000000000000000
2.236705549375777 -4.776580654965414 -1.809199141057110 24.000000000000000
2.237791441164869 -4.744748705048938 -1.901591226259124 8.000000000000000
2.241407713276128 -4.718346767427978 -1.995935681621084 11.000000000000000
2.268274834584206 -4.740568613400865 -2.112542188083019 31.000000000000000
2.227121162518516 -4.621162889465965 -2.165042465284395 39.000000000000000
2.220362362801705 -4.574124040247972 -2.249662250712136 49.000000000000000
2.232179255793991 -4.565041325166556 -2.353247430578554 14.000000000000000
2.327109481729903 -4.725302082564681 -2.549899152624017 14.000000000000000
2.335815020948937 -4.707128580566276 -2.656210216440980 13.000000000000000
2.344573531163081 -4.690473044484026 -2.764710034694094 16.000000000000000
2.354681436388153 -4.674683986310557 -2.875341538193447 16.000000000000000
2.362858270816282 -4.653331597890251 -2.984551864536994 30.000000000000000
2.345816340970351 -4.580627393652545 -3.061232166131206 22.000000000000000
2.034349139845879 -4.630611372756150 -0.980798598953807 5.000000000000000
2.247529752666730 -5.081415378666706 -1.179079200192811 21.000000000000000
2.221272932788159 -4.988643217896305 -1.258650627696140 74.000000000000000
2.239063309570340 -4.993862128866009 -1.362914719860990 77.000000000000000
2.254327373443305 -4.993863305339562 -1.466601984495874 78.000000000000000
