# This PCD file was generated using the MATLAB® pcwrite function
# from Computer Vision Toolbox®.
# .PCD v.7 - Point Cloud Data file format
VERSION .7
FIELDS x y z intensity
SIZE 8 8 8 8
TYPE F F F F
COUNT 1 1 1 1
WIDTH 632
HEIGHT 1
VIEWPOINT 0 0 0 1 0 0 0
POINTS 632
DATA ascii
-5.551817971349587 -4.470247918806952 -2.228278429057255 7.000000000000000
-5.536814701943510 -4.394001200818246 -2.334431923091783 7.000000000000000
-5.427458441374799 -4.244977742884164 -2.398848646656873 5.000000000000000
-5.836467507077344 -4.499050810614429 -2.699128163377942 0.000000000000000
-5.614665347365116 -4.262101173964336 -2.709747335082956 8.000000000000000
-5.358003405238008 -4.005339094825137 -2.694810242841461 4.000000000000000
-5.352987323389462 -3.938568594971252 -2.801097666690311 42.000000000000000
-5.383204163354068 -3.899990104747830 -2.928632124135163 41.000000000000000
-5.416046371370929 -3.859978673618876 -3.057679895340132 49.000000000000000
-5.793249483105546 -5.605081583213403 -0.610226902077612 5.000000000000000
-5.865302104613921 -5.600356474489762 -0.747646026039136 6.000000000000000
-5.955547398139344 -5.613082104102214 -0.889150426600110 3.000000000000000
-6.044660892488379 -5.622851734025931 -1.033447179096826 5.000000000000000
-6.129730669070325 -5.627008917359095 -1.179147390541101 5.000000000000000
-6.204110435164143 -5.620891308186117 -1.325583120685069 9.000000000000000
-5.733727593577076 -5.126099977123167 -1.346228400826058 23.000000000000000
-5.364538919330049 -4.732545292992482 -1.371638885701292 19.000000000000000
-5.369752841080371 -4.673725090537451 -1.484598330791852 69.000000000000000
-5.367394042113446 -4.608756172435183 -1.594349942680612 44.000000000000000
-5.327945171472417 -4.512270613075119 -1.691824507495519 19.000000000000000
-5.372765850623373 -4.487669719796404 -1.815497617844144 15.000000000000000
-5.467108268993934 -4.502180633208493 -1.958111519056182 6.000000000000000
-5.633924256314229 -4.574446325194693 -2.132471404738391 8.000000000000000
-5.531673979365709 -4.426459766255038 -2.205320140871555 8.000000000000000
-5.540459388829509 -4.369496029787465 -2.320775345957152 5.000000000000000
-5.457633143566622 -4.241797478295481 -2.396925243592132 12.000000000000000
-5.514104589252474 -4.159127999252647 -2.645207149660963 4.000000000000000
-5.414731960803776 -4.021795840547327 -2.707334484249465 3.000000000000000
-5.364983183347556 -3.921893187338775 -2.791231496938874 42.000000000000000
-5.395278652245878 -3.883288818049027 -2.918670282891729 42.000000000000000
-5.434133454131625 -3.847448410984213 -3.050952364017264 39.000000000000000
-5.841372722420036 -5.619395867149803 -0.604267164445356 25.000000000000000
-5.919543097316705 -5.619727395864028 -0.743027264092959 12.000000000000000
-5.995685060914373 -5.618325408619818 -0.883106026015641 22.000000000000000
-6.070557658552530 -5.614200749653232 -1.025330998644985 15.000000000000000
-6.150029267864186 -5.612729275451723 -1.169988925118974 24.000000000000000
-6.227546940920506 -5.609047473714819 -1.317004759385873 15.000000000000000
-5.785289225100109 -5.141702491370046 -1.345384730171865 22.000000000000000
-5.388553843126297 -4.725541756981712 -1.365415168639564 22.000000000000000
-5.367129834802254 -4.643577936435840 -1.471259761096515 69.000000000000000
-5.364704970996097 -4.578806920934955 -1.580649156191187 62.000000000000000
-5.325089391633920 -4.482626426812266 -1.677820994251822 21.000000000000000
-5.414687133947618 -4.495212623756296 -1.816053608427946 18.000000000000000
-5.494390771844407 -4.496988944445497 -1.953780048983506 10.000000000000000
-5.536186561063698 -4.467432047874444 -2.080969307491595 15.000000000000000
-5.583044003073600 -4.439896064833542 -2.210874621777439 3.000000000000000
-5.555950328647044 -4.354390410941467 -2.312116799538425 1.000000000000000
-5.481853183451190 -4.233869836696374 -2.392324367847865 20.000000000000000
-5.616195792534791 -4.209149146954069 -2.677975406647778 4.000000000000000
-5.393943513600320 -3.980644047467659 -2.681090513102703 5.000000000000000
-5.379895560177283 -3.907359072679487 -2.782900077030087 45.000000000000000
-5.410264815993790 -3.868691730325403 -2.910302203643380 50.000000000000000
-5.857905610855876 -5.603154670528727 -0.594965202709665 17.000000000000000
-5.936274467212986 -5.603291219615696 -0.733613629980270 8.000000000000000
-6.024253028811549 -5.612545648621388 -0.875275263557690 5.000000000000000
-6.111055963218075 -5.618887746527128 -1.019603602555462 3.000000000000000
-6.193755355366476 -5.619680086187026 -1.165215141843807 4.000000000000000
-6.280398492659217 -5.623484739008946 -1.314548653925484 8.000000000000000
-5.839946256122892 -5.159673084991356 -1.345089358225685 25.000000000000000
-5.403677450961864 -4.710697825122194 -1.356912674550326 22.000000000000000
-5.367324063346306 -4.616039402193567 -1.458765449419528 66.000000000000000
-5.326136916109744 -4.518602689425434 -1.556544662375674 24.000000000000000
-5.328047373899667 -4.458029146510683 -1.665720057615350 8.000000000000000
-5.447739970662921 -4.495167532096919 -1.813522007151620 16.000000000000000
-5.536649669594303 -4.503860233762533 -1.954674763461634 7.000000000000000
-5.554605069236484 -4.454700233299287 -2.073418519319155 23.000000000000000
-5.580582441387159 -4.410433065554809 -2.195066237985116 1.000000000000000
-5.577387054769333 -4.343913493344053 -2.305919600427330 1.000000000000000
-5.518071637852107 -4.235060989667968 -2.392881069615609 19.000000000000000
-5.685726334188198 -4.234089927950293 -2.694819944773436 5.000000000000000
-5.417852572631096 -3.972601889906452 -2.677149925862632 6.000000000000000
-5.391761613157425 -3.890621685180846 -2.773010207280635 45.000000000000000
-5.425198187217200 -3.854051414000743 -2.901915286091943 53.000000000000000
-5.911961927682742 -5.622608515977783 -0.589389210695154 7.000000000000000
-5.990715222078508 -5.622252590521823 -0.728773583719584 13.000000000000000
-6.070336780759995 -5.622872308745276 -0.869895607356401 15.000000000000000
-6.145763021816624 -5.618037683752430 -1.012814624503933 26.000000000000000
-6.228740984102441 -5.618472917138922 -1.158694020153292 16.000000000000000
-6.303859108212195 -5.611393391342368 -1.305842468067766 15.000000000000000
-5.900684402963225 -5.182588309212959 -1.346003712415276 24.000000000000000
-5.403893361779449 -4.682937972003854 -1.344694941196861 17.000000000000000
-5.367382160369921 -4.588539187415549 -1.446299025130898 34.000000000000000
-5.340955322282386 -4.503966246367634 -1.548166753603913 18.000000000000000
-5.417640241720460 -4.505603774716198 -1.680548968805788 0.000000000000000
-5.486831930628402 -4.499895746115222 -1.812895374568184 14.000000000000000
-5.563998091381450 -4.498408204871050 -1.950206363811894 6.000000000000000
-5.581998353024427 -4.449091216965873 -2.069179965578085 23.000000000000000
-5.580973282683338 -4.383385259342146 -2.180469418762107 1.000000000000000
-5.436343605416677 -4.207619705538373 -2.232955131078630 6.000000000000000
-5.551343105271512 -4.233799081026030 -2.392056660921223 18.000000000000000
-5.719414143996092 -4.231992259592589 -2.694477196824246 6.000000000000000
-5.459787149438315 -3.977602526682712 -2.682019094368186 6.000000000000000
-5.409562475383023 -3.878161937761310 -2.766181087605679 49.000000000000000
-5.449070484014937 -3.845714076401400 -2.898292273530283 15.000000000000000
-5.925583207849740 -5.603426160166786 -0.579702436089147 13.000000000000000
-6.007432964036927 -5.605615136722021 -0.719258035447260 13.000000000000000
-6.096036869295277 -5.614121847545495 -0.861507033694457 5.000000000000000
-6.171690106910018 -5.609027900735125 -1.004513430992315 5.000000000000000
-6.263762852077209 -5.617118066005649 -1.152095293580597 4.000000000000000
-6.350976435171169 -5.620179799715676 -1.301951358065410 5.000000000000000
-5.976462891924738 -5.218178942757237 -1.350112522277886 24.000000000000000
-5.433763494149289 -4.680879205242685 -1.339850796013167 8.000000000000000
-5.322502213932676 -4.523005360707240 -1.421891940231513 21.000000000000000
-5.367695593805568 -4.499324575841747 -1.543213003271671 27.000000000000000
-5.468596113139134 -4.520489032051983 -1.683121939271566 0.000000000000000
-5.519992334432660 -4.499550085628189 -1.810203760555151 6.000000000000000
-5.600385857039399 -4.500100487162679 -1.948822685036095 9.000000000000000
-5.618440546458340 -4.450531136964885 -2.068211407187131 26.000000000000000
-5.587256934523601 -4.361082115020356 -2.168240469520737 1.000000000000000
-5.418073336801862 -4.167267443099654 -2.210931788798203 25.000000000000000
-5.569573662933744 -4.220962167846507 -2.384697798624244 14.000000000000000
-5.759175322987884 -4.234185088614423 -2.696882688298223 6.000000000000000
-5.486751083513814 -3.971508656242226 -2.679428584783150 5.000000000000000
-5.421306556296543 -3.861355199447893 -2.756263275950400 54.000000000000000
-5.584140649795961 -3.915253019393005 -2.953437149734241 2.000000000000000
-5.982734900820958 -5.625212337413728 -0.574189224478484 7.000000000000000
-6.062069800141172 -5.624165163911417 -0.714196014593794 10.000000000000000
-6.145202106428985 -5.626770578333091 -0.856341012649653 17.000000000000000
-6.218233652568438 -5.618559656577407 -0.999478677884688 15.000000000000000
-6.298820259296031 -5.615615277326850 -1.145418874532447 19.000000000000000
-6.377411244621002 -5.610468412413025 -1.293728723611440 8.000000000000000
-6.043574280736596 -5.245638476677541 -1.352014380551943 22.000000000000000
-5.508470431166721 -4.717066048488862 -1.345889075353389 21.000000000000000
-5.337140857605659 -4.508356314119058 -1.413518592385381 14.000000000000000
-5.367431322794876 -4.472064066591354 -1.530499258210486 12.000000000000000
-5.570831898630206 -4.577148326845553 -1.701178753470407 0.000000000000000
-5.559223432943325 -4.503944209137561 -1.809398072174849 4.000000000000000
-5.624763533334184 -4.491993700912717 -1.943183929800376 9.000000000000000
-5.651922038039889 -4.449433285326558 -2.066053415414793 25.000000000000000
-5.554130883948973 -4.308295391528321 -2.140870136953669 2.000000000000000
-5.432843195382932 -4.152486020610165 -2.202482840573005 38.000000000000000
-5.545411505935327 -4.176168364135935 -2.359290788400251 8.000000000000000
-5.823199150034985 -4.253870904332175 -2.710451989670353 8.000000000000000
-5.513726873636924 -3.965306318064101 -2.676781979701538 5.000000000000000
-5.442036287138646 -3.850929735626493 -2.750913524764797 42.000000000000000
-6.002155520916997 -5.611296314597836 -0.564959089232466 20.000000000000000
-6.078771739679144 -5.607325870469289 -0.704578398224101 9.000000000000000
-6.162113684390870 -5.609723004028942 -0.846604251531536 14.000000000000000
-6.244191508236113 -5.609296213209599 -0.991046114438933 6.000000000000000
-6.342812615693682 -5.621852772491093 -1.140264673938137 4.000000000000000
-6.436580045366065 -5.629298404916441 -1.292029716376749 9.000000000000000
-6.066102125224895 -5.234114291013705 -1.343811219981477 7.000000000000000
-5.562482286935738 -4.735031566773454 -1.346644299429171 22.000000000000000
-5.369745839123411 -4.508795194457291 -1.409857977831692 10.000000000000000
-5.379072238024619 -4.454815125685943 -1.521219265613126 4.000000000000000
-6.324990180786556 -5.165337177655874 -1.916333753311174 7.000000000000000
-5.598531100249291 -4.508162461965751 -1.808497922604377 2.000000000000000
-5.730831126342960 -4.548636371998409 -1.965517172825472 2.000000000000000
-5.697562474155367 -4.457671309510934 -2.068217674583516 14.000000000000000
-5.526750634686063 -4.260403028942532 -2.115953083831136 15.000000000000000
-5.435426982629838 -4.128446678192796 -2.189128945909392 39.000000000000000
-5.533115680600961 -4.140625453393943 -2.339116867493793 7.000000000000000
-5.905617415785751 -4.286451168633767 -2.732267065512857 23.000000000000000
-5.558890226276280 -3.971982785201791 -2.682851506563615 5.000000000000000
-5.465771866978508 -3.842556782029874 -2.747047738031230 15.000000000000000
-6.059531949866367 -5.632639285995721 -0.559205885525461 8.000000000000000
-6.136538508387848 -5.628156972372000 -0.699628636787748 7.000000000000000
-6.214373195574337 -5.624676035911937 -0.841642012476295 9.000000000000000
-6.290877954647204 -5.618459592050915 -0.985814572942041 13.000000000000000
-6.374988477513726 -5.617407441731597 -1.132889908660900 10.000000000000000
-6.463074518875160 -5.619296827976813 -1.283655297405157 9.000000000000000
-6.073627791334443 -5.209664991697139 -1.332283801078116 6.000000000000000
-5.601633229023562 -4.740031030999623 -1.343655831178393 21.000000000000000
-5.396372858338488 -4.504065887316469 -1.404554896221506 13.000000000000000
-5.408753167880786 -4.452448186532369 -1.517009662192099 0.000000000000000
-6.263489908793550 -5.084140164460544 -1.882782236627618 10.000000000000000
-5.677298075587864 -4.543724391834639 -1.820129449235215 1.000000000000000
-5.776654416954476 -4.556871285125123 -1.966886839114659 2.000000000000000
-5.761533623711118 -4.479868601644300 -2.076836925434393 5.000000000000000
-5.529485281712692 -4.235986569010388 -2.102709277690642 18.000000000000000
-5.443974542481409 -4.109022151836996 -2.178228210387333 38.000000000000000
-5.532785079360890 -4.114235289856865 -2.324119886171516 7.000000000000000
-5.918421769567503 -4.268202899436675 -2.721703835238109 13.000000000000000
-5.592011904622803 -3.969826433345463 -2.682979118008277 5.000000000000000
-5.595712004836079 -3.908273156227207 -2.796208879044485 2.000000000000000
-6.078967520807132 -5.618489885053907 -0.549855701542602 14.000000000000000
-6.156175992507045 -5.613793157181291 -0.690234407766218 29.000000000000000
-6.234216425212497 -5.610095316620302 -0.832201959890555 12.000000000000000
-6.319835263679915 -5.611579929848650 -0.977710044372889 6.000000000000000
-6.422095851946972 -5.625895063405029 -1.128066311863102 4.000000000000000
-6.516493248098370 -5.632480499099386 -1.280524570148298 13.000000000000000
-6.507468223519060 -5.548822998507367 -1.413380575473359 23.000000000000000
-5.643870262875820 -4.747387627832548 -1.341288621784467 21.000000000000000
-5.407913999595385 -4.486702448479526 -1.395300437822641 12.000000000000000
-5.498990241743518 -4.499482615638065 -1.529570695581089 0.000000000000000
-6.422877538192009 -5.181928427223647 -1.915475372987078 9.000000000000000
-5.680410330419678 -4.518485986450625 -1.807380111739287 1.000000000000000
-5.804331280761378 -4.550585227022675 -1.961972597866229 1.000000000000000
-5.828754408558845 -4.504108798780734 -2.086375319412066 5.000000000000000
-5.529052257951561 -4.209273119740193 -2.088333529940419 17.000000000000000
-5.467683277252304 -4.101024790000757 -2.173388886383371 24.000000000000000
-5.593314519465928 -4.132955476856356 -2.334610826809193 4.000000000000000
-7.070359060675663 -5.146878157854099 -3.092546520478864 30.000000000000000
-5.943343379258555 -4.258661122288089 -2.716702950588350 26.000000000000000
-5.600811511966411 -3.950343326040904 -2.671410491449900 6.000000000000000
-6.118930833597975 -5.623182493547819 -0.542298900885201 3.000000000000000
-6.205302806766743 -5.626143164525058 -0.684065909544348 3.000000000000000
-6.295548535694641 -5.632610834427381 -0.828195521965873 9.000000000000000
-6.375606996830546 -5.628255311175394 -0.973641399177008 9.000000000000000
-6.457336588922429 -5.623748482047248 -1.121050038149459 12.000000000000000
-6.534024045226065 -5.614467128512874 -1.270256918601901 10.000000000000000
-6.491833259491358 -5.502782191386953 -1.396017580518390 6.000000000000000
-5.695256281441239 -4.762126009510973 -1.340950319080907 21.000000000000000
-5.389109381343152 -4.444345350455545 -1.378294047655796 6.000000000000000
-6.624348823373633 -5.387647275676030 -1.827315927574918 5.000000000000000
-6.455258933218953 -5.176477050239505 -1.909916609027892 7.000000000000000
-5.713859084222471 -4.517349855495118 -1.804267344022654 0.000000000000000
-5.889970029636695 -4.589344366997876 -1.976448160485466 1.000000000000000
-5.874820053942911 -4.511606644868274 -2.088135727334468 5.000000000000000
-5.531539645153786 -4.184912318156742 -2.075133259198521 18.000000000000000
-5.576998785161928 -4.156745107855106 -2.202310300258576 48.000000000000000
-5.638742947123207 -4.140157487293044 -2.338599999290097 3.000000000000000
-7.089115271746824 -5.127625184657957 -3.081571130048342 22.000000000000000
-5.962143411590646 -4.244672758246366 -2.708877094854515 42.000000000000000
-5.649221254180091 -3.958667966506368 -2.678665181069905 6.000000000000000
-6.150118891386388 -5.619618686966407 -0.533879607130865 35.000000000000000
-6.227889449543990 -5.614237836346786 -0.674885561551590 21.000000000000000
-6.306486026248399 -5.609846096708154 -0.817472184225242 12.000000000000000
-6.401650630465280 -5.618449077910871 -0.964926507245998 4.000000000000000
-6.510602540830656 -5.637031666453534 -1.117042768531930 6.000000000000000
-6.590612138226884 -5.629822147565296 -1.267491313674267 16.000000000000000
-6.533319323898427 -5.505209713528591 -1.390949539719485 7.000000000000000
-5.734668154811586 -4.766554132917840 -1.337654234902928 21.000000000000000
-5.397394432674235 -4.424526173353250 -1.368300215394715 9.000000000000000
-5.516216574510989 -4.459353677770891 -1.508980940781384 0.000000000000000
-6.344367985805115 -5.056685770355072 -1.862229814115237 2.000000000000000
-5.771779377662190 -4.535266497524207 -1.808734533321009 0.000000000000000
-6.006506275254092 -4.651357344415009 -2.000873114390255 2.000000000000000
-5.908743675158228 -4.509546263822022 -2.085459344059830 5.000000000000000
-5.549228706382882 -4.172094609496185 -2.067661319865765 26.000000000000000
-5.613185641113828 -4.157412205132100 -2.202055111710918 46.000000000000000
-5.604562842041799 -4.088991307406844 -2.309625389009139 2.000000000000000
-7.089411771472295 -5.095101162711032 -3.062627773048947 17.000000000000000
-5.971709191998739 -4.224120305029150 -2.696870959990153 7.000000000000000
-5.817157492283107 -4.049896743481799 -2.742082252068677 11.000000000000000
-6.175414707771074 -5.610556371504052 -0.524890835526767 4.000000000000000
-6.274200089424708 -5.623542650930379 -0.668195548496035 3.000000000000000
-6.365051682941449 -5.629271940850495 -0.812840998866028 5.000000000000000
-6.448644495831431 -5.626838212194444 -0.959280928702019 12.000000000000000
-6.527912877049832 -5.619007126171526 -1.106782899073065 14.000000000000000
-6.608116551882524 -5.611599492370313 -1.257118440706942 11.000000000000000
-6.698980056859597 -5.611415823629492 -1.411942864324866 5.000000000000000
-5.786295019842548 -4.780837996702083 -1.337069180197837 21.000000000000000
-5.420812196029662 -4.417099576634942 -1.362131588895682 31.000000000000000
-5.420977816237150 -4.355932103848320 -1.470550584824691 7.000000000000000
-5.761995491840015 -4.564629252487800 -1.677846160810936 0.000000000000000
-6.426940197896967 -5.019194794671315 -1.998734426030751 5.000000000000000
-6.019259700537100 -4.632534495845956 -1.990487579033656 6.000000000000000
-5.939636301368954 -4.505012197237508 -2.081630541234785 6.000000000000000
-5.585312636322757 -4.172990131427785 -2.066983337508954 26.000000000000000
-5.627914343336607 -4.142084163478378 -2.193329643881126 36.000000000000000
-5.582365997036747 -4.046963743270122 -2.285819401393083 2.000000000000000
-5.519210148986606 -3.941253362652218 -2.369535241921047 0.000000000000000
-5.783240584161365 -4.000119129365260 -2.710068504040998 2.000000000000000
-6.221433902808426 -5.620130993316933 -0.517578796845783 19.000000000000000
-6.299765241092742 -5.614062328306591 -0.659210194860845 21.000000000000000
-6.384897699672409 -5.614232350542867 -0.803166532442601 7.000000000000000
-6.483720288588535 -5.624591283732631 -0.951756329269362 4.000000000000000
-6.584350698645651 -5.634471075599016 -1.103067348570612 7.000000000000000
-6.661859583478429 -5.623974611004019 -1.253555130338831 9.000000000000000
-6.750024484247077 -5.620715148985327 -1.408384420544273 14.000000000000000
-5.844144275874266 -4.799876843762370 -1.337744358044474 23.000000000000000
-5.447276006470950 -4.412053120073155 -1.356676591888663 8.000000000000000
-5.410749422796681 -4.321473655981795 -1.455483467566944 4.000000000000000
-5.780178160949048 -4.551208448208196 -1.669723955822043 0.000000000000000
-6.428432888538337 -4.989641206943012 -1.983962505576892 5.000000000000000
-6.044235164030186 -4.623088819576155 -1.984128788211834 6.000000000000000
-5.949007542018631 -4.484110791806413 -2.070237588251825 11.000000000000000
-5.615293563317936 -4.169151960840495 -2.063955940707070 25.000000000000000
-5.651832794139603 -4.133474964523248 -2.188165163955329 14.000000000000000
-5.547593820263566 -3.996214487397236 -2.257093834134935 5.000000000000000
-5.548979584440663 -3.937147477027044 -2.367553867518180 7.000000000000000
-6.243784118190030 -5.608149245611273 -0.508218382575474 5.000000000000000
-6.340239724406305 -5.617708626521091 -0.651710077082404 3.000000000000000
-6.440677105108993 -5.630583203330591 -0.797919305504164 7.000000000000000
-6.524848262927397 -5.627388842478708 -0.945025905104976 18.000000000000000
-6.607679034355849 -5.621381202262736 -1.093703413993630 18.000000000000000
-6.688427330857364 -5.613187544087219 -1.244775254712415 7.000000000000000
-6.801177007086415 -5.629778999728881 -1.404699160849303 5.000000000000000
-5.889951734374145 -4.808670383664828 -1.335499048299076 24.000000000000000
-5.547181786470602 -4.466018119112989 -1.369291929284366 5.000000000000000
-5.391139549415635 -4.279805288941319 -1.438021226365064 1.000000000000000
-5.773737477385487 -4.518489251075128 -1.654529065973999 1.000000000000000
-6.439015734032642 -4.967246406402366 -1.972045515438940 5.000000000000000
-6.032210510902761 -4.585429939335953 -1.965668492802314 2.000000000000000
-5.976801685201881 -4.477066256732287 -2.065241716748209 7.000000000000000
-5.654563961847717 -4.172023050767712 -2.064244671843896 23.000000000000000
-5.660295254083520 -4.113545917006011 -2.177012086618435 2.000000000000000
-5.527961297481074 -3.956750821415318 -2.234748941331121 10.000000000000000
-5.569507346920068 -3.926383035325738 -2.361577475440858 4.000000000000000
-6.377783136267258 -5.618537589811493 -0.643811788196078 10.000000000000000
-6.463527126525626 -5.617926145337702 -0.788494077465680 8.000000000000000
-6.559999414287899 -5.624826528142572 -0.937335699120660 4.000000000000000
-6.649156749023337 -5.623586872797560 -1.087272372046832 4.000000000000000
-6.751470428166280 -5.632746915193366 -1.242662161239272 11.000000000000000
-6.837181697095125 -5.626054247541395 -1.397768237093992 13.000000000000000
-5.948098548277245 -4.827183799135398 -1.335887805673391 26.000000000000000
-5.629072597403921 -4.504740427392568 -1.377118504331159 15.000000000000000
-5.402046817927618 -4.262542107136089 -1.428778835862964 3.000000000000000
-5.828742638236776 -4.533770427013485 -1.656897393424994 0.000000000000000
-6.446417147607455 -4.942471060993952 -1.959189059348246 5.000000000000000
-6.060157118827705 -4.578228067543764 -1.960270250928781 3.000000000000000
-5.998413616014582 -4.465303665102124 -2.058065419182883 5.000000000000000
-5.697002468515000 -4.176986977038638 -2.065561102311818 20.000000000000000
-5.532374282919021 -3.995182746154411 -2.113784667019408 7.000000000000000
-5.532882686313646 -3.935057372118620 -2.222446547754434 11.000000000000000
-5.608594042052079 -3.928559090589871 -2.363394242017525 4.000000000000000
-6.427374455933536 -5.629715072364849 -0.637016331973601 3.000000000000000
-6.519498949360790 -5.633838052989852 -0.783011010118669 12.000000000000000
-6.601232657938833 -5.627274746929221 -0.930420506187662 22.000000000000000
-6.681578685571899 -5.617944087260121 -1.079271282361548 10.000000000000000
-6.775044953422444 -5.619128326080603 -1.233169385828106 5.000000000000000
-6.879330928552666 -5.627181328070598 -1.391995788956391 22.000000000000000
-6.012543238986603 -4.850365895430600 -1.337488123222112 25.000000000000000
-5.671274591375862 -4.511245318154830 -1.375022250234759 17.000000000000000
-5.431379745566058 -4.259760847577847 -1.424379015886442 6.000000000000000
-5.868453377105788 -4.536849077370689 -1.654767479102850 0.000000000000000
-6.456800988163981 -4.920055858038314 -1.947273825898013 6.000000000000000
-6.103598868958823 -4.582544150172822 -1.959788243296053 4.000000000000000
-6.038607165281674 -4.467229074814432 -2.057190291767252 5.000000000000000
-5.938191894029484 -4.326500701054774 -2.138310714899749 21.000000000000000
-5.527890883957133 -3.966695341682943 -2.098130225065753 8.000000000000000
-5.559442986035186 -3.928737319370909 -2.218832296593520 6.000000000000000
-5.647752471644655 -3.930558703143384 -2.365116551076390 4.000000000000000
-6.449996795654067 -5.617081848328707 -0.627462226136703 12.000000000000000
-6.542367584143458 -5.620924792545424 -0.773453858027140 10.000000000000000
-6.627352580621782 -5.616680719012253 -0.921298796700531 4.000000000000000
-6.741428964070963 -5.635084497692715 -1.075575300129354 6.000000000000000
-6.829152627282710 -5.630629698114155 -1.229137744922256 11.000000000000000
-6.909270940602830 -5.618147527456326 -1.383668106547830 6.000000000000000
-6.052576646820143 -4.853502971076315 -1.333494973414153 19.000000000000000
-5.707395688600620 -4.512679684684603 -1.371339679721233 21.000000000000000
-5.457647542956710 -4.254445383161745 -1.419110206626772 7.000000000000000
-5.920618902183087 -4.549265755822569 -1.656006309774343 0.000000000000000
-6.460885909018247 -4.892928746022363 -1.933500855184063 7.000000000000000
-6.134698195849700 -4.577391607236716 -1.955240169349357 5.000000000000000
-6.063320888472894 -4.457544453442002 -2.050960079815484 10.000000000000000
-6.177366145075030 -4.472479080326203 -2.209225743495975 24.000000000000000
-5.526371683012801 -3.940488846438539 -2.083689917499175 12.000000000000000
-5.573557005935514 -3.913563168198596 -2.210222981987680 14.000000000000000
-5.680756277647425 -3.928076732715800 -2.364153399393984 3.000000000000000
-6.505762823760705 -5.633094070277858 -0.621035648230904 5.000000000000000
-6.592468536096030 -5.631220177750685 -0.767029276023681 14.000000000000000
-6.671706723890116 -5.621366895373792 -0.914629770997561 11.000000000000000
-6.758673571603852 -5.616408014950488 -1.064986648791225 9.000000000000000
-6.871121240263456 -5.631829797124596 -1.222787813899000 22.000000000000000
-6.960726679556642 -5.626390887456308 -1.379545459220882 13.000000000000000
-6.058758942196039 -4.829424649363195 -1.322005157509879 8.000000000000000
-5.749752862863745 -4.518811938140031 -1.369043711396134 23.000000000000000
-5.499415602902785 -4.261024507289064 -1.417779311046456 8.000000000000000
-5.920139803367411 -4.521130923124623 -1.642468838228342 0.000000000000000
-6.464843888147199 -4.865822076048602 -1.919746083763135 9.000000000000000
-6.137789411466900 -4.551326505817412 -1.941758012196337 3.000000000000000
-6.094256693802516 -4.452319010199290 -2.046775703749985 16.000000000000000
-6.192982544186327 -4.455574652321419 -2.199641271888285 26.000000000000000
-5.552811159731554 -3.934230164628344 -2.079802210809754 7.000000000000000
-5.578251561239909 -3.891814642331907 -2.197906346789030 31.000000000000000
-5.723160456265543 -3.931883124687958 -2.366986583323284 3.000000000000000
-6.528402250534139 -5.620205600179691 -0.611350199909688 19.000000000000000
-6.606225597486955 -5.610328344270706 -0.756306303412059 14.000000000000000
-6.706983855044085 -5.618187390114986 -0.906616797622299 4.000000000000000
-6.827902082211435 -5.640682351766508 -1.062476240770875 10.000000000000000
-6.894711132552066 -5.617822792448326 -1.213095821157880 24.000000000000000
-7.003038114795381 -5.626966304433902 -1.373481478392994 6.000000000000000
-6.061742964374269 -4.802903529485779 -1.309857213711516 3.000000000000000
-5.792194086540714 -4.524748728740380 -1.366642822980860 23.000000000000000
-5.774227414848665 -4.446813339151989 -1.475887830544734 48.000000000000000
-5.956870759053738 -4.521385184558977 -1.639238473432444 0.000000000000000
-6.471792565963492 -4.841068218006403 -1.906928286996655 7.000000000000000
-6.156366641610137 -4.536787778172932 -1.933196945448303 3.000000000000000
-6.134586305841582 -4.453770310973344 -2.045650232389046 16.000000000000000
-6.208537966179950 -4.438625038389423 -2.190037463397516 27.000000000000000
-5.591775363151463 -3.936674653988293 -2.080515550698547 7.000000000000000
-5.589103085165714 -3.874415223545449 -2.188051502810286 43.000000000000000
-5.753135822399696 -3.926953416122029 -2.364572070508509 2.000000000000000
-6.581321766977996 -5.633182877012467 -0.604409193870509 5.000000000000000
-6.665576730570804 -5.627970131656583 -0.750716355259711 6.000000000000000
-6.751459944644661 -5.622496464392263 -0.899747811197800 14.000000000000000
-6.848212789021606 -5.624282991824235 -1.052234966230225 10.000000000000000
-6.952146308245895 -5.631176097531343 -1.209256576304069 10.000000000000000
-7.039224252333156 -5.622418039145130 -1.366119071845550 16.000000000000000
-7.090349988297421 -5.584270577680878 -1.517222185013922 4.000000000000000
-5.840932144426102 -4.535314403503572 -1.365589596322019 23.000000000000000
-5.888372584400206 -4.507183298912834 -1.492133712937705 57.000000000000000
-6.608305844967404 -4.985157159049216 -1.803686768524392 5.000000000000000
-6.494256555952765 -4.827935353819674 -1.898687969310017 6.000000000000000
-6.193676961877174 -4.535939405643032 -1.930459893457172 2.000000000000000
-6.178113566182915 -4.457300508983705 -2.045465457044001 18.000000000000000
-6.217761192283287 -4.417175362586013 -2.178217521713346 27.000000000000000
-5.624535739914231 -3.934553151624291 -2.078815337510965 8.000000000000000
-5.603021283837659 -3.859153213962457 -2.179409315393838 48.000000000000000
-5.792541314641594 -3.928277431030109 -2.365934391108451 2.000000000000000
-6.603967939261801 -5.620046792206502 -0.594596931216149 25.000000000000000
-6.685391117070361 -5.612013310396949 -0.740575597575410 7.000000000000000
-6.802137994200389 -5.631679601701841 -0.893576841480853 3.000000000000000
-6.890011573266859 -5.625403948747769 -1.045230564833298 36.000000000000000
-6.972657634009845 -5.614419904716752 -1.198898933357010 9.000000000000000
-7.100216021212821 -5.637392951661553 -1.363435792646424 9.000000000000000
-6.800519724622091 -5.323913945646085 -1.440974591858244 8.000000000000000
-5.886668707288789 -4.543245603627701 -1.363690183195759 21.000000000000000
-5.921794415920638 -4.505214585589479 -1.487661397416414 56.000000000000000
-6.618518274742797 -4.962287898399954 -1.791706075306154 6.000000000000000
-6.475958250673568 -4.784629201799953 -1.878593127001184 5.000000000000000
-6.243585201651494 -4.544059993294439 -1.931518212976368 2.000000000000000
-6.212298133276672 -4.453876636689134 -2.042077081905057 14.000000000000000
-6.223748728122348 -4.393496234869695 -2.165304275011084 26.000000000000000
-5.660478928880829 -3.934474188637816 -2.078194205226966 8.000000000000000
-5.623174350742702 -3.848155340381872 -2.173180778821647 48.000000000000000
-5.835158229513157 -3.931541418412189 -2.368477678141456 3.000000000000000
-6.641812018994055 -5.619718177596714 -0.586089335114697 3.000000000000000
-6.744938104125554 -5.629194043844455 -0.734738312776255 10.000000000000000
-6.837551512574981 -5.627979341890770 -0.885289692775382 10.000000000000000
-6.934949595384294 -5.628842629832191 -1.038589792970758 4.000000000000000
-7.033358648196984 -5.629808985397292 -1.195349703548137 14.000000000000000
-7.117875942873151 -5.617762599297913 -1.352334810539599 9.000000000000000
-6.742670383700513 -5.246970263012146 -1.414672808756223 10.000000000000000
-5.941868900527720 -4.558148490181408 -1.363825615831602 18.000000000000000
-5.955250633639473 -4.503100147399008 -1.483112589465710 55.000000000000000
-6.622363005237080 -4.934732338823531 -1.778040767540653 6.000000000000000
-6.451143608840541 -4.736853335941645 -1.856777480446789 5.000000000000000
-6.287312171398640 -4.547396883647373 -1.930518904848301 2.000000000000000
-6.255959956414249 -4.457034324336820 -2.041693918153474 9.000000000000000
-6.239081580698700 -4.376455101811036 -2.155667360985538 8.000000000000000
-5.696475002420121 -3.934234492173124 -2.077487787544841 6.000000000000000
-5.636997803140826 -3.832795724416510 -2.164494560464410 45.000000000000000
-5.862098858814362 -3.924061001905601 -2.364559625556304 14.000000000000000
-6.676641579306938 -5.616653671332114 -0.577230246765733 12.000000000000000
-6.770883775744844 -5.618086943328272 -0.725131707043371 5.000000000000000
-6.885311117265758 -5.634211173914659 -0.878496025142829 40.000000000000000
-6.967585959731247 -5.622096124699580 -1.030012164197084 12.000000000000000
-7.066274570208114 -5.622683771246793 -1.186951939628592 5.000000000000000
-7.182163168315015 -5.634717762252970 -1.349989616052687 8.000000000000000
-6.740581867223904 -5.213859452298325 -1.400257727324401 10.000000000000000
-5.981560395662595 -4.560851990075334 -1.360257460066507 18.000000000000000
-6.001288970002265 -4.510270521430893 -1.481585138303114 54.000000000000000
-6.638653591966041 -4.916509920732038 -1.767742256444592 6.000000000000000
-6.438658121691146 -4.698445635285126 -1.838665332313296 5.000000000000000
-6.350033960243107 -4.564130923658520 -1.935177928631695 3.000000000000000
-6.302855456078118 -4.462226715358590 -2.042226686860789 7.000000000000000
-8.525504418784937 -5.942393161954169 -2.925295525932173 21.000000000000000
-5.805206762919746 -3.983711459433938 -2.103026734905090 6.000000000000000
-5.653926268141569 -3.819531086801655 -2.156996993826025 43.000000000000000
-5.870087486913567 -3.903863616617632 -2.352986561548932 8.000000000000000
-6.735989516772948 -5.633926373358899 -0.570367293501308 4.000000000000000
-6.830637543610777 -5.634787738735244 -0.719036777372263 9.000000000000000
-6.905359710043495 -5.617611740345699 -0.868090784214544 13.000000000000000
-7.021930452397395 -5.632621802672629 -1.024531282953847 8.000000000000000
-7.114751349546137 -5.627725963987507 -1.181066343772566 12.000000000000000
-7.224762814863805 -5.634326858834282 -1.343414722555855 9.000000000000000
-6.747723577237124 -5.188022867510559 -1.387811677204703 17.000000000000000
-6.002489084943307 -4.549106919669086 -1.352351662310990 21.000000000000000
-6.031697772004575 -4.505480281072784 -1.476093975348231 54.000000000000000
-6.651727513310299 -4.895921074974575 -1.756591562171067 6.000000000000000
-6.425970380712263 -4.660147799846460 -1.820621638285924 6.000000000000000
-6.384478440644361 -4.560242680131425 -1.931067512868230 5.000000000000000
-6.346679003575674 -4.464975790059222 -2.041625043869884 8.000000000000000
-8.296088199436884 -5.745792056370963 -2.826870041602262 1.000000000000000
-6.158266024640315 -4.198945658867192 -2.216030442850711 9.000000000000000
-5.670814564705441 -3.806209300371051 -2.149472710804573 37.000000000000000
-5.868486758608416 -3.877381812167672 -2.337630733608073 7.000000000000000
-6.752510241498608 -5.615179767236528 -0.559787120318035 10.000000000000000
-6.881285429670431 -5.643615300996570 -0.711829452722240 19.000000000000000
-6.962504410787569 -5.630991331265983 -0.862255737569193 11.000000000000000
-7.048417288984203 -5.620587605870758 -1.014885552700677 11.000000000000000
-7.166428094559507 -5.634997679818382 -1.175573695669333 6.000000000000000
-7.242384997732731 -5.614345143882025 -1.332136685923848 4.000000000000000
-6.764164540628691 -5.169383283164384 -1.377291014652332 6.000000000000000
-6.067424072146186 -4.570455519985567 -1.354236858372436 34.000000000000000
-6.068428294786533 -4.505241608114191 -1.472065244325422 53.000000000000000
-6.655244385502390 -4.868370859897293 -1.742949035325424 6.000000000000000
-6.454210847199948 -4.651603175526492 -1.814207881505965 6.000000000000000
-6.418951957047880 -4.556205446519089 -1.926879265086677 4.000000000000000
-6.381063542575625 -4.460872813521667 -2.037877770425773 17.000000000000000
-8.258998923964615 -5.683748304276863 -2.794710358441672 1.000000000000000
-6.157250631241238 -4.171340397075584 -2.200845282114277 21.000000000000000
-5.684486773200669 -3.790712734240463 -2.140725832929999 35.000000000000000
-5.882625244024568 -3.861364434705780 -2.328589474500434 9.000000000000000
-6.815115440864480 -5.634542459897274 -0.552931094536485 6.000000000000000
-6.894943785885744 -5.621966649842533 -0.700726178713107 62.000000000000000
-6.988742244223999 -5.619146676559581 -0.852488399398091 4.000000000000000
-7.112263028564259 -5.638087117582585 -1.010500998053554 11.000000000000000
-7.205695822398977 -5.632255068924795 -1.167925748338867 10.000000000000000
-7.278751427027019 -5.608811662420706 -1.324260321479732 0.000000000000000
-6.097860000580719 -4.565516793815382 -1.348278835666941 39.000000000000000
-6.105205520969562 -4.504838810794030 -1.467949874991171 52.000000000000000
-6.658634329507647 -4.840843401444641 -1.729325888487227 5.000000000000000
-6.469762837949641 -4.633857804898764 -1.804198066916328 6.000000000000000
-6.431222408300844 -4.536337828232423 -1.915989938156424 3.000000000000000
-5.964040912500884 -4.143023244640411 -1.890923157715531 11.000000000000000
-5.968898725393934 -4.081577421503964 -2.005739204946578 4.000000000000000
-5.949197459524948 -4.004510279308697 -2.112231760601307 10.000000000000000
-5.704469737982122 -3.779394624704730 -2.134344226969771 32.000000000000000
-5.925346247028623 -3.863982697084648 -2.330796767085080 15.000000000000000
-6.843949622929205 -5.625712810169401 -0.543217209137434 7.000000000000000
-6.948792153782878 -5.632934048609762 -0.693632184618271 6.000000000000000
-7.036731325904824 -5.624607203878199 -0.845286962582063 14.000000000000000
-7.135667032943939 -5.623285406825840 -1.000258580736294 5.000000000000000
-7.241863874340215 -5.626906013881042 -1.159686309514561 9.000000000000000
-6.106187485759597 -4.543984821484759 -1.337408064454902 33.000000000000000
-6.142028649088059 -4.504271590155820 -1.463747763754628 51.000000000000000
-6.658723718949939 -4.811045987546134 -1.714904936260238 6.000000000000000
-6.494788029368910 -4.622855694115324 -1.796807637158703 6.000000000000000
-6.475249216385953 -4.538757327933269 -1.914503983757970 7.000000000000000
-5.955976832277579 -4.111264401089791 -1.874678905227386 15.000000000000000
-5.970376550338854 -4.056554779139556 -1.992262826788659 14.000000000000000
-5.867648982341704 -3.924212309626629 -2.069296781275999 9.000000000000000
-5.730808778500721 -3.772202916222665 -2.130298547880150 28.000000000000000
-5.964955796697976 -3.864337272346786 -2.331651729780976 15.000000000000000
-6.888233139056037 -5.629399947975107 -0.534644225394862 114.000000000000000
-6.971695759993287 -5.618619129609950 -0.683357378296881 12.000000000000000
-7.091036422041549 -5.634801873126890 -0.838705140013993 4.000000000000000
-7.187202760254400 -5.630469966892770 -0.993871437817807 8.000000000000000
-7.265485458567389 -5.611697827018907 -1.149379201820319 1.000000000000000
-6.722698503016566 -4.972346567851880 -1.458505552512719 51.000000000000000
-6.185247232675215 -4.508168159471840 -1.460958766224384 50.000000000000000
-6.671397104655106 -4.790427376874874 -1.703763545474310 6.000000000000000
-6.510234683568187 -4.604994121608354 -1.786744946772858 5.000000000000000
-6.187477601860957 -4.309814114029081 -1.815532767257234 12.000000000000000
-5.992467874689420 -4.110260256081806 -1.872459718682782 17.000000000000000
-5.923782104511936 -3.999187442385865 -1.962918586933073 10.000000000000000
-5.868742633360317 -3.899651167754257 -2.055767660318615 9.000000000000000
-5.769945674178290 -3.773268514624458 -2.130921780257311 19.000000000000000
-6.004627652769302 -3.864511637772182 -2.332410888570359 15.000000000000000
-6.910887615540497 -5.615258051864122 -0.524318010699726 7.000000000000000
-7.028800704277854 -5.631656261592708 -0.676337497708642 8.000000000000000
-7.120443600850319 -5.624985615929669 -0.829074030285655 11.000000000000000
-7.241968950673080 -5.639857526599902 -0.987783780562057 14.000000000000000
-6.735462263340642 -4.951455199222024 -1.447375386418924 30.000000000000000
-6.228540190184009 -4.511864699681317 -1.458063109413364 49.000000000000000
-6.674422625643177 -4.762953340036771 -1.690189958239903 7.000000000000000
-6.535199409035433 -4.593823572125600 -1.779272231089477 5.000000000000000
-6.058141067894853 -4.193188605881314 -1.764049919076251 8.000000000000000
-6.035409088558201 -4.113456836428611 -1.872140483133620 16.000000000000000
-5.851207694242198 -3.924916346752351 -1.925309375097175 9.000000000000000
-5.863306792281492 -3.870887011560862 -2.040030196667476 10.000000000000000
-5.812352277089153 -3.776237767073539 -2.132625924428377 13.000000000000000
-6.041156066492888 -3.862456380504456 -2.331837063127820 15.000000000000000
-6.961460121742710 -5.623618724675603 -0.516024624280582 16.000000000000000
-7.048585034963267 -5.614594859109684 -0.665634714352377 7.000000000000000
-7.181170540923596 -5.639656709663628 -0.822973790176288 6.000000000000000
-7.255954006509154 -5.617332743126854 -0.976057533354812 3.000000000000000
-6.773608932065524 -4.949140929463494 -1.441655331815263 2.000000000000000
-6.268716340093061 -4.513064064750123 -1.454320526882348 51.000000000000000
-6.683714875662290 -4.740037547165290 -1.678241791969767 9.000000000000000
-6.576152798065105 -4.593738111194787 -1.776074475425228 5.000000000000000
-6.200586498789495 -4.264748978815528 -1.791741950929692 10.000000000000000
-6.072007433436017 -4.112107450565078 -1.869738495968066 18.000000000000000
-5.852043380399007 -3.900314713171628 -1.912087187380610 8.000000000000000
-5.857723237448687 -3.842188160287531 -2.024335104274976 8.000000000000000
-5.845196494213295 -3.772787604988714 -2.130710593130877 9.000000000000000
-6.077730054852479 -3.860237695227632 -2.331177023884398 15.000000000000000
-6.993442080034804 -5.616736865451363 -0.506251772814735 5.000000000000000
-7.112099697029850 -5.632142337847081 -0.658958713227425 10.000000000000000
-7.223189563018104 -5.639323914769832 -0.814590891804833 15.000000000000000
-6.741601149562052 -4.895685014512539 -1.421051082438974 2.000000000000000
-6.302554671906919 -4.509504302662378 -1.449010542368057 52.000000000000000
-6.676891674448427 -4.705821113833754 -1.662305992372563 8.000000000000000
-6.594697225063921 -4.577873487406956 -1.766760550564425 5.000000000000000
-6.507460931130015 -4.447576369973475 -1.866016254771121 5.000000000000000
-6.099000347434934 -4.104099916201849 -1.864300040181440 20.000000000000000
-5.849542279825085 -3.873611957075674 -1.897843387252779 9.000000000000000
-5.858433780638062 -3.817752803036800 -2.010893625427133 7.000000000000000
-5.861968567995945 -3.758866075706357 -2.122887263311800 9.000000000000000
-6.111129044470825 -3.855823769553987 -2.329203481872625 15.000000000000000
-7.150684191975173 -5.629636214314510 -0.649836657257010 3.000000000000000
-7.249514924199713 -5.626586727323549 -0.804362582242677 6.000000000000000
-6.738085103196433 -4.863220542566532 -1.406584194579617 13.000000000000000
-6.342830003989908 -4.510354410974578 -1.445083605846923 53.000000000000000
-6.608883207603320 -4.628947304679088 -1.631359432731799 7.000000000000000
-6.603541787552237 -4.555290171166579 -1.754853645329022 5.000000000000000
-6.622367417955785 -4.497504329243751 -1.884378037982654 4.000000000000000
-6.138889563303334 -4.104603870553196 -1.862717905482501 16.000000000000000
-5.859816202998687 -3.855450204378297 -1.887790716322498 16.000000000000000
-5.852570950106706 -3.789168569058986 -1.995274123829243 8.000000000000000
-5.859328242974361 -3.732548603143187 -2.108068657861225 9.000000000000000
-6.157465919058941 -3.859354316189723 -2.332042391925020 15.000000000000000
-7.195583839700954 -5.631878378304459 -0.641185728023640 8.000000000000000
-7.282122236454307 -5.618616888224527 -0.794772921466148 0.000000000000000
-6.734413426551654 -4.830816568233061 -1.392157708151545 9.000000000000000
-6.383161057720171 -4.511020593953011 -1.441059371482149 51.000000000000000
-6.624110309226339 -4.610738974672676 -1.621133158823072 7.000000000000000
-6.625187163723663 -4.541537899602714 -1.746347202621341 5.000000000000000
-6.663415343296496 -4.496730760375617 -1.881447429882796 4.000000000000000
-5.981708788194232 -3.973962712551751 -1.801664877963773 5.000000000000000
-5.892656782589211 -3.852066344211039 -1.884973454031106 10.000000000000000
-5.862739185426426 -3.771057028196495 -1.985175592675697 20.000000000000000
-5.859791999946747 -3.708327936605658 -2.094439694035167 10.000000000000000
-6.203890266963031 -3.862667674819513 -2.334765082269690 16.000000000000000
-7.135320415087067 -4.216106897058509 -3.086742815107434 18.000000000000000
-7.240542484547480 -5.633914942986708 -0.632426236532046 26.000000000000000
-6.740224609175173 -4.805344984232565 -1.379744831619343 11.000000000000000
-6.423546925621118 -4.511502508503391 -1.436937719635436 48.000000000000000
-6.716697788344422 -4.646043136392960 -1.629674198981204 3.000000000000000
-6.646796618959482 -4.527706020311709 -1.737802318971258 5.000000000000000
-6.701279924577237 -4.493601235140987 -1.877512000493600 3.000000000000000
-5.920855457415077 -3.908362841224208 -1.770173594237566 12.000000000000000
-5.935252535605983 -3.854853021843401 -1.885168830255675 10.000000000000000
-5.905263689184778 -3.773647244557887 -1.985976645088364 18.000000000000000
-5.866625268209234 -3.688216811445939 -2.083137228839344 20.000000000000000
-6.230949542402219 -3.853732984144310 -2.330097398598556 17.000000000000000
-7.083543221963623 -4.156815211302569 -3.046621525830994 15.000000000000000
-7.269775840189904 -5.623536382293996 -0.622207192506585 1.000000000000000
-6.749144940655478 -4.782163356380358 -1.367995688194051 13.000000000000000
-6.483349614232116 -4.525314941501983 -1.437010250434964 40.000000000000000
-6.667301421405868 -4.583080444063069 -1.603736075345916 0.000000000000000
-6.665131167447198 -4.511602358069934 -1.728379207055479 5.000000000000000
-8.685046978474915 -5.786829353952297 -2.414437617732083 6.000000000000000
-6.008936101689216 -3.941073844332508 -1.783210553842199 12.000000000000000
-5.968175543086240 -3.851151377231161 -1.882184304619974 10.000000000000000
-5.944612129738261 -3.773975397489183 -1.985586141701006 19.000000000000000
-5.896123955036144 -3.682312096606196 -2.079864401838884 14.000000000000000
-6.241760202884210 -3.834705475770037 -2.319336000623921 0.000000000000000
-7.077750656996884 -4.199852746095419 -2.893934786496568 10.000000000000000
-7.109193085378353 -4.143189360618112 -3.039957170236039 12.000000000000000
-6.770878329230825 -4.768063385533985 -1.358838549012560 0.000000000000000
-6.698546480893573 -4.646529147967056 -1.471019347391753 31.000000000000000
-6.659675660282216 -4.549208316714732 -1.588025122905217 0.000000000000000
-6.693152354645794 -4.501986956061280 -1.721432253954111 5.000000000000000
-6.780369176404761 -4.488987707292288 -1.870272492295958 4.000000000000000
-6.035475468647956 -3.933051126273351 -1.777792087244359 30.000000000000000
-6.010896125734238 -3.853566344325698 -1.882182296036545 10.000000000000000
-5.990534106858751 -3.778231298716768 -1.987260769994471 19.000000000000000
-5.945183594767386 -3.688406217523616 -2.083375050019046 10.000000000000000
-8.378994623188451 -5.113375031519101 -3.093720881336263 45.000000000000000
-7.079903268772356 -4.245983834313173 -2.745285228091550 0.000000000000000
-7.077315470316545 -4.170965266774381 -2.876503168254781 19.000000000000000
-6.690901527614570 -4.612400312249588 -1.455725285665163 26.000000000000000
-6.729833736045825 -4.568332555246464 -1.590792113965497 5.000000000000000
-6.747191540422135 -4.509651367959845 -1.721065616504460 5.000000000000000
-6.782514450231377 -4.461769048872853 -1.856259326420421 7.000000000000000
-6.022882856744923 -3.899581951719045 -1.760876683858129 25.000000000000000
-6.047161789811180 -3.851624354490256 -1.880044712166487 12.000000000000000
