# This PCD file was generated using the MATLAB® pcwrite function
# from Computer Vision Toolbox®.
# .PCD v.7 - Point Cloud Data file format
VERSION .7
FIELDS x y z intensity
SIZE 8 8 8 8
TYPE F F F F
COUNT 1 1 1 1
WIDTH 637
HEIGHT 1
VIEWPOINT 0 0 0 1 0 0 0
POINTS 637
DATA ascii
2.354681436388153 -4.674683986310557 -2.875341538193447 16.000000000000000
2.361286176158387 -4.650235568883005 -2.982566134753536 30.000000000000000
2.348950364137981 -4.586747136329437 -3.065321988664447 22.000000000000000
2.031190212610093 -4.623420982425783 -0.979275619762885 5.000000000000000
2.247529752666730 -5.081415378666706 -1.179079200192811 20.000000000000000
2.222858423817985 -4.992203991071107 -1.259549022148457 74.000000000000000
2.240651297733156 -4.997403875056695 -1.363881326045289 75.000000000000000
2.252737579809001 -4.990341539962030 -1.465567709471547 78.000000000000000
2.269353620243644 -4.992011087053335 -1.570183254599174 77.000000000000000
2.285211248504561 -4.991730594084182 -1.675719315933372 77.000000000000000
2.301699078952831 -4.993171568267260 -1.782924294465460 78.000000000000000
2.246258231541106 -4.838016505895770 -1.832353744753970 8.000000000000000
2.236146069326680 -4.781957414223772 -1.916243733240927 6.000000000000000
2.239693633675300 -4.755346036842123 -2.011178882437924 8.000000000000000
2.247234603474698 -4.737186845316789 -2.110474219104200 31.000000000000000
2.207934157387136 -4.621084149232206 -2.164303130884859 39.000000000000000
2.201191238705248 -4.574099012571337 -2.248795089340328 50.000000000000000
2.214474533090773 -4.568392296124308 -2.353956323087681 15.000000000000000
2.321312797302576 -4.754858534362650 -2.564610538713033 8.000000000000000
2.323589490036753 -4.723692709803037 -2.664143214082979 10.000000000000000
2.330654815566320 -4.703811894317490 -2.770974159669271 13.000000000000000
2.342204858998449 -4.691137817955967 -2.883670988761961 15.000000000000000
2.342467376880368 -4.654217953207701 -2.983138922727254 28.000000000000000
2.327084941535433 -4.584616274673332 -3.061735666069077 22.000000000000000
1.982363075714920 -4.550049659231776 -0.964583192144092 46.000000000000000
2.055623442752413 -4.686577243961016 -1.088223321746729 6.000000000000000
2.180341064694420 -4.937997201172285 -1.246553842728773 34.000000000000000
2.220002684258157 -4.993236198818787 -1.363306401617877 74.000000000000000
2.233536760215641 -4.989811096559073 -1.465844044031068 79.000000000000000
2.251575710762056 -4.995092141143188 -1.571451978329565 78.000000000000000
2.267282462104326 -4.994895917802116 -1.676943948782400 72.000000000000000
2.283612899009801 -4.996424124275314 -1.784105965977278 79.000000000000000
2.298127392709695 -4.992325849063950 -1.890671072303496 75.000000000000000
2.284871853417184 -4.928345696085839 -1.974631437340678 13.000000000000000
2.240911709225458 -4.799153934546587 -2.029290571599406 6.000000000000000
2.232556967251103 -4.747160931425531 -2.114352969379907 32.000000000000000
2.190348480227331 -4.624271507284878 -2.165091813775817 39.000000000000000
2.180470220965212 -4.570710737258394 -2.246275355292567 49.000000000000000
2.193628321408352 -4.565148883307303 -2.351269117041529 15.000000000000000
2.421928031445829 -5.004705861633393 -2.698070393638624 11.000000000000000
2.367568032513402 -4.855697150304368 -2.737145008205935 9.000000000000000
2.322902893393963 -4.729819744790686 -2.784695195106661 9.000000000000000
2.331190063838295 -4.710712669942941 -2.893914136165870 13.000000000000000
2.323648232698588 -4.658143153555765 -2.983682498466999 24.000000000000000
2.308353260820230 -4.588548208210764 -3.062210078388874 21.000000000000000
1.965150935810868 -4.548525178342567 -0.965093001459129 55.000000000000000
2.026924125470179 -4.660198495059635 -1.082840974580687 9.000000000000000
2.050657142451316 -4.683679365816012 -1.182986425257164 7.000000000000000
2.146176599424474 -4.868266904273520 -1.329721532065236 20.000000000000000
2.214359798062678 -4.989217910330733 -1.466089808967667 74.000000000000000
2.232230166184183 -4.994609222184025 -1.571588751185130 78.000000000000000
2.246215216615704 -4.991031154896758 -1.675798678688462 73.000000000000000
2.262387448367486 -4.992692236521133 -1.782785254833251 78.000000000000000
2.267339724077023 -4.968082252446794 -1.881357304858786 74.000000000000000
2.296530176849644 -4.996518591519981 -2.001663086389448 80.000000000000000
2.293626316904037 -4.954859398715100 -2.094695838867748 42.000000000000000
2.213132361336762 -4.747013551226615 -2.113719824308524 32.000000000000000
2.172764392139908 -4.627405194073755 -2.165853195881044 42.000000000000000
2.162922600665780 -4.573859798037917 -2.246968707263571 50.000000000000000
2.174389567393542 -4.565107623063882 -2.350233690307021 16.000000000000000
2.397860869677102 -4.998933174470813 -2.693664115446936 5.000000000000000
2.433906636645549 -5.036196000016181 -2.837395343182508 9.000000000000000
2.458902639436283 -5.051486345506902 -2.972376071584919 34.000000000000000
2.327772852536658 -4.746002677604491 -2.913799603810177 8.000000000000000
2.301753805100451 -4.655791034432299 -2.980215305041807 20.000000000000000
2.285023881281023 -4.583201487249411 -3.056505519257276 23.000000000000000
1.949510752527825 -4.550552451245822 -0.966341665374642 44.000000000000000
1.965875090833069 -4.558266074489077 -1.059868634031597 24.000000000000000
2.020356788183296 -4.653846676192477 -1.176066989135359 10.000000000000000
2.043638608859608 -4.675365955816375 -1.277534506607006 8.000000000000000
2.087858055629122 -4.744613994373121 -1.394600582225363 8.000000000000000
2.198893042218671 -4.962432925533404 -1.561740326835515 47.000000000000000
2.226753033281363 -4.990586002920347 -1.675791835589302 77.000000000000000
2.244325889087261 -4.995825735331762 -1.783907656177733 78.000000000000000
2.149449252215546 -4.750784549860666 -1.798935816797036 38.000000000000000
2.240748109648027 -4.917757287305629 -1.969826178184556 40.000000000000000
2.290799694675459 -4.992145712093346 -2.110017523174357 72.000000000000000
2.195288075846626 -4.750169079445427 -2.114554322008825 34.000000000000000
2.152074408669591 -4.623808262156955 -2.163463171481897 42.000000000000000
2.143825587812345 -4.573645866503555 -2.246009647542948 50.000000000000000
2.155175624334491 -4.565003173220678 -2.349167524200770 16.000000000000000
2.373862496628168 -4.993073999398394 -2.689217894413541 61.000000000000000
2.394207424318761 -4.998425148600109 -2.814635472521958 6.000000000000000
2.423642625914973 -5.023818647342832 -2.954411383077586 9.000000000000000
2.363931899357655 -4.863221600889552 -2.983936600506214 33.000000000000000
2.286009776884302 -4.665822107809257 -2.984682120137380 21.000000000000000
2.266326845218563 -4.587005756865885 -3.056916880963711 23.000000000000000
1.932339563021008 -4.548918671828373 -0.966798184873644 54.000000000000000
1.942390986250593 -4.542341206967611 -1.056862155636419 32.000000000000000
1.997964879529944 -4.641777817280310 -1.173617925548742 14.000000000000000
2.019487350273648 -4.659914064289602 -1.273800516376361 11.000000000000000
2.037081237502677 -4.669244842749289 -1.372817770235265 9.000000000000000
2.062211149969985 -4.694339504943861 -1.477618958075083 6.000000000000000
2.165550878804696 -4.895661075426894 -1.644047452435058 24.000000000000000
2.226265530656263 -4.998904395695775 -1.785002137171061 75.000000000000000
2.128957995563223 -4.746726521952078 -1.797259352159323 40.000000000000000
2.106636807658336 -4.664074788134642 -1.867937828544057 6.000000000000000
2.188813803415482 -4.811977292069359 -2.033436665988567 11.000000000000000
2.178989710201938 -4.756641404589962 -2.116861448223411 36.000000000000000
2.132974956100175 -4.623482436407381 -2.162603060407047 41.000000000000000
2.124753778627838 -4.573369223679953 -2.245020116636762 51.000000000000000
2.135986742983520 -4.564835662244231 -2.348070699638733 16.000000000000000
2.352999068370570 -4.993635015249320 -2.688234498462353 70.000000000000000
2.371628546451168 -4.995907272178080 -2.811744043375232 68.000000000000000
2.390137335621715 -4.999187214866375 -2.938257086706967 16.000000000000000
2.344557209696767 -4.867157172578828 -2.984529535433243 32.000000000000000
2.267190898314633 -4.669575916098085 -2.985138220316780 15.000000000000000
2.249139710583938 -4.593836367472434 -3.059352544438458 16.000000000000000
1.922812883727663 -4.565315812496773 -0.971074737771427 23.000000000000000
1.969403358242400 -4.645153233218444 -1.081481323215429 24.000000000000000
1.977195932304589 -4.633207112783725 -1.172037582728680 15.000000000000000
1.998515615154174 -4.651496085694836 -1.271974646268764 16.000000000000000
2.012869632788796 -4.653883375057722 -1.368659699398664 12.000000000000000
2.033167802818765 -4.668621258131320 -1.469763325745151 9.000000000000000
2.051253702028326 -4.677880207416216 -1.571028648681720 21.000000000000000
2.109927567731537 -4.779311135674173 -1.706577489406014 8.000000000000000
2.111586492909017 -4.749505754378887 -1.798165056963915 29.000000000000000
2.070973713882980 -4.625681481218881 -1.852283647478005 8.000000000000000
2.088076285550938 -4.631261534973377 -1.956652759279438 6.000000000000000
2.159604608046757 -4.756317217739205 -2.116140463471367 35.000000000000000
2.116962297227460 -4.629789265393535 -2.164843179115804 41.000000000000000
2.107235511465917 -4.576348598654791 -2.245628643121407 51.000000000000000
2.116823173388839 -4.564605219405629 -2.346943297904510 17.000000000000000
2.332158767362183 -4.994128436672661 -2.687218011593622 71.000000000000000
2.349095716972287 -4.993312132267941 -2.808815989389168 71.000000000000000
2.364403621791246 -4.990378004639967 -2.931420625578331 67.000000000000000
2.317642851788422 -4.855239601266990 -2.975413252952064 24.000000000000000
2.254384232247991 -4.685768030590187 -2.993548011455736 12.000000000000000
2.249905378479086 -4.637671308371959 -3.086421005532848 13.000000000000000
1.938911701907514 -4.643272366125033 -0.988446835285415 40.000000000000000
1.953357762960962 -4.647215064770611 -1.082645644543597 32.000000000000000
1.951945007069477 -4.613797363065231 -1.167698840433122 15.000000000000000
1.979135604297168 -4.646570311146176 -1.271090320700388 21.000000000000000
1.993340280280396 -4.649073676402913 -1.367592219336295 16.000000000000000
2.010402691692298 -4.656892282184860 -1.466299863385199 12.000000000000000
2.025266026334291 -4.659317399907390 -1.564900920025403 49.000000000000000
2.046882700213365 -4.677506685107138 -1.670205503028077 8.000000000000000
2.072879081379490 -4.703810514564790 -1.780713047363066 7.000000000000000
2.046256010257288 -4.611161782910172 -1.846187247359975 10.000000000000000
2.006861657805428 -4.490891899549707 -1.896939701990883 6.000000000000000
2.134160135432032 -4.742408934261377 -2.109374792816725 30.000000000000000
2.097890681743719 -4.629347366565661 -2.163925517924416 40.000000000000000
2.088203253183121 -4.575951454687786 -2.244580018118348 51.000000000000000
2.100712127611406 -4.570898283543876 -2.349170372365956 17.000000000000000
2.311341859566863 -4.994554387243987 -2.686168513156954 73.000000000000000
2.328115144754569 -4.993870135722839 -2.807667526666926 74.000000000000000
2.343265806980436 -4.991065171116887 -2.930172318397042 68.000000000000000
2.308800164458060 -4.881179383229425 -2.989500565200556 33.000000000000000
2.256399060293793 -4.733222986066010 -3.021914533020690 10.000000000000000
1.924519629763948 -4.648838583258899 -0.990408007568924 60.000000000000000
1.935811976061599 -4.645618241409788 -1.082943742037005 47.000000000000000
1.947925129571121 -4.644575030545664 -1.176050371037343 38.000000000000000
1.962822229635085 -4.648723448020872 -1.272130181495305 32.000000000000000
1.975370441404969 -4.647749333063843 -1.367538575773325 22.000000000000000
1.989244228626226 -4.648609391453406 -1.463910558937414 17.000000000000000
2.005469135937423 -4.654691218217647 -1.563444660948998 51.000000000000000
2.022346329664648 -4.662565587474045 -1.664842774977484 12.000000000000000
2.039035406656683 -4.668326812382563 -1.767122911172420 8.000000000000000
2.024681225522008 -4.603421102331345 -1.842801153035552 13.000000000000000
1.988576867849743 -4.489978333885958 -1.896141503656198 7.000000000000000
2.098267059225734 -4.704708745761275 -2.092030345316615 26.000000000000000
2.081859923390770 -4.635556367807353 -2.166114590750006 41.000000000000000
2.070701798406118 -4.578819589182086 -2.245132787119743 52.000000000000000
2.080074825201911 -4.567253715345943 -2.346291162924992 17.000000000000000
2.290548610259535 -4.994912991384411 -2.685086082891451 73.000000000000000
2.307158000342848 -4.994360318401964 -2.806485875864303 74.000000000000000
2.322151192899781 -4.991684065855957 -2.928890579040784 70.000000000000000
2.299795298438185 -4.907123709414349 -3.003580277899224 25.000000000000000
2.255130587891392 -4.774480849144185 -3.046298516677584 10.000000000000000
1.907129390092468 -4.647103797590467 -0.990799567958021 84.000000000000000
1.921278566333344 -4.651191748359613 -1.084899991031215 65.000000000000000
1.930271408413191 -4.643005229875025 -1.176201821634241 49.000000000000000
1.945015503987540 -4.647249245623602 -1.272165531013536 39.000000000000000
1.955928524147724 -4.642808304578592 -1.366409402544263 32.000000000000000
1.969658392127693 -4.643786196693178 -1.462600279544228 23.000000000000000
1.984220911412454 -4.646481524682815 -1.560775709541506 43.000000000000000
2.000930779802153 -4.654512062357377 -1.661931850531191 16.000000000000000
2.015956647537645 -4.656966274012546 -1.762659331226114 12.000000000000000
2.004679815037075 -4.599044221578469 -1.840757204834088 19.000000000000000
1.967320085035570 -4.482172064448652 -1.892429461747978 5.000000000000000
2.034194420555428 -4.602453840252354 -2.045995040983124 12.000000000000000
2.062817016496557 -4.634998662720053 -2.165139568950595 40.000000000000000
2.051710021158490 -4.578302340376784 -2.244025327214088 52.000000000000000
2.063957491044496 -4.573443981297318 -2.348465376601631 17.000000000000000
2.269779284023016 -4.995204374358082 -2.683970800924229 72.000000000000000
2.284741914116624 -4.991543646115046 -2.803451874886963 74.000000000000000
2.301060047413559 -4.992234812725072 -2.927575487124622 69.000000000000000
2.284735872992184 -4.920382358156522 -3.009889605983035 29.000000000000000
2.259456878272192 -4.828337468096849 -3.078692564937360 9.000000000000000
1.894202103966440 -4.656216424257450 -0.993490311882446 86.000000000000000
1.903763809588128 -4.649488398604046 -1.085145607072562 78.000000000000000
1.914128474058161 -4.644978258601911 -1.177237937680964 66.000000000000000
1.928721651243646 -4.649298525704666 -1.273153569254079 52.000000000000000
1.938023794765350 -4.641361788760663 -1.366297374935533 44.000000000000000
1.953099715117135 -4.645977260436041 -1.463489254596900 34.000000000000000
1.966024404448491 -4.645232757554941 -1.560436050997118 47.000000000000000
1.979588152945180 -4.646380676478458 -1.658985640072474 21.000000000000000
1.995952980319530 -4.652462505228869 -1.760785148106691 17.000000000000000
1.983239499262447 -4.591151081929536 -1.837301508044472 27.000000000000000
1.952088438492450 -4.487970964326683 -1.894458062788598 7.000000000000000
2.010975794239998 -4.591497218086911 -2.040557191377140 13.000000000000000
2.045284668695290 -4.637744286496276 -2.165706018154618 40.000000000000000
2.032744655081017 -4.577722972080106 -2.242887772076357 53.000000000000000
2.043384129285843 -4.569669868582250 -2.345523948365099 17.000000000000000
2.250508921233157 -4.998704353195759 -2.684581975800279 73.000000000000000
2.265315059342207 -4.995137720549123 -2.804023329907355 74.000000000000000
2.279992637695468 -4.992717536441683 -2.926227122655065 70.000000000000000
2.297374450164765 -4.993968475661517 -3.053079347123023 64.000000000000000
1.881234315274225 -4.665297598173537 -0.996162522639227 69.000000000000000
1.890686811510328 -4.658595264127389 -1.087901441230211 74.000000000000000
1.899462449332407 -4.650507108349951 -1.179163279093573 73.000000000000000
1.912432157603210 -4.651298134975694 -1.274116518273257 65.000000000000000
1.924573965239024 -4.650555725938359 -1.369307303809516 55.000000000000000
1.936545221877304 -4.648117865635601 -1.464352727584214 46.000000000000000
1.949332898276660 -4.647447863858255 -1.561251294448034 58.000000000000000
1.962752703505943 -4.648673276912051 -1.659753773727865 28.000000000000000
1.974521478295235 -4.644413078245472 -1.757563111348558 23.000000000000000
1.963350003455407 -4.586631154980788 -1.835191382960169 30.000000000000000
1.935361523659581 -4.490302528452615 -1.895018463158106 7.000000000000000
1.992277856063121 -4.590646760626845 -2.039609586020519 18.000000000000000
2.026282990959229 -4.637066647915050 -2.164672294677235 41.000000000000000
2.015275876966406 -4.580422553327411 -2.243356497012206 53.000000000000000
2.025794415757081 -4.572446511120640 -2.345946693347510 18.000000000000000
2.231239671576604 -5.002146173765199 -2.685163530265690 72.000000000000000
2.242970476059276 -4.992177190910972 -2.800920266282967 75.000000000000000
2.257494658924569 -4.989917209728979 -2.922962214086525 71.000000000000000
2.276156089584337 -4.994521145818910 -3.051601543422057 67.000000000000000
1.866769985767662 -4.670703877156226 -0.998037630630632 52.000000000000000
1.877569168781395 -4.667670257845924 -1.090638519612297 64.000000000000000
1.886239372061635 -4.659604582299441 -1.181982304393163 68.000000000000000
1.899073364815368 -4.660429051674387 -1.277022086480188 65.000000000000000
1.908153890431504 -4.652575514272430 -1.370194808931836 64.000000000000000
1.921460749061168 -4.653757828882141 -1.466309196566494 56.000000000000000
1.931179315137452 -4.646084367839193 -1.560855694709001 78.000000000000000
1.942988593002688 -4.643904963755704 -1.657993370030943 40.000000000000000
1.956096229614777 -4.643247295506573 -1.756939979981601 29.000000000000000
1.944976795521528 -4.585497811473978 -1.834431542971872 41.000000000000000
1.918639016088386 -4.492583086362290 -1.895553095556777 7.000000000000000
1.972144031143457 -4.586332854915310 -2.037121219846681 20.000000000000000
2.005847184491773 -4.632952682984917 -2.162033882641362 43.000000000000000
1.997810649392455 -4.583069023703830 -2.243798327198887 55.000000000000000
2.006752885718186 -4.571854354255267 -2.344642108966501 18.000000000000000
2.209068904153137 -4.998960929929436 -2.682190932380224 71.000000000000000
2.225016651908911 -4.998897718650696 -2.803252842181191 74.000000000000000
2.239372985751364 -4.996698940032887 -2.925315766436378 70.000000000000000
2.256399845954109 -4.998191135561082 -3.052035567875462 68.000000000000000
1.855177633157727 -4.683364998275234 -1.001451068381137 41.000000000000000
1.864410983524158 -4.676713231713925 -1.093356772890890 49.000000000000000
1.872975524732744 -4.668669773268544 -1.184782356351049 53.000000000000000
1.884221906192565 -4.665932628628706 -1.278923185074879 57.000000000000000
1.894644366810091 -4.661695149494180 -1.373163157274921 62.000000000000000
1.906357802470842 -4.659355953306897 -1.468243177863299 61.000000000000000
1.914508096109237 -4.648193582994200 -1.561618123916257 91.000000000000000
1.926184809898353 -4.646086522548862 -1.658706756213004 50.000000000000000
1.939153166929861 -4.645506319809155 -1.757606334706122 40.000000000000000
1.932447440113624 -4.598143786981225 -1.839178241890725 45.000000000000000
1.904827023890558 -4.501680230336776 -1.898958955020161 7.000000000000000
1.953512259015546 -4.585355955121561 -2.036113115400815 21.000000000000000
1.988360262586543 -4.635525511202149 -2.162514901951157 42.000000000000000
1.977456040939448 -4.578963133492290 -2.240934677376954 55.000000000000000
1.987738354830983 -4.571200095545024 -2.343307474324055 19.000000000000000
2.188386204804616 -4.998989037811386 -2.680946552705302 69.000000000000000
2.204168931330052 -4.999055022932116 -2.801907957063635 76.000000000000000
2.216935484460877 -4.993758828541790 -2.921983199831774 70.000000000000000
2.233791646070881 -4.995421800494227 -3.048545869277838 68.000000000000000
1.843522475020459 -4.696002565260057 -1.004848640923304 32.000000000000000
1.852648520128964 -4.689359200088982 -1.096906446970193 35.000000000000000
1.859671010982379 -4.677702532650372 -1.187563365445432 43.000000000000000
1.869352432674773 -4.671395009003201 -1.280802151900479 48.000000000000000
1.876769346255285 -4.660044297923585 -1.372948637912721 54.000000000000000
1.891236531166313 -4.664912183658641 -1.470154652387012 57.000000000000000
1.900727997613275 -4.657324713372605 -1.564731156875772 71.000000000000000
1.912272043472809 -4.655243762550254 -1.661902868097076 54.000000000000000
1.922214550266176 -4.647713833943118 -1.758246666574052 51.000000000000000
1.914083094373204 -4.596907531358371 -1.838366409608101 48.000000000000000
1.898179611135278 -4.527933946894436 -1.909594809490041 6.000000000000000
1.937787438710950 -4.591140137821143 -2.038104039852163 32.000000000000000
1.969439700222444 -4.634662283363987 -2.161391400545269 44.000000000000000
1.960021925152351 -4.581494885522632 -2.241319849296846 56.000000000000000
1.967319248789362 -4.567159882207114 -2.340239642365876 18.000000000000000
2.167728726739604 -4.998950530958092 -2.679669710300450 70.000000000000000
2.186194673652730 -5.005667276084209 -2.804184011442922 73.000000000000000
2.197385175095549 -4.997198888382879 -2.922390402087857 71.000000000000000
2.215475566841415 -5.002158491431145 -3.050864539656261 69.000000000000000
1.831804572923548 -4.708616337287398 -1.008230229087877 25.000000000000000
1.839398182614495 -4.698341833166984 -1.099588261354037 24.000000000000000
1.846325935073646 -4.686702712075081 -1.190325262313837 32.000000000000000
1.857322510264256 -4.684022327081892 -1.284635330459201 37.000000000000000
1.866072054898233 -4.676251762651621 -1.377985681429777 45.000000000000000
1.874666041608564 -4.666863973516790 -1.470920760996585 50.000000000000000
1.884043146125439 -4.659340985070972 -1.565445306734037 59.000000000000000
1.895454366246943 -4.657331619565742 -1.662567571820325 56.000000000000000
1.906712040110037 -4.653363394447813 -1.760182466482540 56.000000000000000
1.898608278522412 -4.602548102674511 -1.840299314593530 54.000000000000000
1.905669722683740 -4.588619587223867 -1.934739566916421 25.000000000000000
1.922043695707504 -4.596880697773813 -2.040071538506820 39.000000000000000
1.950546663372355 -4.633737464034960 -2.160238141595928 44.000000000000000
1.942591990412593 -4.583973707353996 -2.241678257259971 56.000000000000000
1.951211363996767 -4.573034078840499 -2.342253087685725 19.000000000000000
2.147096730437021 -4.998845539596412 -2.678360487575134 70.000000000000000
2.162548754714702 -4.999168481505063 -2.799120107642445 73.000000000000000
2.176428708497673 -4.997347669044375 -2.920878352743210 72.000000000000000
2.192928373415622 -4.999248883768822 -3.047306966356507 69.000000000000000
1.818613118191025 -4.717546223935951 -1.010811531083395 17.000000000000000
1.830347787064903 -4.718222216616877 -1.104810433065115 8.000000000000000
1.834355799889106 -4.699296163538149 -1.193989265767841 24.000000000000000
1.843811707725385 -4.693017681179371 -1.287462399681089 28.000000000000000
1.852450944864540 -4.685267615856739 -1.380894226461456 35.000000000000000
1.860939611557396 -4.675898743206115 -1.473910005875560 41.000000000000000
1.871623464911444 -4.671940723049540 -1.569706815269727 47.000000000000000
1.881481588616272 -4.666412033272458 -1.665720795159859 52.000000000000000
1.891191060907628 -4.658969944574251 -1.762095180941396 53.000000000000000
1.881695945850710 -4.604673136363431 -1.840820924104777 54.000000000000000
1.890080628046135 -4.594252960172673 -1.936661807706590 53.000000000000000
1.903448672484109 -4.595738681475130 -2.038981393444220 48.000000000000000
1.934509624789958 -4.639534134951533 -2.162216344914298 46.000000000000000
1.923755024382466 -4.583037175787673 -2.240366231559330 57.000000000000000
1.932267558223297 -4.572198573369111 -2.340830256366158 19.000000000000000
2.126490475661675 -4.998674194778792 -2.677018967316588 69.000000000000000
2.143177592002879 -5.002394434590397 -2.799507051235229 73.000000000000000
2.156893599698673 -5.000665836962066 -2.921224261610083 70.000000000000000
2.171820968158411 -4.999465710034064 -3.045664508192103 70.000000000000000
1.812379350653909 -4.744763263104374 -1.017301659498524 12.000000000000000
1.819786839147549 -4.734446938691086 -1.109167275384547 4.000000000000000
1.825130302507460 -4.719125123767737 -1.199482157054942 20.000000000000000
1.830260310730199 -4.701979840143947 -1.290270040668117 21.000000000000000
1.840195903533498 -4.697841616275535 -1.384841935026597 27.000000000000000
1.848580073502907 -4.688470579474608 -1.478005188505444 33.000000000000000
1.859139345746966 -4.684514739840352 -1.573951252521511 39.000000000000000
1.864650680003557 -4.668406096083010 -1.666336809776838 43.000000000000000
1.877059912816099 -4.668035330961762 -1.765309103979110 46.000000000000000
1.836640950483552 -4.537211008714591 -1.813523168147017 51.000000000000000
1.811193841417790 -4.444559553809288 -1.873118053261154 47.000000000000000
1.887690999339710 -4.601383426475891 -2.040899128708924 54.000000000000000
1.915648891505698 -4.638494954309945 -2.161006682848103 47.000000000000000
1.906345797306283 -4.585406049436139 -2.240669779973644 57.000000000000000
1.913351711952274 -4.571301480115564 -2.339377695940217 18.000000000000000
2.107303019226641 -5.001742472711643 -2.677414839323689 70.000000000000000
2.122419693279063 -5.002288356889687 -2.798033209257369 74.000000000000000
2.134591968152530 -4.997443491936441 -2.917755931259641 69.000000000000000
2.152118442959943 -5.002821810657582 -3.045941584843753 69.000000000000000
1.801827662160156 -4.760984230662780 -1.021425587722771 9.000000000000000
1.809140150011052 -4.750654966875411 -1.113510351689634 8.000000000000000
1.814403274858409 -4.735311254072005 -1.204039901017442 15.000000000000000
1.820851085970742 -4.721754953246275 -1.296035294354841 16.000000000000000
1.826481732283521 -4.706794466295809 -1.387712626476297 19.000000000000000
1.837552769776722 -4.704591662176129 -1.483210406674912 23.000000000000000
1.845194041953655 -4.693509790615724 -1.576984715503950 29.000000000000000
1.854808523483327 -4.687999695776647 -1.673226880495191 36.000000000000000
1.864283709883196 -4.680571931952787 -1.769828420745894 36.000000000000000
1.790663669527899 -4.466050482316167 -1.784752283101613 55.000000000000000
1.796095593607862 -4.449919110921731 -1.874930538680295 32.000000000000000
1.873307691449865 -4.610412260928925 -2.044313351086622 55.000000000000000
1.899597636682270 -4.644194229370132 -2.162934298261576 44.000000000000000
1.886165550299392 -4.580980453846545 -2.237653592122716 57.000000000000000
1.894464067010710 -4.570342937638295 -2.337895491929653 20.000000000000000
2.088118287389288 -5.004753016771026 -2.677781406125554 67.000000000000000
2.101687826049688 -5.002115676602844 -2.796526960306052 76.000000000000000
2.116457299224581 -5.003880914017344 -2.919932927122117 70.000000000000000
2.131050183349338 -5.002907613905945 -3.044234636615365 70.000000000000000
1.799451372869156 -4.799219954588167 -1.030265297951002 4.000000000000000
1.803924334927022 -4.781468191178194 -1.121268447165629 7.000000000000000
1.804971145547047 -4.755118409309472 -1.209509023194420 11.000000000000000
1.812715038023744 -4.745140350063599 -1.302782886409271 12.000000000000000
1.816878238880174 -4.726512855175195 -1.393748074419225 14.000000000000000
1.825053534168412 -4.717115987570360 -1.487272791799636 17.000000000000000
1.832592892454959 -4.706027532840571 -1.581193267968869 21.000000000000000
1.842085125706820 -4.700514845027238 -1.677582362010355 27.000000000000000
1.852827485214537 -4.696591931832886 -1.775657212379634 20.000000000000000
1.829606303457734 -4.607255180910101 -1.840837981008856 39.000000000000000
1.798955589299827 -4.500204219350662 -1.895662620791317 51.000000000000000
1.857501565106256 -4.615973632788640 -2.046185562706336 50.000000000000000
1.880770060931412 -4.643040981262414 -2.161668435311439 39.000000000000000
1.870165790376309 -4.586610520675538 -2.239549027847935 57.000000000000000
1.875604864483084 -4.569323085267790 -2.336383730204916 20.000000000000000
2.066197997202297 -5.001077529130532 -2.674573869606684 65.000000000000000
2.082347723666003 -5.005158597764792 -2.796822369934175 75.000000000000000
2.095580096391933 -5.003769606831842 -2.918292956738903 70.000000000000000
2.110007753223386 -5.002925983822103 -3.042494844980816 70.000000000000000
1.901988176128669 -5.120530470173371 -1.099905760459873 0.000000000000000
1.836827016566102 -4.914763056420589 -1.153063142441138 6.000000000000000
1.813233610887154 -4.822264578513956 -1.227014346761581 7.000000000000000
1.807188706726497 -4.775771144400929 -1.311511705852317 7.000000000000000
1.808536963342435 -4.749825292118175 -1.400834660685772 10.000000000000000
1.815236540494039 -4.736780199310753 -1.493577465507835 11.000000000000000
1.824048120460752 -4.729202283578299 -1.588973950460302 15.000000000000000
1.832043944578241 -4.720079850313859 -1.684445663058118 19.000000000000000
1.844029259333424 -4.719621558369132 -1.784127920441680 10.000000000000000
1.804493797578124 -4.588236024470573 -1.832891791201144 37.000000000000000
1.806976764324910 -4.564406395090887 -1.922241720919429 40.000000000000000
1.848523692348255 -4.638671399993759 -2.055647781529487 36.000000000000000
1.863338246878684 -4.645234800217235 -2.161959349425842 38.000000000000000
1.851418981743236 -4.585437982089966 -2.238122040114781 57.000000000000000
1.859496887735872 -4.574940365249224 -2.338266019706463 20.000000000000000
2.045685497499250 -5.000646209587685 -2.673105372382010 62.000000000000000
2.063010586060224 -5.008143407060089 -2.797088296090064 74.000000000000000
2.074729221870590 -5.003591471803039 -2.916620482547591 71.000000000000000
2.088991414691102 -5.002877052600804 -3.040722293453839 72.000000000000000
2.014732678077638 -5.475594821895136 -1.176867699582788 0.000000000000000
1.868910831476837 -5.048293026836609 -1.184927769605146 25.000000000000000
1.865902137764669 -5.009827360828753 -1.275168626879146 68.000000000000000
1.834114171135351 -4.893475352900108 -1.344150355354509 11.000000000000000
1.806865489576336 -4.791174586251579 -1.413232884784064 5.000000000000000
1.808032087759420 -4.763608131306840 -1.502132331380849 7.000000000000000
1.815369230978797 -4.752374512284283 -1.596745142534081 9.000000000000000
1.821891587568597 -4.739634028827569 -1.691296637472720 13.000000000000000
1.831012010859199 -4.732093322694610 -1.788599396566607 12.000000000000000
1.791772548109855 -4.600555921830556 -1.837460297788694 26.000000000000000
1.795551340242626 -4.580163579187885 -1.928406848264578 33.000000000000000
1.842125055601782 -4.668246184329520 -2.068148167326750 27.000000000000000
1.844556470503419 -4.643963709367446 -2.160636131606180 38.000000000000000
1.834053723964554 -4.587587849147658 -2.238316479849204 58.000000000000000
1.839322213318041 -4.570453242565375 -2.334985000619592 20.000000000000000
2.021163070381485 -4.990182096646712 -2.666279521211665 60.000000000000000
2.042334755365987 -5.007779878021055 -2.795488050468395 71.000000000000000
2.055242113069387 -5.006604029841635 -2.916813320224586 70.000000000000000
2.068001429139231 -5.002760953263798 -3.038917065926152 73.000000000000000
1.989690655562762 -5.459299025571585 -1.174039711661987 0.000000000000000
1.850417705418433 -5.046360427554995 -1.184996519269548 25.000000000000000
1.848730836046598 -5.011586473588514 -1.276032645975443 77.000000000000000
1.861653704601873 -5.015013821794652 -1.377845365543870 76.000000000000000
1.862951217838300 -4.987867327540871 -1.471451080670057 49.000000000000000
1.822267912467707 -4.847897725118229 -1.528799300753404 6.000000000000000
1.810606754125613 -4.786251177793362 -1.608104115095279 6.000000000000000
1.812977996885823 -4.762723269600445 -1.699400435451960 8.000000000000000
1.817930137581463 -4.744537451222317 -1.793052812613695 32.000000000000000
1.800566737951826 -4.668804757386026 -1.864355534652965 22.000000000000000
1.808292118122020 -4.658383961791100 -1.960857587910258 24.000000000000000
1.834197742340329 -4.694389184559760 -2.079118280878217 20.000000000000000
1.825803833913321 -4.642631839202789 -2.159283669573765 37.000000000000000
1.816694081247377 -4.589685176123812 -2.238484442481136 60.000000000000000
1.821875605604613 -4.572611628146408 -2.335100892005114 21.000000000000000
2.002074148266781 -4.992933740718655 -2.666519785344760 57.000000000000000
2.023016019540243 -5.010644526408490 -2.795693762674336 73.000000000000000
2.034432859326200 -5.006296685194717 -2.915077433054257 71.000000000000000
2.047038057229166 -5.002577819657227 -3.037079246665947 72.000000000000000
1.975416031585267 -5.472410487649120 -1.177518983636284 0.000000000000000
1.833286233176671 -5.048039700862597 -1.185899138105751 25.000000000000000
1.832899961682954 -5.016947846863249 -1.277801249145123 75.000000000000000
1.845667956434623 -5.020428484581762 -1.379631699327943 75.000000000000000
1.854931997621926 -5.014995817550311 -1.479644631035173 77.000000000000000
1.866751715448981 -5.015002773832625 -1.581576811703864 74.000000000000000
1.861857047327044 -4.970219335305789 -1.669881461143608 39.000000000000000
1.826679641238040 -4.846163896460615 -1.729027754817175 7.000000000000000
1.803445848834479 -4.753427413831122 -1.796155586735313 43.000000000000000
1.790202417399905 -4.688137153787697 -1.871705460805982 17.000000000000000
1.797814022114231 -4.677650284546775 -1.968478741914405 20.000000000000000
1.826110950242962 -4.720535810481675 -2.090080491120582 15.000000000000000
1.808412248012941 -4.644659552567508 -2.159492250965533 36.000000000000000
1.798011344150126 -4.588338773850031 -2.236972620013903 62.000000000000000
1.805760535534775 -4.578078554960687 -2.336905995737577 21.000000000000000
1.980345138340877 -4.988967227455218 -2.663175385968310 56.000000000000000
2.002382689956896 -5.010152883333508 -2.794030717187253 72.000000000000000
2.014964233709172 -5.009188325876923 -2.915209675610171 71.000000000000000
2.027410410030061 -5.005559264347246 -3.037169649593053 72.000000000000000
1.954478492060774 -5.467033044237663 -1.177004467827253 1.000000000000000
1.813516749486836 -5.042317080340827 -1.185048294641980 25.000000000000000
1.815728246450533 -5.018607388070898 -1.278614413903536 75.000000000000000
1.827014843354776 -5.018520270410646 -1.379393728287459 75.000000000000000
1.837475377423940 -5.016789275560630 -1.480353201766591 77.000000000000000
1.849148846647380 -5.016867189303997 -1.582235174627233 79.000000000000000
1.861501469123833 -5.018608729447882 -1.686096883681163 78.000000000000000
1.870357093112161 -5.011481718767285 -1.787852154599571 74.000000000000000
1.787594500375137 -4.758751113984152 -1.797903706371162 37.000000000000000
1.778401334864451 -4.703952408325985 -1.877643318726034 13.000000000000000
1.784576332114681 -4.689946026907228 -1.973159288945835 15.000000000000000
1.820508769846445 -4.753589688191250 -2.104090514981231 15.000000000000000
1.791026615531249 -4.646634723836789 -2.159674374921571 38.000000000000000
1.779358296298769 -4.586931962492259 -2.235431775934943 62.000000000000000
1.785685784892246 -4.573404921895085 -2.333535878879852 21.000000000000000
1.958667629382020 -4.984927509499008 -2.659796767170574 54.000000000000000
1.983083277379634 -5.012897652426682 -2.794176415560103 72.000000000000000
1.995499276937678 -5.012021602459885 -2.915312348997384 70.000000000000000
2.007786232394535 -5.008481895968611 -3.037230241974029 74.000000000000000
1.934899421982200 -5.465280866727082 -1.177253275467867 2.000000000000000
1.797729980459763 -5.047564575766811 -1.186761463319468 25.000000000000000
1.797250512968496 -5.016553522347139 -1.278468361384431 75.000000000000000
1.808390694460630 -5.016552192292613 -1.379126969568926 74.000000000000000
1.820024464451008 -5.018530200670087 -1.481035304698058 77.000000000000000
1.831551596805749 -5.018678640957678 -1.582866844378739 79.000000000000000
1.841120701906712 -5.013332159719604 -1.684272904648090 77.000000000000000
1.853796299806135 -5.016989960635929 -1.789651087140558 84.000000000000000
1.763839842548500 -4.742825913796503 -1.791618084653883 33.000000000000000
1.769139053191920 -4.726765618144504 -1.886366295711995 11.000000000000000
1.773898158294427 -4.709179631722680 -1.980751503891361 12.000000000000000
1.808148375433229 -4.769381291084919 -2.110450556792868 47.000000000000000
1.772339134525797 -4.645129258558335 -2.158237281559564 39.000000000000000
1.763345603770466 -4.592263203193668 -2.237173876625776 62.000000000000000
1.769570909028895 -4.578770464179889 -2.335289239959909 21.000000000000000
1.938340198724049 -4.984153171682232 -2.658164486110738 51.000000000000000
1.962493421016269 -5.012278311103448 -2.792450841914649 66.000000000000000
1.976038207153576 -5.014796553307304 -2.915385486141834 70.000000000000000
1.986880569042847 -5.008106356173942 -3.035297733272659 75.000000000000000
1.917941485456599 -5.470864540968761 -1.179066424225200 3.000000000000000
1.779328624632504 -5.045402679191521 -1.186718774761077 25.000000000000000
1.780102246450426 -5.018105921009836 -1.279228266459186 77.000000000000000
1.791097412583033 -5.018171317790324 -1.379834295828624 76.000000000000000
1.801277013954552 -5.016591311288383 -1.480620388386189 78.000000000000000
1.813960164548818 -5.020437172629499 -1.583471855484001 80.000000000000000
1.814275765137271 -4.990062690615273 -1.676395475943858 68.000000000000000
1.834611650263447 -5.015328166948998 -1.788884420672736 83.000000000000000
1.641215516684460 -4.457919646761146 -1.683735148654664 9.000000000000000
1.757138429536067 -4.742547798036370 -1.892275065308398 7.000000000000000
1.767008842733735 -4.738861269325882 -1.992729188771990 9.000000000000000
1.793102501640766 -4.778231129296620 -2.113732881333488 45.000000000000000
1.754977857031286 -4.646995571667764 -2.158365325478999 38.000000000000000
1.746022260525465 -4.594146904779914 -2.237235008453669 63.000000000000000
1.750858137256928 -4.577344984227090 -2.333579370531952 22.000000000000000
1.915468280629094 -4.976629408843105 -2.652937427257145 50.000000000000000
1.944496899260078 -5.018213655518283 -2.794379987821590 39.000000000000000
1.955303266235532 -5.014235939045195 -2.913524855675032 69.000000000000000
1.966002529074101 -5.007664259901139 -3.033332938499005 73.000000000000000
1.897109532397724 -5.465292799106429 -1.178459181355512 3.000000000000000
1.759669273490578 -5.039495311135012 -1.185780357815633 25.000000000000000
1.761671509765232 -5.015937448619026 -1.279026584251765 79.000000000000000
1.773810309003668 -5.019738445627437 -1.380515456328600 73.000000000000000
1.783849774034225 -5.018223497508505 -1.481248430457075 77.000000000000000
1.797666175063115 -5.025753283699125 -1.585189027977863 84.000000000000000
1.659730814460054 -4.611410354309782 -1.549124968392251 7.000000000000000
1.749604114310843 -4.831745893816072 -1.723228673385540 38.000000000000000
1.661201309204773 -4.558403067326683 -1.721416767108719 3.000000000000000
1.666374314045622 -4.543780620496893 -1.812588844246222 4.000000000000000
1.758648280828409 -4.765061745064852 -2.003233084306165 6.000000000000000
1.772869228703688 -4.773187913104405 -2.110866135999533 43.000000000000000
1.737623137005821 -4.648809513062995 -2.158467035883812 39.000000000000000
1.728705530533924 -4.595978326300544 -2.237269856963409 62.000000000000000
1.733454004429285 -4.579236189495624 -2.333561470229929 22.000000000000000
1.890123440134477 -4.962333068126833 -2.644108148701401 48.000000000000000
1.923939599952126 -5.017470919884550 -2.792593415420323 46.000000000000000
1.935862502627570 -5.016890476587469 -2.913537766504231 52.000000000000000
1.946413817421247 -5.010402927715787 -3.033301790671136 72.000000000000000
1.877602399491993 -5.463358120199684 -1.178619225988651 6.000000000000000
1.742613903033353 -5.040902222157602 -1.186548596392671 25.000000000000000
1.744547515867035 -5.017383012554761 -1.279733437169269 77.000000000000000
1.756529578574175 -5.021253621142375 -1.381170486130740 75.000000000000000
1.766428843964716 -5.019803317060067 -1.481850126444044 77.000000000000000
1.778795545845256 -5.023795654363044 -1.584602041297458 81.000000000000000
1.633110526871086 -4.583959336787554 -1.539832070617136 22.000000000000000
1.647915917356263 -4.597738460320036 -1.639596956516389 8.000000000000000
1.658791589454065 -4.598774478804976 -1.736383527867179 6.000000000000000
1.611470077522979 -4.439583696369755 -1.770648692478534 13.000000000000000
1.767999939566314 -4.840189641047973 -2.034291142483151 7.000000000000000
1.757788575367522 -4.781946946654434 -2.114099979586999 43.000000000000000
1.720275170861422 -4.650571129789743 -2.158542448802861 38.000000000000000
1.711395609889565 -4.597757514990541 -2.237278458261001 64.000000000000000
1.714790132604918 -4.577694039525031 -2.331795034221021 23.000000000000000
1.866165278679150 -4.951291376118240 -2.637021968325163 44.000000000000000
1.903410818054521 -5.016662748451860 -2.790775183709438 72.000000000000000
1.913917879982592 -5.012916831444752 -2.909707749878128 65.000000000000000
1.925579912592076 -5.009831976727649 -3.031273917873314 73.000000000000000
1.858123543815540 -5.461361612173286 -1.178749437751038 7.000000000000000
1.723036844704819 -5.034869983081554 -1.185551468833812 25.000000000000000
1.727430163805823 -5.018777132262637 -1.280414435193310 78.000000000000000
1.739255415853691 -5.022716890260847 -1.381799420578838 73.000000000000000
1.749014419814252 -5.021330815773830 -1.482425511734718 78.000000000000000
1.759954776253318 -5.021777699624514 -1.583986086143766 80.000000000000000
1.615562919145996 -4.581572058980006 -1.538950916258925 40.000000000000000
1.627653061895140 -4.588307972023036 -1.636053625029823 26.000000000000000
1.633321308748682 -4.575288619556574 -1.727232338205716 13.000000000000000
1.607927648443476 -4.476088233592983 -1.784825706465893 9.000000000000000
1.678215862187961 -4.642539855424543 -1.950712487963149 19.000000000000000
1.738878624005082 -4.780253666470876 -2.112709164833139 41.000000000000000
1.702934154709039 -4.652280469486359 -2.158591600549115 37.000000000000000
1.692835016066286 -4.596069905077061 -2.235599927541776 64.000000000000000
1.698666105784618 -4.582861183164476 -2.333446557541615 23.000000000000000
1.846059899623279 -4.950223939952978 -2.635253648383643 40.000000000000000
1.882910806325985 -5.015789281900047 -2.788925379962224 74.000000000000000
1.894510245749230 -5.015447435507101 -2.909659421722144 70.000000000000000
1.906012058304049 -5.012449689694798 -3.031182300997102 73.000000000000000
1.838673204325122 -5.459303413147586 -1.178849901765240 8.000000000000000
1.706018026037682 -5.036167158553517 -1.186265925474340 25.000000000000000
1.709065746128264 -5.016439414597747 -1.280130413310004 78.000000000000000
1.719477828495751 -5.016804497308899 -1.380387131602129 74.000000000000000
1.731606697356177 -5.022806040071102 -1.482974622000149 78.000000000000000
1.693407104749143 -4.882074322875435 -1.539930739840429 48.000000000000000
1.600559529893951 -4.586328033173123 -1.540461087920112 41.000000000000000
1.608724772820799 -4.582382525577886 -1.633753651745300 35.000000000000000
1.613045651727045 -4.565913077090455 -1.723404043716633 23.000000000000000
1.625478164468808 -4.572599054358145 -1.822913773308577 19.000000000000000
1.637398625227023 -4.577494371002182 -1.922876757763741 19.000000000000000
1.719999267682103 -4.778499774395423 -2.111289280339368 41.000000000000000
1.684351691553148 -4.650490219212048 -2.157015553994712 37.000000000000000
1.674305453533608 -4.594322596198688 -2.233892819793680 65.000000000000000
1.678797466655447 -4.577818134476272 -2.329900468606208 24.000000000000000
1.825983970205331 -4.949092467351808 -2.633454440493467 36.000000000000000
1.863674856437689 -5.018176159490965 -2.788892264286748 76.000000000000000
1.872646850926218 -5.011334817778247 -2.905763430811183 72.000000000000000
1.886449024852418 -5.015008925040181 -3.031061127460264 73.000000000000000
1.819251619241733 -5.457183661996434 -1.178920703493466 10.000000000000000
1.686524219314782 -5.030010747657614 -1.185210502870082 26.000000000000000
1.693216155219759 -5.021411226099151 -1.281699009170344 79.000000000000000
1.703484151212350 -5.021822332194950 -1.381970408668873 74.000000000000000
1.711717909988301 -5.016936977402465 -1.481344376367998 78.000000000000000
1.662628592171920 -4.843541920282771 -1.527777415383506 36.000000000000000
1.583051697827628 -4.583835035393246 -1.539528398668392 43.000000000000000
1.592339902241710 -4.583554499871441 -1.633977289449623 41.000000000000000
1.554302434784723 -4.446199642076780 -1.677931072487364 16.000000000000000
1.600155869108542 -4.549174981789740 -1.813177371250757 13.000000000000000
1.619377050786429 -4.575364161857416 -1.921473589143765 33.000000000000000
1.701150741446244 -4.776685417328713 -2.109840415471301 39.000000000000000
1.668273755305714 -4.655542511299016 -2.158611267191434 37.000000000000000
1.658274825001553 -4.599360022422751 -2.235483837764313 63.000000000000000
1.661445272601918 -4.579492174988254 -2.329774887273466 25.000000000000000
1.801030298193989 -4.934451729325054 -2.624473279716952 33.000000000000000
1.843221206947339 -5.017176277830374 -2.786980764095037 76.000000000000000
1.854491767965561 -5.017038265477819 -2.907564500622347 72.000000000000000
1.865677186638022 -5.014247364523839 -3.028939748926045 73.000000000000000
1.801086760717668 -5.458723509598538 -1.179766131961657 13.000000000000000
1.669542812584906 -5.031198632857053 -1.185871457487450 30.000000000000000
1.676119882963894 -5.022651295229426 -1.282302657122441 79.000000000000000
1.686242542057247 -5.023126533319288 -1.382520133531538 75.000000000000000
1.694347633474410 -5.018300507854310 -1.481838759720109 78.000000000000000
1.644443577783265 -4.841168362604508 -1.527020040603448 34.000000000000000
1.568041322388506 -4.588500259437305 -1.540991817118408 44.000000000000000
1.573498982477817 -4.577507890535003 -1.631620808959929 46.000000000000000
1.541942467879020 -4.457929746496413 -1.682064148911560 20.000000000000000
1.557781434992962 -4.476149756470517 -1.783674958741136 7.000000000000000
1.603845321976824 -4.580195422783283 -1.922989878363410 33.000000000000000
1.684787449198479 -4.781776185283982 -2.111438316616010 39.000000000000000
1.649730018862467 -4.653640493164345 -2.156980534275902 38.000000000000000
1.641006036267125 -4.600927049015076 -2.235386650800320 65.000000000000000
1.642881856106686 -4.577718054263390 -2.327896179503385 24.000000000000000
1.778631973311912 -4.926447628765909 -2.619029985421951 32.000000000000000
1.825219390946607 -5.022777423593041 -2.788738985268531 76.000000000000000
1.833905237441962 -5.016091148411481 -2.905515646302895 75.000000000000000
1.844934467656075 -5.013419987366650 -3.026786553479972 72.000000000000000
1.780495661484292 -5.452760062564884 -1.178973663629947 15.000000000000000
1.651351019806600 -5.028627182526185 -1.185632518338825 25.000000000000000
1.659031021078708 -5.023840110132915 -1.282880594177899 79.000000000000000
1.669008287588130 -5.024379050074526 -1.383043924513730 75.000000000000000
1.678205180542253 -5.023265255689844 -1.483385837528588 80.000000000000000
1.625068982091397 -4.835103944012491 -1.525089064297323 34.000000000000000
1.548132201602853 -4.578679986791878 -1.537582604256381 49.000000000000000
1.557154621542388 -4.578573778164672 -1.631792769475359 39.000000000000000
1.527080727172911 -4.462504674800126 -1.683490564299092 27.000000000000000
1.576844038809449 -4.579887142861125 -1.824602048646901 33.000000000000000
1.584646749093396 -4.574443332035856 -1.920059083096253 38.000000000000000
