# This PCD file was generated using the MATLAB® pcwrite function
# from Computer Vision Toolbox®.
# .PCD v.7 - Point Cloud Data file format
VERSION .7
FIELDS x y z intensity
SIZE 8 8 8 8
TYPE F F F F
COUNT 1 1 1 1
WIDTH 637
HEIGHT 1
VIEWPOINT 0 0 0 1 0 0 0
POINTS 637
DATA ascii
5.413281726406417 -4.803142080758086 -2.043674901398273 8.000000000000000
5.529044565167862 -4.850810467145082 -2.209457853914264 8.000000000000000
6.445642870615229 -5.527859849364191 -2.859729614889210 9.000000000000000
5.792069615999175 -4.853856087843292 -2.825709582021084 34.000000000000000
5.818340553558979 -4.817728179412629 -2.967467673304037 78.000000000000000
5.548619678036515 -5.518460771092510 -0.853108660382147 85.000000000000000
5.603169033707016 -5.514522036335920 -0.992128767082345 89.000000000000000
5.655964473838279 -5.508737359385974 -1.131571728165967 81.000000000000000
5.716213920878406 -5.508240208666255 -1.275064004035963 79.000000000000000
5.683349505790551 -5.418785278952886 -1.397455006658091 3.000000000000000
7.425289775657022 -7.003797522553523 -1.992960614411747 37.000000000000000
6.808277127336812 -6.352597342210703 -1.980472056132054 18.000000000000000
6.762673048134790 -6.242336250622061 -2.118638095145332 26.000000000000000
6.807194778854875 -6.214369389115898 -2.284234738014078 64.000000000000000
8.430559578525587 -7.611499455253631 -3.016661272931406 8.000000000000000
5.445722580630881 -4.862165933899881 -2.069104155433077 12.000000000000000
5.497958260344734 -4.853939722972810 -2.210729321570997 36.000000000000000
5.918312176866851 -5.108071621603412 -2.641342326492237 1.000000000000000
5.785900974375086 -4.880156691174225 -2.838745600492028 47.000000000000000
5.803477797037827 -4.836850059008627 -2.976394961351262 83.000000000000000
5.515092049572024 -5.517214284522685 -0.857444005988902 84.000000000000000
5.569399859423240 -5.513573577759345 -0.996138348067375 89.000000000000000
5.627620183684423 -5.513627417655367 -1.136399475302017 82.000000000000000
5.684801270594445 -5.510663211163252 -1.279072119538099 80.000000000000000
5.649139195654194 -5.418526079069066 -1.400394758120689 5.000000000000000
5.671716537431433 -5.382118530311859 -1.534097664655188 0.000000000000000
6.804782190542258 -6.387993473486337 -1.994094963128605 19.000000000000000
6.765022679016663 -6.282781693464660 -2.134408195415194 9.000000000000000
6.797975722947547 -6.244254023589937 -2.296728490504846 26.000000000000000
8.370620341377920 -7.604348087931510 -3.014999379449786 8.000000000000000
5.463503815389792 -4.908567426085230 -2.089159611613292 2.000000000000000
5.484078788589734 -4.872198696851971 -2.218886139245117 42.000000000000000
6.498747821185331 -5.709168867883651 -2.773215389151552 3.000000000000000
5.865923743057651 -5.095222774669208 -2.633488089421466 19.000000000000000
5.912439572030609 -5.077071385069067 -2.785422850843188 1.000000000000000
5.776751105446364 -4.904052114471975 -2.850374628757976 49.000000000000000
5.797090474163439 -4.863112802685060 -2.989711006556346 69.000000000000000
5.484415306365460 -5.518647308070250 -0.862151167970698 84.000000000000000
5.535678978609203 -5.512483726055042 -1.000078704784024 90.000000000000000
5.593651000354432 -5.512849819364660 -1.140022524060321 84.000000000000000
5.650592591737693 -5.510202537007910 -1.282375671693244 81.000000000000000
5.614977386976273 -5.418123502541921 -1.403264285495775 5.000000000000000
5.674333624558896 -5.417173340611701 -1.546669620496299 11.000000000000000
6.795430278071061 -6.418059835991819 -2.006049669749915 18.000000000000000
7.271074826222887 -6.794157001474662 -2.310315456984313 20.000000000000000
6.794320418914362 -6.279415419280366 -2.311157293917343 5.000000000000000
8.316512742667028 -7.602145199765432 -3.015277791968817 8.000000000000000
7.592399011553576 -6.863911479457540 -2.921802945362893 36.000000000000000
5.470127966487931 -4.890428379516825 -2.227023640436499 36.000000000000000
5.517400892259756 -4.877812740775469 -2.368739382038417 1.000000000000000
5.827944328013877 -5.094590199845691 -2.631955851682757 30.000000000000000
5.877159572435229 -5.079269262721881 -2.784873985820843 35.000000000000000
5.778872891333993 -4.937673066402915 -2.867645165484099 32.000000000000000
5.787734348442744 -4.886993541663976 -3.001554469869006 58.000000000000000
5.456564539100707 -5.522783785921805 -0.867240845779239 83.000000000000000
5.504809904524124 -5.514060311021020 -1.004461448476684 90.000000000000000
5.559730568221864 -5.511930141209828 -1.143576025982527 84.000000000000000
5.616432436682515 -5.509598867433539 -1.285609195733904 82.000000000000000
5.586513394087016 -5.423061193245913 -1.407486906509819 3.000000000000000
5.634325546565976 -5.411523914343087 -1.547604781527536 3.000000000000000
5.686132272528789 -5.403073245543744 -1.690939171761054 0.000000000000000
7.279981871663429 -6.844187807175958 -2.329497200761527 21.000000000000000
8.819118282032335 -8.201076581192074 -3.020356210274864 10.000000000000000
8.256812384976445 -7.594479496629316 -3.013367952072315 8.000000000000000
7.597461376258690 -6.911467754935671 -2.942456475250204 36.000000000000000
5.464639930839155 -4.916306274274787 -2.238637765205568 1.000000000000000
5.619816515182930 -4.999882537903884 -2.427355133234729 2.000000000000000
5.792873183833131 -5.096294666484532 -2.631635413272189 35.000000000000000
5.833407229642056 -5.073908622640237 -2.780191968597998 56.000000000000000
5.809179491039457 -4.995753311780923 -2.899094080694261 17.000000000000000
5.783933168259738 -4.915689163414184 -3.016345662187476 57.000000000000000
5.425943890590228 -5.523976091749463 -0.871828557657348 84.000000000000000
5.473973261761284 -5.515511845633169 -1.008782340350346 92.000000000000000
5.525859546738472 -5.510868648934403 -1.147060157058550 86.000000000000000
5.582321468781062 -5.508852468018837 -1.288772867804407 82.000000000000000
5.555248842196716 -5.425138353974729 -1.410938744773991 3.000000000000000
5.605686569616669 -5.416602743929284 -1.551578808078099 2.000000000000000
5.662945267274008 -5.413822134263709 -1.696418815745470 5.000000000000000
7.274478149676188 -6.880953485260038 -2.344163557342242 18.000000000000000
8.763529681105501 -8.199693934346355 -3.021745010987275 9.000000000000000
8.205745432093156 -7.594419246809530 -3.014454877315510 9.000000000000000
5.923591496723997 -5.422457047560822 -2.308843725178713 0.000000000000000
5.938287849075854 -5.376090168841557 -2.447808799314854 6.000000000000000
5.829173526125395 -5.219051021875509 -2.533065027467522 16.000000000000000
5.599170029366559 -4.957360190148265 -2.558728380929958 17.000000000000000
5.801081081086250 -5.078265224053125 -2.780844584804381 66.000000000000000
5.836300726723989 -5.051614466706436 -2.929218514724241 27.000000000000000
5.785633778841309 -4.949248212591986 -3.034106113385866 28.000000000000000
5.392579573055573 -5.522200812194170 -0.875903954817997 84.000000000000000
5.445955277917227 -5.519661884169762 -1.013559961407819 92.000000000000000
5.494832102797664 -5.512468085501597 -1.151060280085525 86.000000000000000
5.551061087054418 -5.510744002257943 -1.292518993813373 83.000000000000000
5.521210378235133 -5.424331181402683 -1.413609279019927 3.000000000000000
5.579875287693629 -5.424304214447921 -1.556281325117169 2.000000000000000
5.622835754990481 -5.408233848230116 -1.696755938624843 15.000000000000000
5.680775825655243 -5.406425063571242 -1.843499403482316 3.000000000000000
8.705207732624888 -8.195417262342723 -3.022038753547466 9.000000000000000
8.146279925040586 -7.586249608177459 -3.012302153720317 10.000000000000000
5.907946144091798 -5.441980533762299 -2.317459865599192 24.000000000000000
5.922573968965487 -5.395650040500898 -2.456517498935237 19.000000000000000
5.813776640174233 -5.238292113833517 -2.541708265775985 36.000000000000000
5.629662652366840 -5.016204923745517 -2.587927855164669 22.000000000000000
5.715162611987635 -5.035246657141450 -2.755577511209676 35.000000000000000
5.809523782301768 -5.061029611983659 -2.932396407291260 30.000000000000000
3.152534798463184 -2.714404867324508 -1.662507311479779 0.000000000000000
5.362034390966986 -5.523137450851356 -0.880365770058383 82.000000000000000
5.412399559919439 -5.518040557070561 -1.017239113634679 91.000000000000000
5.466622858376379 -5.516752400723226 -1.155587068719355 86.000000000000000
5.522625815847062 -5.515297514590213 -1.296858289750493 84.000000000000000
5.490021163893433 -5.426147257483421 -1.416932447263219 4.000000000000000
5.545651223859815 -5.423684377831282 -1.558571228071092 3.000000000000000
5.580003688191820 -5.399751999889279 -1.696154821782911 25.000000000000000
5.648954378831014 -5.409125521561473 -1.846069207228757 6.000000000000000
5.708367679676503 -5.407266705610243 -1.995131376131318 0.000000000000000
7.912307133344552 -7.414171807220899 -2.945020923632918 14.000000000000000
5.886589365559196 -5.456245972229378 -2.323829066823990 7.000000000000000
5.806757192328245 -5.265163659525621 -2.554047483457377 13.000000000000000
5.721745839341731 -5.130827588504537 -2.645867874066335 43.000000000000000
5.500198019573796 -4.877035610071708 -2.667348009459762 4.000000000000000
3.203268630934199 -2.808646539060741 -1.626091847558144 0.000000000000000
3.134146564115314 -2.716188395319794 -1.662067963644766 2.000000000000000
5.339802282134511 -5.532528055751129 -0.886140451642796 85.000000000000000
5.381663642754189 -5.519118135557449 -1.021375269927057 91.000000000000000
5.430101769329319 -5.512472454811566 -1.158282439507023 83.000000000000000
5.485856870991475 -5.511352024240502 -1.299164830148870 86.000000000000000
5.461655547216544 -5.430610645284638 -1.420918964219960 9.000000000000000
5.511478584616739 -5.422921569808252 -1.560791292588307 2.000000000000000
5.548473527782344 -5.401980667234063 -1.698890927142759 41.000000000000000
5.600348249934892 -5.395494798892053 -1.843040790264823 36.000000000000000
5.667939279887641 -5.402137493445500 -1.994435965734961 9.000000000000000
7.662722289733537 -7.224950011734053 -2.870860574525505 20.000000000000000
7.575873838509946 -7.065991079872259 -3.009792292193311 25.000000000000000
3.047252410809152 -2.780568568865248 -1.348440276266057 0.000000000000000
3.048286940453546 -2.750937058899270 -1.417966158494269 0.000000000000000
5.693075704163241 -5.080539636442107 -2.776941848366091 15.000000000000000
3.173479709621608 -2.800557695375686 -1.620162685501671 0.000000000000000
3.129765508122264 -2.730095035359902 -1.669049119130832 39.000000000000000
5.336809648921205 -5.561910677553604 -0.895104678848647 83.000000000000000
5.350962440722102 -5.520071467005187 -1.025450124158441 92.000000000000000
5.407487064877731 -5.522166434107768 -1.163880370653914 83.000000000000000
5.454706242610669 -5.512857260719601 -1.302720472609288 83.000000000000000
5.444429534561525 -5.446089632691835 -1.427767052386588 9.000000000000000
5.477358032034777 -5.422016066946721 -1.562941700344485 2.000000000000000
5.536511712203220 -5.423216242225035 -1.707588841232908 53.000000000000000
5.568646995978566 -5.397890611295418 -1.845462430576055 62.000000000000000
5.647176668768366 -5.415607506150112 -2.000591665245259 9.000000000000000
5.771487404254505 -5.475608737801630 -2.176498585582368 1.000000000000000
7.537801559559488 -7.074499438419677 -3.013773273572879 21.000000000000000
3.031946277993406 -2.784158105640532 -1.349810879404240 0.000000000000000
3.038563572164044 -2.759682910973177 -1.421836013329350 1.000000000000000
5.719620454644657 -5.137068200028823 -2.806123333544530 30.000000000000000
3.180080623534291 -2.824566492087574 -1.632803527555553 3.000000000000000
3.103013962750334 -2.724424110131876 -1.664067791620463 48.000000000000000
3.091598400633794 -2.683538860746308 -1.729096443829255 0.000000000000000
5.339163247881622 -5.597074536193356 -0.905006325263021 82.000000000000000
5.339553024203632 -5.540883334964508 -1.033189900275086 88.000000000000000
5.373820381966058 -5.520446870152917 -1.167041068765376 85.000000000000000
5.426356182226345 -5.517048740325446 -1.306880170668798 83.000000000000000
5.457640202312913 -5.492204290802224 -1.442647375553534 12.000000000000000
5.448844604408837 -5.426499748314965 -1.566619595990782 6.000000000000000
5.504988547632491 -5.425245790583284 -1.710223728695597 4.000000000000000
5.536980257662155 -5.400158484031857 -1.847820871621026 69.000000000000000
5.629164762486575 -5.431702815126433 -2.007706304449700 8.000000000000000
5.753056323583094 -5.492080854791536 -2.183779939030678 79.000000000000000
6.313517937570604 -5.962573111501616 -2.540377362120076 3.000000000000000
3.025018005890883 -2.795425465338691 -1.354901668672642 2.000000000000000
3.028810296965874 -2.768402214547356 -1.425690486565295 10.000000000000000
3.040102588393445 -2.748031202875901 -1.500198906833322 0.000000000000000
3.167061428723289 -2.831228683123543 -1.635411278716067 55.000000000000000
3.073560422433938 -2.716173570425762 -1.657529325522863 36.000000000000000
3.084393029113234 -2.694881995157516 -1.734599283446622 2.000000000000000
5.341343512527436 -5.632300610629932 -0.914929129866768 80.000000000000000
5.341767884890990 -5.575992174757140 -1.043595290806918 89.000000000000000
5.345706572090174 -5.524270397758288 -1.171338472672776 89.000000000000000
5.392510082910722 -5.515490816143005 -1.309645777585822 84.000000000000000
5.437448200763762 -5.504878293250043 -1.448742917330550 63.000000000000000
5.464642007760373 -5.475251770203399 -1.583073523215272 9.000000000000000
5.470727839986250 -5.424398845208364 -1.711928172821969 5.000000000000000
5.510901163609921 -5.407747236738333 -1.851982232223555 82.000000000000000
5.613876975295388 -5.450447177205286 -2.015790384624166 10.000000000000000
5.715101427712271 -5.489802581726788 -2.183594120853747 96.000000000000000
5.733994133570230 -5.449184915021688 -2.321902460932040 34.000000000000000
5.720446468736035 -5.377838308223055 -2.447350266907869 21.000000000000000
3.009697208685037 -2.798921868905976 -1.356223832482445 44.000000000000000
3.005127454162653 -2.764308995519917 -1.422947912442881 40.000000000000000
3.044157655230226 -2.769402221399505 -1.510950530696059 13.000000000000000
3.137385027059822 -2.822871457575681 -1.629351995728793 80.000000000000000
3.041432519002842 -2.705319744610847 -1.649423327036069 49.000000000000000
3.088198043729185 -2.715939722221705 -1.746347121269283 36.000000000000000
5.337900437169908 -5.661807949205646 -0.923929471969074 79.000000000000000
5.341074973748415 -5.608292850671855 -1.053482522826696 88.000000000000000
5.345021704913178 -5.556479756377602 -1.181641100746292 84.000000000000000
5.364213758257816 -5.519447137579550 -1.313688719287197 82.000000000000000
5.408958915694026 -5.509073941950597 -1.452585195592669 92.000000000000000
5.455338155423212 -5.499110943559339 -1.592334274079905 16.000000000000000
5.453104015811414 -5.439952355071799 -1.718789971837813 7.000000000000000
5.495891194728359 -5.426168923243563 -1.859840528683327 20.000000000000000
5.592976044455726 -5.463745710487443 -2.021850087735105 16.000000000000000
5.679988377919687 -5.490042037009747 -2.184396131328545 99.000000000000000
5.734841583577055 -5.484140271680140 -2.337045462076313 86.000000000000000
5.743501908932739 -5.433568614679718 -2.472483353160046 100.000000000000000
2.994382890049775 -2.802359727451217 -1.357516506616659 49.000000000000000
2.992588917196880 -2.770369888410875 -1.425434058122900 59.000000000000000
3.028713124759016 -2.773082547270719 -1.512046954937253 10.000000000000000
3.129923658291622 -2.834405568091871 -1.634780403857406 83.000000000000000
3.020462720928713 -2.704198335490481 -1.647268136585672 73.000000000000000
3.045035564202507 -2.695579426588682 -1.731476239425119 51.000000000000000
5.339750393405813 -5.697141147833531 -0.933886758544357 78.000000000000000
5.340224911673762 -5.640639436816416 -1.063383579227339 87.000000000000000
5.344179123841386 -5.588735314353416 -1.191957666361077 83.000000000000000
5.344153806639940 -5.531800040261556 -1.319706181518471 85.000000000000000
5.377743042316728 -5.510346549680633 -1.455629304883895 90.000000000000000
5.429424867791400 -5.506232827198455 -1.596734686067301 93.000000000000000
5.465730988221523 -5.485873349058803 -1.735244755785571 12.000000000000000
5.453226300088809 -5.417156910509564 -1.858278215698123 6.000000000000000
5.555471409028185 -5.460694540371892 -2.021844840788483 24.000000000000000
5.644927808536916 -5.490136028567410 -2.185127095670341 102.000000000000000
5.702337331435868 -5.487237908417173 -2.338604946317868 91.000000000000000
5.766229982036924 -5.489486468700924 -2.497692155612435 85.000000000000000
2.984602351478456 -2.810944556535689 -1.361300666139428 61.000000000000000
2.971753467350155 -2.768668851868052 -1.423927708132677 67.000000000000000
3.002237320910011 -2.766532896221464 -1.507571160197609 11.000000000000000
3.130680932481365 -2.853463216458907 -1.644542663269516 90.000000000000000
3.002287370495452 -2.705465943821560 -1.646578443860243 90.000000000000000
3.024033156488031 -2.694579788288116 -1.729068891921372 88.000000000000000
3.165694943581002 -2.788185473833745 -1.883825174396011 0.000000000000000
5.341425912316035 -5.732534662701067 -0.943864166164591 78.000000000000000
5.341933170145593 -5.675916922343103 -1.073844074508703 86.000000000000000
5.340455189233007 -5.618171535955914 -1.201675066051139 82.000000000000000
5.345902054309848 -5.566835090246862 -1.331128207094245 82.000000000000000
5.349300299913421 -5.514314144961484 -1.459358013656652 90.000000000000000
5.400770906446126 -5.510462401296909 -1.600274270235630 92.000000000000000
5.447902178329579 -5.501416594511003 -1.742088777585920 49.000000000000000
5.462907270388439 -5.460165710573038 -1.874550230913952 11.000000000000000
5.518038697908801 -5.457483472521733 -2.021762368710296 35.000000000000000
5.612674400316533 -5.492780021033638 -2.186860241662721 102.000000000000000
5.667112631568545 -5.487537718047073 -2.338963063865474 94.000000000000000
5.719750192695696 -5.479603083842171 -2.492954828452554 86.000000000000000
2.963774728474439 -2.809060061082273 -1.360013577906016 67.000000000000000
2.961972431880258 -2.777201801014852 -1.427685353718114 74.000000000000000
2.989592471379654 -2.772614451467840 -1.509983429903050 12.000000000000000
3.117600724125622 -2.859957362908921 -1.647060899685996 57.000000000000000
2.981394062837617 -2.704171107153982 -1.644339400887244 100.000000000000000
3.005810977170301 -2.695944668307755 -1.728191747158143 90.000000000000000
3.122421065246003 -2.768274656226259 -1.868241450938129 0.000000000000000
5.342926614417494 -5.767987841493826 -0.953861338627697 75.000000000000000
5.340759038604021 -5.708361252912788 -1.083775206310516 86.000000000000000
5.342019594373963 -5.653382693442964 -1.212631343320882 80.000000000000000
5.344752272309070 -5.599080087547363 -1.341887223606230 82.000000000000000
5.345422435366402 -5.543627273768584 -1.469780812573971 87.000000000000000
5.372136168720264 -5.514581350423600 -1.603758558601569 92.000000000000000
5.419072646507479 -5.505788315254218 -1.745378663638505 90.000000000000000
5.458653017700715 -5.489503569212383 -1.886128785621854 18.000000000000000
5.497137150395380 -5.470491585528801 -2.027673781060835 54.000000000000000
5.574966788451365 -5.489888755167684 -2.186376628933747 99.000000000000000
5.631941289307010 -5.487691890243476 -2.339250100257536 95.000000000000000
5.689872475712701 -5.485394510077406 -2.495344120344862 85.000000000000000
2.948481404463722 -2.812322664198580 -1.361218072156934 74.000000000000000
2.946674954248183 -2.780530126465725 -1.428766926346971 81.000000000000000
2.968712792347556 -2.770977312994079 -1.508195308116321 10.000000000000000
3.060705386210439 -2.825964313537746 -1.626281721422690 31.000000000000000
2.971478760814264 -2.712768471551571 -1.648121716920654 111.000000000000000
2.990342095159088 -2.699697993533059 -1.728855372098293 93.000000000000000
3.141955900522257 -2.804031831494591 -1.890231363388741 8.000000000000000
3.150949830988171 -2.778694629267694 -1.969764280281903 0.000000000000000
5.344252123168433 -5.803500030252079 -0.963877919071607 75.000000000000000
5.339426821459837 -5.740849721782154 -1.093719200795649 86.000000000000000
5.343407562501227 -5.688653674657457 -1.223607367912971 78.000000000000000
5.343443344202088 -5.631369810550534 -1.352659337794421 80.000000000000000
5.346839442575333 -5.578642125668945 -1.481716575135945 87.000000000000000
5.348968163268245 -5.524215291456416 -1.608825970073153 90.000000000000000
5.384806777346555 -5.504471909631495 -1.746843143135757 92.000000000000000
5.437867641579234 -5.502288926751684 -1.892011648804332 95.000000000000000
5.487136010106298 -5.494384864066062 -2.037610701806536 90.000000000000000
5.542803508365547 -5.492258951389609 -2.187975520551194 99.000000000000000
5.596823974153698 -5.487700711698245 -2.339466242792350 91.000000000000000
5.635379281810486 -5.467174060888954 -2.486806011349520 73.000000000000000
2.944140356564874 -2.826032676031014 -1.367476827902778 77.000000000000000
2.934119499734146 -2.786396946719494 -1.431152967572691 84.000000000000000
2.958805115530990 -2.779515989436638 -1.511948131641330 11.000000000000000
3.020461563415900 -2.806888359899899 -1.614116996684451 37.000000000000000
2.961534092549417 -2.721338736969062 -1.651888403415656 123.000000000000000
2.974880147337716 -2.703392434582975 -1.729489362099537 90.000000000000000
3.128696525175477 -2.810681244665193 -1.892583682229725 52.000000000000000
3.078095489439710 -2.732544665770867 -1.934639968432911 1.000000000000000
5.345402064975737 -5.839070573380583 -0.973913549979706 74.000000000000000
5.343314494458177 -5.779198752915189 -1.104787756818783 83.000000000000000
5.341922137090777 -5.721095835312644 -1.233979871970289 78.000000000000000
5.350085255082834 -5.672302410178080 -1.365514236774257 79.000000000000000
5.345369250364443 -5.610872965510236 -1.492915316474667 86.000000000000000
5.347499943866708 -5.556333634812199 -1.620432315464055 82.000000000000000
5.358753461421453 -5.511402192710408 -1.750903541001195 92.000000000000000
5.408880942692942 -5.506695286464924 -1.894998145064552 97.000000000000000
5.455227548849924 -5.496311898254362 -2.039390082200162 93.000000000000000
5.507950414479303 -5.491781758343833 -2.188427597696391 99.000000000000000
5.545395209750646 -5.471416660371538 -2.332727094257563 54.000000000000000
2.978752076661919 -2.908102772724733 -1.322648225739945 0.000000000000000
2.934279718659393 -2.834478713155369 -1.371185238154654 82.000000000000000
2.927004143095828 -2.797430578516923 -1.436191110081918 84.000000000000000
2.946145408407235 -2.785453227420613 -1.514285821888675 13.000000000000000
2.999424872285323 -2.805415610404336 -1.612091091848049 42.000000000000000
2.951560156192934 -2.729881818821404 -1.655639423196576 124.000000000000000
2.962135490795786 -2.709507019477047 -1.731678101025884 89.000000000000000
3.018067433587300 -2.729245940276442 -1.835696479215541 34.000000000000000
3.121647391141650 -2.789683851229496 -1.972654449103517 14.000000000000000
5.349047921310771 -5.877634695124464 -0.984459611253834 70.000000000000000
5.347007760442551 -5.817621134966371 -1.115881866399714 83.000000000000000
5.342965070672962 -5.756476852433573 -1.244990964210231 77.000000000000000
5.345735695610509 -5.701828885824083 -1.375628303524510 80.000000000000000
5.343738815580552 -5.643147581836014 -1.504126603872199 81.000000000000000
5.348576442516322 -5.591324170282744 -1.632877234017131 82.000000000000000
5.348960636993147 -5.535061026340501 -1.760265757942334 84.000000000000000
5.374488246217597 -5.505431882902778 -1.896014734643816 97.000000000000000
5.420641254151625 -5.495358011194138 -2.040084489082228 94.000000000000000
5.475870660757936 -5.493887010407997 -2.189896349949178 98.000000000000000
5.524035573671699 -5.484584354502297 -2.338535746820689 72.000000000000000
2.966007312442167 -2.913966711274680 -1.325177206309639 5.000000000000000
2.918954572856638 -2.837613595506320 -1.372322587512505 79.000000000000000
2.914409347021508 -2.803227938796175 -1.438539287314122 81.000000000000000
2.938902379238526 -2.796512011038217 -1.519406916341082 14.000000000000000
2.983852364675582 -2.808954958936918 -1.612951674565495 48.000000000000000
2.944263174424739 -2.740916857844988 -1.660901302939917 126.000000000000000
2.949379890802486 -2.715578510456244 -1.733844172144130 89.000000000000000
2.983552403761854 -2.715897525815678 -1.824691668001786 54.000000000000000
3.094890924693505 -2.784214493323185 -1.966371231334233 57.000000000000000
3.068342053825321 -2.726708531890578 -2.022402932860346 0.000000000000000
5.347173768173880 -5.910384092248586 -0.994040529881955 57.000000000000000
5.347834925326254 -5.853192460822500 -1.126438470592762 81.000000000000000
5.346509080112885 -5.794818947226969 -1.256650319352907 76.000000000000000
5.349300255300725 -5.740027592196766 -1.387837893797179 77.000000000000000
5.344638998979000 -5.678324557097970 -1.516113516479183 84.000000000000000
5.346777467444815 -5.623537617175314 -1.644511897749183 83.000000000000000
5.349863398273423 -5.569963890958874 -1.773200460531363 83.000000000000000
5.353672030533925 -5.517960416839024 -1.901764608903125 95.000000000000000
5.388818372668319 -5.497022044527106 -2.041734847715392 95.000000000000000
5.438412247949657 -5.490395517981860 -2.189121576677700 98.000000000000000
5.494512187676352 -5.489564860016465 -2.340845459902988 93.000000000000000
2.958670639337853 -2.925145061986850 -1.330119699220371 16.000000000000000
2.911763408424538 -2.848639932298545 -1.377274260804308 80.000000000000000
2.904511198145359 -2.811602996527762 -1.442209169907168 69.000000000000000
2.937020833413976 -2.812739186205314 -1.527331952941907 12.000000000000000
2.968287279650464 -2.812435308707725 -1.613782593721758 60.000000000000000
2.934221768255442 -2.749413128958552 -1.664624300257041 122.000000000000000
2.936613526874086 -2.721606898437953 -1.735987581797487 86.000000000000000
2.967975158103278 -2.719608965924790 -1.825171370952141 66.000000000000000
2.995863183888228 -2.713100479624893 -1.913811268354920 73.000000000000000
3.113955440142126 -2.785829264443092 -2.063501108839468 11.000000000000000
3.138747551325322 -2.775276090928569 -2.156165677347066 0.000000000000000
6.804836655080734 -7.566186808778252 -1.277713298177508 32.000000000000000
5.348484758825066 -5.888820572093549 -1.137013216415607 81.000000000000000
5.344517961031264 -5.827411806628950 -1.267068822193850 76.000000000000000
5.349991864970002 -5.775409897701730 -1.399372558786152 77.000000000000000
5.345360168200142 -5.713559393444386 -1.528119016897167 81.000000000000000
5.347504378369084 -5.658637388628319 -1.656991197122412 82.000000000000000
5.350586172359418 -5.604925126452623 -1.786153951655965 81.000000000000000
5.351684819360136 -5.549985888385462 -1.914226275274814 91.000000000000000
5.362429391420503 -5.504096130610185 -2.045380357545147 102.000000000000000
5.409126827393608 -5.494971065630216 -2.191551038205017 96.000000000000000
5.402906256537833 -5.431995498059811 -2.316472510547508 57.000000000000000
2.943185974896408 -2.928252060607913 -1.331388818759790 27.000000000000000
2.904525165837333 -2.859654743621308 -1.382217171178884 80.000000000000000
2.897282120021178 -2.822579084794657 -1.447210982229386 68.000000000000000
2.926969338643182 -2.821192381349615 -1.531032343896621 31.000000000000000
2.963496440539811 -2.826124207392219 -1.620471169536680 56.000000000000000
2.921463724399417 -2.755347121166257 -1.666798112819639 107.000000000000000
2.918471740692623 -2.722587418635023 -1.734919147012003 80.000000000000000
2.952405426736215 -2.723261400359268 -1.825621412421487 62.000000000000000
2.982868036726567 -2.719349237395878 -1.915897179012862 88.000000000000000
3.049939366821952 -2.746886931231313 -2.031965070009898 35.000000000000000
3.064176333953327 -2.727671279377378 -2.116149518843155 0.000000000000000
6.795066994614674 -7.600178287757365 -1.288615742958251 9.000000000000000
5.343650392150998 -5.918627319203081 -1.146467244559304 18.000000000000000
5.353008806099364 -5.871719460291785 -1.280043476391878 76.000000000000000
5.347837329471018 -5.807952304357609 -1.410221942753482 75.000000000000000
5.345901953535555 -5.748851419558470 -1.540142739821636 79.000000000000000
5.350729446478583 -5.696645799238879 -1.670324827271938 81.000000000000000
5.351128586669996 -5.639944057761510 -1.799125863924977 81.000000000000000
5.352220703101580 -5.584856108928917 -1.927666928660186 85.000000000000000
5.354860505130124 -5.530508490679779 -2.056202520452795 89.000000000000000
5.377172306753742 -5.496684600313183 -2.192827487095268 98.000000000000000
5.400544291013703 -5.463795800523724 -2.330201882021946 71.000000000000000
2.938473055846339 -2.942077355702420 -1.337527918635022 23.000000000000000
2.899929965507434 -2.873323291708121 -1.388439215983060 75.000000000000000
2.892694376827004 -2.836179385428323 -1.453554861690762 66.000000000000000
2.927632603836577 -2.840040249763377 -1.540369668838310 51.000000000000000
2.958639270972360 -2.839816314478024 -1.627157326224048 49.000000000000000
2.911373702937698 -2.763780628285668 -1.670486097085430 105.000000000000000
2.903029805544386 -2.726003934367887 -1.735412486393861 79.000000000000000
2.934176037083092 -2.724378188469005 -1.824383312136380 71.000000000000000
2.969861781487933 -2.725554272027325 -1.917960090588677 95.000000000000000
2.986262334549427 -2.707605900348942 -2.000276870247465 60.000000000000000
3.111734660098738 -2.788750030895066 -2.160462142765513 11.000000000000000
7.262263371566052 -8.171006223674807 -1.390894681375141 47.000000000000000
6.803570325668310 -7.580676754580264 -1.473103786653209 18.000000000000000
5.353312171512234 -5.907350515264247 -1.291136973425442 70.000000000000000
5.356154317796569 -5.852152932668274 -1.423909047871837 75.000000000000000
5.348927796968938 -5.787081975441447 -1.552957704618426 79.000000000000000
5.348418175261004 -5.729008651911860 -1.682004425932585 80.000000000000000
5.351490271669582 -5.675020008195603 -1.812115829301587 79.000000000000000
5.349899148576095 -5.616973659688769 -1.940155150091694 86.000000000000000
5.355202279009736 -5.565284227198747 -2.070129469714824 88.000000000000000
5.358660990761911 -5.512057646307817 -2.199542882024832 93.000000000000000
5.395336676991626 -5.492907847463342 -2.342778163033066 94.000000000000000
2.920286093016396 -2.942396270317430 -1.337523578617254 1.000000000000000
2.897949934709067 -2.889668588572325 -1.395950437565082 67.000000000000000
2.885361927708995 -2.847139760627992 -1.458542330403412 63.000000000000000
2.925516061264245 -2.856309132290497 -1.548301623095074 51.000000000000000
2.953715712817048 -2.853511393415589 -1.633840939475167 43.000000000000000
2.901254908447140 -2.772186532955593 -1.674158231085411 81.000000000000000
2.884932474328092 -2.726844054534333 -1.734275099520820 78.000000000000000
2.921289547168028 -2.730389520268246 -1.826432711384726 62.000000000000000
2.956844599602265 -2.731715574105200 -1.920000009373442 94.000000000000000
2.973184489310861 -2.713862500575098 -2.002283776214948 64.000000000000000
3.069204886256447 -2.769249451594517 -2.142329302657041 39.000000000000000
7.268939255086364 -8.227180295579668 -1.405934027573898 47.000000000000000
7.030596164241535 -7.880508352572597 -1.536193243177992 48.000000000000000
5.324370423632202 -5.910769458675908 -1.295177207309772 0.000000000000000
5.356289881682486 -5.887718800119528 -1.435503407904304 75.000000000000000
5.346445908864180 -5.819604347742752 -1.564243388773984 77.000000000000000
5.348604327844543 -5.764278792380198 -1.694537620673713 79.000000000000000
5.354334708989370 -5.712994585308762 -1.826031952717278 79.000000000000000
5.350081611610580 -5.651950013618859 -1.953628366056371 86.000000000000000
5.350022803010287 -5.594533312117290 -2.081996404146725 84.000000000000000
5.356125542562706 -5.543970479589980 -2.212851213647723 91.000000000000000
5.368605088272580 -5.500143730571248 -2.346016698412772 91.000000000000000
5.416767921650835 -5.492388501312394 -2.496388958801471 90.000000000000000
2.890542599855035 -2.900670967776817 -1.400876659495758 54.000000000000000
2.875312705363473 -2.855436864011270 -1.462163178999139 60.000000000000000
2.917980240960671 -2.867354535375961 -1.553397979212674 45.000000000000000
2.959380544408496 -2.877569493525529 -1.646449696561575 37.000000000000000
2.893767153253192 -2.783122769464490 -1.679358006156288 74.000000000000000
2.869517005533508 -2.730135868444957 -1.734706400168140 76.000000000000000
2.905743918003370 -2.733865341993307 -1.826794070177107 77.000000000000000
2.941174108086372 -2.735375474894094 -1.920291612560510 90.000000000000000
2.957459783307475 -2.717653041846170 -2.002482852426748 59.000000000000000
2.987454759355848 -2.713733790961172 -2.096441502307564 64.000000000000000
3.024608473451468 -2.714541086338115 -2.197136835271727 0.000000000000000
7.267474276295890 -8.274522104311826 -1.419477928194899 47.000000000000000
7.287342826904768 -8.217225313468509 -1.606811336421290 45.000000000000000
6.796398040923140 -7.590370986953350 -1.667398557559929 19.000000000000000
5.350965724249526 -5.917500756760824 -1.445688283013253 20.000000000000000
5.351738247589160 -5.860858123671353 -1.577879521220434 75.000000000000000
5.348609499345072 -5.799604368478079 -1.707088044784348 78.000000000000000
5.351669990864911 -5.745340251592109 -1.838148444035871 77.000000000000000
5.355397749169907 -5.692632508958471 -1.969073402932224 86.000000000000000
5.360660498724265 -5.640603776329447 -2.100120962200817 32.000000000000000
5.358750230879835 -5.581469613368026 -2.228384373956766 90.000000000000000
5.360517425550956 -5.526500318262647 -2.357403478958872 87.000000000000000
5.376531645098104 -5.486185238932220 -2.493281972296936 94.000000000000000
2.891074579451111 -2.919726654958670 -1.409687921625008 34.000000000000000
2.875876728657522 -2.874342332456434 -1.471212152415487 27.000000000000000
2.915712761166944 -2.883644710895696 -1.561331571349119 54.000000000000000
2.986138731963924 -2.922473587779374 -1.670964871622633 51.000000000000000
2.880931400136163 -2.788915203368682 -1.681454803474810 73.000000000000000
2.856755661069920 -2.735902557397574 -1.736716525334628 83.000000000000000
2.898125216103324 -2.744781834460814 -1.832131794658884 94.000000000000000
2.925511733466118 -2.738976295467741 -1.920553553072103 82.000000000000000
2.939116376307312 -2.718954544819579 -2.000864090768570 59.000000000000000
2.971631437080683 -2.717635623624992 -2.096536004784605 67.000000000000000
3.045188418485042 -2.751647089735436 -2.223845720699858 3.000000000000000
7.270993882158300 -8.327904677320602 -1.434069611657057 46.000000000000000
7.293460815714608 -8.273448919179819 -1.622768101534492 44.000000000000000
6.785900309719029 -7.624354110724331 -1.679022745776889 13.000000000000000
6.810774670445466 -7.577547969892207 -1.854953140217009 14.000000000000000
5.356812875227588 -5.902196435859874 -1.591545491752890 64.000000000000000
5.353715733992875 -5.840747648371971 -1.721353754355693 76.000000000000000
5.356777946167628 -5.786298045384666 -1.853020497843920 79.000000000000000
5.355197537162916 -5.727735111395106 -1.982587660522454 86.000000000000000
5.352483650001567 -5.667142087525058 -2.110970235760808 49.000000000000000
5.358520539493986 -5.616259143999489 -2.242830991239242 89.000000000000000
5.365570486672218 -5.566631801080241 -2.374659500592492 84.000000000000000
5.365581874481592 -5.509782031480295 -2.503712665984549 89.000000000000000
2.894156000064004 -2.941511990935644 -1.419811344677649 14.000000000000000
2.878988491666299 -2.895948060951993 -1.481636289080892 13.000000000000000
2.910711791735456 -2.897316475633572 -1.567842500213087 51.000000000000000
2.996735173349228 -2.951931142139868 -1.686625279330413 36.000000000000000
2.876008813095416 -2.802384515697528 -1.688179591505664 72.000000000000000
2.843984785178344 -2.741626254690024 -1.738704121254801 87.000000000000000
2.885198899292724 -2.750670648952799 -1.834116215649824 93.000000000000000
2.917729307220146 -2.749936999637371 -1.925981876294288 88.000000000000000
2.926034196983657 -2.725056500069361 -2.002791788856727 65.000000000000000
2.963642351841060 -2.728684041241384 -2.102152090941226 64.000000000000000
3.036913600182923 -2.762885873498944 -2.229619123313211 42.000000000000000
7.274243467050997 -8.381380350848691 -1.448692305658227 46.000000000000000
7.299289286562065 -8.329780877992782 -1.638762470801072 43.000000000000000
7.358371308750102 -8.317479015602016 -1.836151003480750 37.000000000000000
6.849839405552926 -7.667284209773350 -1.880626747840885 11.000000000000000
5.332772486911891 -5.911585233102842 -1.596589375699333 0.000000000000000
5.355971246633441 -5.879086064578613 -1.734796544414758 77.000000000000000
5.353758455751085 -5.818745376634602 -1.865167188047019 78.000000000000000
5.360092976280110 -5.768572705561970 -1.998086140855322 84.000000000000000
5.354746676406635 -5.704947484900451 -2.126011812300231 50.000000000000000
5.358107492522543 -5.651103456474189 -2.257294358917166 87.000000000000000
5.362469720587558 -5.598566673576806 -2.388412380075251 85.000000000000000
5.362455802875190 -5.541570326458577 -2.517858232530974 84.000000000000000
2.926191974578142 -2.993087275194651 -1.444303669933140 12.000000000000000
2.900469111162411 -2.936322016667752 -1.501651074525958 9.000000000000000
2.905644535502006 -2.910990574876654 -1.574350566515165 42.000000000000000
2.951805250323611 -2.926607984938351 -1.670991162950017 19.000000000000000
2.871020198682554 -2.815856418525312 -1.694901663521099 68.000000000000000
2.836457254862007 -2.752404000186750 -1.743898638423880 87.000000000000000
2.877504121712577 -2.761546175973326 -1.839428375200902 90.000000000000000
2.902055766851653 -2.753442710020060 -1.926194582258103 93.000000000000000
2.907726010404338 -2.726224509907391 -2.001107036117326 63.000000000000000
2.947806633600651 -2.732489825341127 -2.102196804608742 61.000000000000000
2.976774790089700 -2.726648796140475 -2.197137727042190 74.000000000000000
3.079019736103394 -2.786782875845008 -2.350630270285571 0.000000000000000
7.272041090196725 -8.428942442379416 -1.462303554514367 45.000000000000000
7.299630265954909 -8.380253370180007 -1.653616470630863 42.000000000000000
7.363746778110092 -8.373874242940593 -1.853073002147882 37.000000000000000
7.045127453237415 -7.933815131432612 -1.949795022019344 56.000000000000000
6.806047862458431 -7.590888143528752 -2.053321622727338 7.000000000000000
5.347535552092509 -5.905906905782116 -1.744839000980254 14.000000000000000
5.355828424730384 -5.856976199979526 -1.879166750909416 76.000000000000000
5.354248872360447 -5.798103031331468 -2.009665706253582 83.000000000000000
5.356807634325699 -5.742821975693676 -2.141076300443235 53.000000000000000
5.360144710618956 -5.688797339440650 -2.272891003105212 85.000000000000000
5.359203696178616 -5.630540537348530 -2.402175056098193 84.000000000000000
5.364433828590084 -5.578877907831631 -2.534503302066598 80.000000000000000
2.915755109796849 -3.001495484233105 -1.447957526249247 12.000000000000000
2.929591525640339 -2.984895970544408 -1.525841911183482 13.000000000000000
2.921548189023860 -2.945879223030356 -1.592321507274667 30.000000000000000
2.946482821684911 -2.940367602783814 -1.677683325903637 5.000000000000000
2.865965501843087 -2.829330675353020 -1.701620895426393 59.000000000000000
2.823648978274802 -2.758056902892755 -1.745847807769419 91.000000000000000
2.869761990548449 -2.772408653239776 -1.844730976875657 70.000000000000000
2.894206181188491 -2.764353974963683 -1.931593560217267 99.000000000000000
2.899838954020546 -2.737128833779174 -2.006578129064426 53.000000000000000
2.937159250268309 -2.741070561927091 -2.105925856505874 61.000000000000000
2.958264004236867 -2.728184684975821 -2.195162501023520 92.000000000000000
3.057579412018181 -2.786398056644415 -2.346642284015777 1.000000000000000
6.195685329453294 -7.224346300419733 -1.257896589552943 5.000000000000000
7.307485578833561 -8.439774732486180 -1.670269732716048 44.000000000000000
7.376619262752629 -8.439287285416139 -1.872008110719714 37.000000000000000
7.004528003745629 -7.936103208592503 -1.954110873853121 45.000000000000000
7.736557369111841 -8.681506880260383 -2.351938426581984 32.000000000000000
6.810261633323468 -7.567650026897012 -2.238478401970410 12.000000000000000
5.357696780346463 -5.895274890280254 -1.893188627130513 61.000000000000000
5.358740534228595 -5.839077563755493 -2.025209394423862 81.000000000000000
5.353420213612038 -5.775105699340249 -2.154052501202750 38.000000000000000
5.361979029453870 -5.726559698787081 -2.288510193100429 86.000000000000000
5.361022893444757 -5.668104299959590 -2.418315773578961 83.000000000000000
5.363582969721806 -5.613506493393920 -2.549922856781063 79.000000000000000
2.905289593055008 -3.009875116050689 -1.451595042105448 5.000000000000000
2.921683912319415 -2.996016904238149 -1.530876162860071 1.000000000000000
2.931993619774484 -2.975572725842635 -1.607468931837610 24.000000000000000
2.922777077208231 -2.935730987346056 -1.673882232082729 0.000000000000000
2.889583747408993 -2.871364928392317 -1.725498540917490 47.000000000000000
2.816046554351707 -2.768794146814556 -1.751017069102792 89.000000000000000
2.851565357406818 -2.773136983166233 -1.843296580866197 52.000000000000000
2.881117800629296 -2.770260279297589 -1.933498953670019 102.000000000000000
2.899671213754598 -2.755400092139431 -2.017443229526162 48.000000000000000
2.934224644263544 -2.756896277770526 -2.115219291376546 62.000000000000000
2.947495982692602 -2.736810358378550 -2.198907113609585 95.000000000000000
3.054118719505510 -2.802379549314662 -2.356448961626152 34.000000000000000
3.139718046024315 -2.844025444433484 -2.502017158790916 0.000000000000000
6.160815031983233 -7.226754491865138 -1.262845064129604 25.000000000000000
7.312450783314589 -8.496417796796999 -1.686370114735517 42.000000000000000
7.383968671793001 -8.498893775804582 -1.889673845289084 37.000000000000000
6.919879745957524 -7.887973563137519 -1.945949991323115 37.000000000000000
7.779085124774297 -8.782715934286948 -2.382964422549644 34.000000000000000
7.085346400612409 -7.921834230171703 -2.346031716113119 17.000000000000000
5.828796362265142 -6.453375633130277 -2.074289252964744 21.000000000000000
5.355177875319631 -5.871546093158753 -2.037800873392515 81.000000000000000
5.360321626320213 -5.818775170479034 -2.171272340776375 83.000000000000000
5.360994901661504 -5.761579238384760 -2.303028081499013 84.000000000000000
5.365254373128840 -5.708519207452775 -2.435666227085438 82.000000000000000
5.365162960020850 -5.650943131970804 -2.566609462238526 80.000000000000000
2.900025510529482 -3.023679070939199 -1.457845298460188 0.000000000000000
5.370145535535857 -5.542278049250268 -2.830740354035131 82.000000000000000
2.900487308428397 -2.962691260791985 -1.599615537206548 1.000000000000000
5.368096839019397 -5.427075432641145 -3.092262048296182 22.000000000000000
2.980608937492459 -2.981264058694658 -1.790093565732118 89.000000000000000
2.805799345366953 -2.776947281690952 -1.754552315620031 90.000000000000000
2.833397268051818 -2.773791593970139 -1.841826298709270 75.000000000000000
2.870605866843375 -2.778626042354349 -1.937126550846539 104.000000000000000
2.909717252484109 -2.783573587312668 -2.035536193392690 58.000000000000000
2.931204259205126 -2.772737847586242 -2.124515572873153 86.000000000000000
2.934136009594841 -2.743010901051122 -2.200712855852298 101.000000000000000
3.027596189394148 -2.797149158638994 -2.348436479509548 63.000000000000000
3.135817493347299 -2.860168533511457 -2.512112379717116 0.000000000000000
6.133666605176471 -7.238103852228980 -1.269318951600001 32.000000000000000
6.185874944165605 -7.230820285515771 -1.439293289679968 18.000000000000000
7.388427755780522 -8.555633611688464 -1.906715710366541 41.000000000000000
6.858851319594377 -7.866111802035803 -1.944196413321327 0.000000000000000
7.810674303658202 -8.872480837651908 -2.410922376948938 14.000000000000000
7.085778403365067 -7.971184203604820 -2.363417612400771 16.000000000000000
5.797384848178490 -6.458407387954620 -2.077758150825949 20.000000000000000
5.419091070269260 -5.978677211035189 -2.076317600555481 45.000000000000000
5.359169742982198 -5.854007823261494 -2.185341179563807 82.000000000000000
5.362431609329144 -5.799468754051333 -2.318687863005693 82.000000000000000
5.366656384631382 -5.746225414220465 -2.451854142942043 80.000000000000000
5.369144964042143 -5.691209656003464 -2.584572499759640 79.000000000000000
5.369906674174720 -5.634793208988745 -2.716016163904057 79.000000000000000
5.371426471907005 -5.579374989369480 -2.848483172654348 81.000000000000000
2.910723402035001 -2.992447727397352 -1.614782299766816 0.000000000000000
5.345899391208762 -5.439931992082460 -3.097470519729212 25.000000000000000
2.943775225759937 -2.963770247504073 -1.778160099713095 91.000000000000000
2.800701262291335 -2.790229891615378 -1.761327224378183 90.000000000000000
2.823006473248769 -2.782008525529117 -1.845385329918619 85.000000000000000
2.854912166453014 -2.781941459192561 -1.937240883180026 107.000000000000000
2.906732593806923 -2.799462069464727 -2.044625576903689 92.000000000000000
2.922974439357580 -2.783715523306974 -2.130080822917764 102.000000000000000
2.923318767283882 -2.751570038340267 -2.204420492772190 99.000000000000000
2.988439626221608 -2.779968927136252 -2.330450892978732 43.000000000000000
3.126761574235843 -2.871670441926999 -2.518127663730532 21.000000000000000
6.116711610606170 -7.261491680190167 -1.277880139608037 24.000000000000000
6.145657368236254 -7.227230637969843 -1.442653394905869 30.000000000000000
6.203304571727788 -7.226938860022329 -1.614300809601571 3.000000000000000
7.547344438488620 -8.708596804384229 -2.156411283935338 14.000000000000000
7.867560844125388 -8.991999274950908 -2.447008664322086 13.000000000000000
7.083368538331743 -8.017685805992334 -2.379958921191939 13.000000000000000
5.760813938753865 -6.457517806314318 -2.079299532100347 20.000000000000000
5.726007059123102 -6.356729767550307 -2.209010145113012 22.000000000000000
5.363022224069769 -5.894995519200367 -2.201555007884503 46.000000000000000
5.366260328861024 -5.840249929126031 -2.335498843552651 83.000000000000000
5.365256954984592 -5.781199649449280 -2.466869356126698 80.000000000000000
5.365112556433615 -5.723246913759181 -2.598789722340836 78.000000000000000
5.368434903344363 -5.669424283874362 -2.731944175485594 78.000000000000000
5.369907984237151 -5.613826346659124 -2.864863345847750 79.000000000000000
5.372469820332830 -5.559199689725875 -2.998187925958721 62.000000000000000
5.297787508304666 -5.426211739764715 -3.087558529338454 22.000000000000000
3.064732608962109 -3.105840463830544 -1.861908979729453 76.000000000000000
2.790379533608205 -2.798341807918079 -1.764836871917127 69.000000000000000
2.812587695922680 -2.790196993324298 -1.848928119529907 89.000000000000000
2.849496616663735 -2.795271112471154 -1.944332389126459 106.000000000000000
2.895980428121731 -2.807918056310614 -2.048284538090521 93.000000000000000
2.907039738555444 -2.787337027334714 -2.130025411704841 99.000000000000000
2.909928732501309 -2.757688976809356 -2.206182739246113 95.000000000000000
2.959596484549367 -2.772088018706133 -2.320323396681792 56.000000000000000
3.105033472269600 -2.871482739511948 -2.513912093286149 63.000000000000000
3.169234858882768 -2.894883096991446 -2.649063657973421 1.000000000000000
6.112384187306177 -7.300043678442619 -1.289102726550282 6.000000000000000
6.125930002521703 -7.247637259336737 -1.450770747319599 30.000000000000000
6.165424437287973 -7.226516897636895 -1.617866198503663 25.000000000000000
7.563516786927275 -8.780649423231415 -2.178227150729488 20.000000000000000
7.895470863493466 -9.079402828985438 -2.474396918996013 12.000000000000000
