# This PCD file was generated using the MATLAB® pcwrite function
# from Computer Vision Toolbox®.
# .PCD v.7 - Point Cloud Data file format
VERSION .7
FIELDS x y z intensity
SIZE 8 8 8 8
TYPE F F F F
COUNT 1 1 1 1
WIDTH 632
HEIGHT 1
VIEWPOINT 0 0 0 1 0 0 0
POINTS 632
DATA ascii
-1.893953745325926 -5.515773020970059 -0.970016078065061 7.000000000000000
-1.927982466272130 -5.547711826612690 -1.081924719474011 15.000000000000000
-1.946071707441343 -5.533204280517501 -1.185205171925572 16.000000000000000
-1.965943288793561 -5.524159064507545 -1.291026574190738 14.000000000000000
-1.994751198720465 -5.538848572703093 -1.403149366200253 5.000000000000000
-2.015933637486219 -5.533503521449897 -1.510877343583251 16.000000000000000
-2.036722906175354 -5.526069758859936 -1.619251933355125 18.000000000000000
-2.066637538931480 -5.541812938485108 -1.735573287855713 4.000000000000000
-2.088874004452890 -5.537499044417675 -1.847352085173343 15.000000000000000
-2.106723018206583 -5.520348016236899 -1.955927377022952 15.000000000000000
-2.136189588382674 -5.533106281236825 -2.076074402092336 4.000000000000000
-2.163922363613908 -5.539827296746931 -2.196213451937037 12.000000000000000
-2.182986098488303 -5.523489516777484 -2.308250257631533 11.000000000000000
-2.211321464520629 -5.528946484139127 -2.431343693531611 4.000000000000000
-2.237621267830633 -5.528621543047012 -2.553730388178928 11.000000000000000
-2.258370687062239 -5.512060409623649 -2.670531010955985 9.000000000000000
-2.294427507323369 -5.533477329841586 -2.808502635527888 5.000000000000000
-2.319677022321059 -5.525083179266672 -2.933962912904690 7.000000000000000
-2.343654964035926 -5.514341048682147 -3.060279106285708 5.000000000000000
-2.167189126121240 -4.914679921356589 -3.096645372372538 3.000000000000000
-1.909382816043634 -4.113189640476049 -3.040974883697297 89.000000000000000
-1.923666151956526 -5.547907716604215 -0.972899020381964 7.000000000000000
-1.943712953051136 -5.538773578109080 -1.077493019272964 16.000000000000000
-1.961899351473733 -5.524250153621172 -1.180682503852495 23.000000000000000
-1.991136374892317 -5.540923216184280 -1.292412414413739 3.000000000000000
-2.016207431223099 -5.544462260397544 -1.402120478884788 17.000000000000000
-2.033538649036282 -5.528104348240662 -1.507044418004453 25.000000000000000
-2.058497912395171 -5.531476864770117 -1.618564190626275 4.000000000000000
-2.084586042550908 -5.536310011773000 -1.731666389563528 18.000000000000000
-2.105610462307134 -5.528383881043690 -1.842224808441965 15.000000000000000
-2.130388221927771 -5.528947175665641 -1.956984709334837 4.000000000000000
-2.160085076504239 -5.541540316410236 -2.077345273146384 16.000000000000000
-2.175637012171335 -5.516672531119926 -2.185252336838257 11.000000000000000
-2.203081863900380 -5.521222049199745 -2.305626462457393 4.000000000000000
-2.232999731509156 -5.530026458885903 -2.430250925954330 12.000000000000000
-2.255307861709258 -5.519374188303830 -2.548009226513482 11.000000000000000
-2.285942246033606 -5.526423098486139 -2.676157653113449 4.000000000000000
-2.312483163051609 -5.524177273686278 -2.802575791926218 9.000000000000000
-2.335079680355926 -5.509149311184760 -2.924427594156053 7.000000000000000
-2.350768934817818 -5.478814357727023 -3.039628702433858 7.000000000000000
-2.183916697728092 -4.905961198890337 -3.090706807894742 3.000000000000000
-1.929434116783166 -4.117381511032730 -3.044213770680207 103.000000000000000
-1.941848569229727 -5.546400344767625 -0.969847075441294 22.000000000000000
-1.958086521309105 -5.526085414383119 -1.072323257236247 31.000000000000000
-1.986950263072034 -5.541095841880745 -1.181652031339975 4.000000000000000
-2.011116095037941 -5.542902860516142 -1.290323963646849 21.000000000000000
-2.028321986584749 -5.524429019385344 -1.394595973215894 27.000000000000000
-2.051123021954554 -5.522655359092649 -1.503187324817926 5.000000000000000
-2.084392826025845 -5.547647457135567 -1.621002849519170 13.000000000000000
-2.102513510457329 -5.530756297292234 -1.727734851852765 15.000000000000000
-2.123673392925470 -5.522790126346873 -1.838264545843690 6.000000000000000
-2.155502898921308 -5.541006466036666 -1.959248477371284 12.000000000000000
-2.178519892864435 -5.535834014193743 -2.073304812054786 12.000000000000000
-2.198322323275434 -5.521404910010387 -2.185335393641459 5.000000000000000
-2.228754557373622 -5.532734854720735 -2.308747311930136 10.000000000000000
-2.249108039513778 -5.517313745505128 -2.423094315179394 12.000000000000000
-2.275754733054137 -5.516882689167872 -2.545405623656387 4.000000000000000
-2.309410364604767 -5.530577080508329 -2.676833376288491 11.000000000000000
-2.331903253947857 -5.518167714118818 -2.798320262779816 7.000000000000000
-2.361702460247486 -5.519623071618601 -2.928911510530253 5.000000000000000
-2.363315973984776 -5.456381978045237 -3.026254668194919 41.000000000000000
-2.207707549259878 -4.913016208485971 -3.094712121037284 3.000000000000000
-1.948114397943622 -4.118500952068818 -3.045192966025798 80.000000000000000
-1.953456367469239 -5.526231272608285 -0.963522777125745 25.000000000000000
-1.980347635261042 -5.535594700048233 -1.071443213760721 4.000000000000000
-2.006777354826361 -5.543098062114289 -1.179428896517679 19.000000000000000
-2.025744327011088 -5.530140590261881 -1.284791412455876 24.000000000000000
-2.044382710573371 -5.515325512463710 -1.389827264186304 11.000000000000000
-2.079574406809805 -5.546194274141939 -1.507197186839470 8.000000000000000
-2.098088261542717 -5.531251181487328 -1.613911402175382 15.000000000000000
-2.120419765713883 -5.525151849855726 -1.723778713526109 10.000000000000000
-2.151393462680876 -5.542077480676801 -1.842568687161772 8.000000000000000
-2.170989804491100 -5.528219166230806 -1.952716087636411 11.000000000000000
-2.194143156316695 -5.523053225502195 -2.066611448206560 8.000000000000000
-2.225257224995464 -5.536515748170496 -2.189511281739735 7.000000000000000
-2.248900090042486 -5.530332259136950 -2.306051493040886 11.000000000000000
-2.270788795951594 -5.518272192435042 -2.421939358113425 5.000000000000000
-2.304691297317996 -5.534715654450117 -2.552170967715818 10.000000000000000
-2.325830870692242 -5.517821688051696 -2.669323993036684 10.000000000000000
-2.358412610507920 -5.528776226587401 -2.802489499519884 4.000000000000000
-2.358475049294667 -5.460673418022036 -2.896566461098736 33.000000000000000
-2.384294058121074 -5.453535978192765 -3.023749853900882 26.000000000000000
-2.227270653829721 -4.910511051100274 -3.092701513500940 3.000000000000000
-1.966822236719536 -4.119561140996010 -3.046140229001485 80.000000000000000
-1.972914122977006 -5.528349824455468 -0.961073400839437 7.000000000000000
-2.005353229004559 -5.552430453054184 -1.071948921785690 8.000000000000000
-2.022589811456946 -5.533984045159269 -1.174825537053568 27.000000000000000
-2.044373070657124 -5.528341843244161 -1.281795308232836 18.000000000000000
-2.074044646678454 -5.542644768473649 -1.394212241409512 4.000000000000000
-2.094464272995473 -5.533364496543657 -1.501303685979525 16.000000000000000
-2.117213744718282 -5.529244334354244 -1.611011809450039 15.000000000000000
-2.146630282332544 -5.540987302550417 -1.726494177212293 5.000000000000000
-2.170889193133314 -5.539913878524798 -1.839722351243607 13.000000000000000
-2.189209567904934 -5.522461398556959 -1.948662507783686 10.000000000000000
-2.220950172933761 -5.538294840888994 -2.070392857582310 5.000000000000000
-2.243837686540354 -5.530646313781537 -2.185378637288270 12.000000000000000
-2.266212134652021 -5.520963711558757 -2.300447403529859 7.000000000000000
-2.302448903865780 -5.543129048839636 -2.431260042240949 7.000000000000000
-2.323783669141137 -5.528685533013327 -2.547924986353033 11.000000000000000
-2.349335387355385 -5.521840978986083 -2.669928733226738 5.000000000000000
-2.359201058922074 -5.479336556210896 -2.776227884621844 11.000000000000000
-2.377851571505773 -5.454551476803303 -2.892256228412421 38.000000000000000
-2.436958441919141 -5.522431924129486 -3.061013426255188 4.000000000000000
-2.370935185001345 -5.308398090780837 -3.073003751757715 2.000000000000000
-2.249725275728244 -4.914259694600703 -3.094635978232736 3.000000000000000
-1.987002487044709 -4.123560883578579 -3.049273152064077 71.000000000000000
-1.999087197771872 -5.548977237132123 -0.961809751195193 6.000000000000000
-2.019688531060702 -5.539590653995575 -1.066704093770500 28.000000000000000
-2.038358757849086 -5.524828750059183 -1.170203767221502 30.000000000000000
-2.067105270739638 -5.537473939908123 -1.281312672425750 3.000000000000000
-2.092884482292896 -5.540706293884625 -1.391209656624371 19.000000000000000
-2.113438899454666 -5.531366661431282 -1.498340039870253 19.000000000000000
-2.141907964587654 -5.541582948794816 -1.612273144619895 4.000000000000000
-2.167361535376367 -5.542415460558685 -1.724700216713345 17.000000000000000
-2.184762756994789 -5.523474184711498 -1.832130079026644 14.000000000000000
-2.215881105766577 -5.537829228641255 -1.952048759512244 4.000000000000000
-2.239365704963664 -5.532417315480282 -2.066266170367833 14.000000000000000
-2.262395763277435 -5.524724289194481 -2.181220515832557 11.000000000000000
-2.296338874906999 -5.542590881687569 -2.307747405983736 4.000000000000000
-2.317090784234388 -5.526824544757551 -2.422518678788992 11.000000000000000
-2.341414827535197 -5.519211193684127 -2.542091344721929 6.000000000000000
-2.371444519068465 -5.522424335271488 -2.668867991149318 9.000000000000000
-2.369782830549968 -5.453229177971010 -2.761803191495768 4.000000000000000
-2.413147462169137 -5.484609348484817 -2.907125662977025 6.000000000000000
-2.459645652758895 -5.522638460680203 -3.060193408181918 8.000000000000000
-2.385776334663582 -5.292596052267760 -3.063102072814245 2.000000000000000
-2.272227958088220 -4.917934768612808 -3.096529947885459 3.000000000000000
-2.005776258894712 -4.124498451299321 -3.050153787021867 70.000000000000000
-2.014602918312455 -5.539821809456233 -0.957357509502071 32.000000000000000
-2.033957727219626 -5.526717288209220 -1.061446173902804 41.000000000000000
-2.059561624029303 -5.530340680589111 -1.168671841642018 4.000000000000000
-2.091286487731841 -5.550186298797957 -1.281630553188256 22.000000000000000
-2.108951066049072 -5.531432774409229 -1.386353801596802 20.000000000000000
-2.129624017253940 -5.522074282613261 -1.493389822664008 4.000000000000000
-2.163889470631443 -5.546640015602043 -1.611394084701982 16.000000000000000
-2.182474159668979 -5.529480614827166 -1.718427965504449 17.000000000000000
-2.208467186889340 -5.531860051640367 -1.832763228979275 4.000000000000000
-2.235550462762366 -5.535471659039934 -1.949171013638529 15.000000000000000
-2.257758838890225 -5.526487661736873 -2.062114242733214 15.000000000000000
-2.289543976660385 -5.539588309570438 -2.185257362282230 4.000000000000000
-2.315104622220086 -5.536542785246668 -2.303512225994957 11.000000000000000
-2.337421630738524 -5.524154209965633 -2.419752959430908 9.000000000000000
-2.369148768015063 -5.533395287230923 -2.547148741291587 6.000000000000000
-2.365947663064654 -5.459186176252396 -2.636975909759825 41.000000000000000
-2.367082811155560 -5.397201907690751 -2.732242034072240 4.000000000000000
-2.454521017167376 -5.527690719427210 -2.928884068487846 10.000000000000000
-2.477964556234930 -5.513004881271502 -3.053924170165335 8.000000000000000
-2.412248311195590 -5.302533947148511 -3.068101664624503 2.000000000000000
-2.291842018200448 -4.915238482496142 -3.094418656840072 3.000000000000000
-2.023108707273323 -4.122384722717912 -3.048789818347081 71.000000000000000
-2.031435998360756 -5.534332843944565 -0.953525960318072 30.000000000000000
-2.052273505789332 -5.524882511371387 -1.058296127262007 6.000000000000000
-2.084954017386061 -5.546802096955855 -1.169424321019468 13.000000000000000
-2.105830744667249 -5.537227928602955 -1.276003033504861 16.000000000000000
-2.124973273997449 -5.522117316795652 -1.381479252230072 10.000000000000000
-2.158428061968725 -5.545273830983523 -1.497204875999030 10.000000000000000
-2.178844173695551 -5.533657799130993 -1.605263040398580 14.000000000000000
-2.201785523353606 -5.527221741086200 -1.715466214769187 6.000000000000000
-2.229384011054051 -5.533070976585342 -1.831003140173575 11.000000000000000
-2.253785113760757 -5.529532876842605 -1.945024119363860 13.000000000000000
-2.279012394311973 -5.527498345956825 -2.060543749115018 4.000000000000000
-2.311020840631282 -5.540477128928392 -2.183767354364766 13.000000000000000
-2.330942736854829 -5.523558625190781 -2.296389790863962 10.000000000000000
-2.360667047351843 -5.528247810330830 -2.419943643789978 4.000000000000000
-2.361921438779241 -5.466297249377223 -2.514799693511594 35.000000000000000
-2.389347261832016 -5.463054219776659 -2.637509858589401 44.000000000000000
-2.377232108556409 -5.371110818481871 -2.717852107388381 2.000000000000000
-2.472657705960949 -5.518019122725662 -2.922684524608470 7.000000000000000
-2.499186481683858 -5.509828003828899 -3.051235536301895 4.000000000000000
-2.404838325358158 -5.238373218606130 -3.030238051948829 2.000000000000000
-2.367968129708679 -5.097513130193362 -3.077426006290038 1.000000000000000
-2.312936860855893 -4.915628263116162 -3.094256915084407 3.000000000000000
-2.043404036775757 -4.126194265210760 -3.051818609981658 71.000000000000000
-2.044132491670760 -5.517686783436758 -0.947763111955316 15.000000000000000
-2.078884308841441 -5.545113773020385 -1.059343794389938 7.000000000000000
-2.100716639135082 -5.537482717095171 -1.164719176425491 22.000000000000000
-2.121709280330281 -5.527886712695292 -1.271201880649646 17.000000000000000
-2.152233985838871 -5.541812828505579 -1.383840830446592 5.000000000000000
-2.173208666022096 -5.532251901287827 -1.491219968557182 15.000000000000000
-2.196583454934143 -5.527819382025920 -1.601197678367091 11.000000000000000
-2.229701154054467 -5.546305151954763 -1.719107886378345 7.000000000000000
-2.250324757764881 -5.534215539018580 -1.829207711627009 14.000000000000000
-2.269102903671705 -5.516506108700512 -1.938379829965885 6.000000000000000
-2.304649029657137 -5.538918882400817 -2.062839417958679 11.000000000000000
-2.326686279024160 -5.527436124480598 -2.176782223555591 12.000000000000000
-2.354030787946930 -5.527724918901870 -2.296392882402588 4.000000000000000
-2.382490171868587 -5.528856313538983 -2.418601340690467 5.000000000000000
-2.382242317938251 -5.463479954362555 -2.512037485170698 44.000000000000000
-2.429046049145499 -5.503670497301763 -2.655771516576832 6.000000000000000
-2.413874234712712 -5.404695807465338 -2.733655868568084 1.000000000000000
-2.490746783325241 -5.508299675275818 -2.916463466034038 5.000000000000000
-2.526355104670641 -5.519582455286963 -3.055708658297275 7.000000000000000
-2.362742982098041 -5.100377397927578 -2.949694899350772 28.000000000000000
-2.380628969417375 -5.078684032438264 -3.065491511752625 1.000000000000000
-2.334055664613913 -4.915951448992498 -3.094059712680457 3.000000000000000
-2.060766412046599 -4.123968163388794 -3.050395446878362 69.000000000000000
-2.071955079237650 -5.541709018102342 -0.948961173233384 4.000000000000000
-2.095877339844451 -5.539462404479356 -1.055419559078912 28.000000000000000
-2.115031616628477 -5.524456447236958 -1.159226562516549 29.000000000000000
-2.147432893257739 -5.544035888990813 -1.272241341309321 3.000000000000000
-2.173945751898140 -5.546894711108100 -1.382524839445936 17.000000000000000
-2.190781365890504 -5.526409974638469 -1.487163003535042 18.000000000000000
-2.221489825599946 -5.539859082832677 -1.602293449126033 4.000000000000000
-2.246192491820938 -5.536780892585309 -1.713864824654929 17.000000000000000
-2.265480238436021 -5.521136839705035 -1.822703290858880 11.000000000000000
-2.301856184317260 -5.545615145428973 -1.946523764434736 6.000000000000000
-2.323055118436302 -5.532806217874774 -2.058593275067499 13.000000000000000
-2.345222716705295 -5.521281175349171 -2.172506522840452 6.000000000000000
-2.380116439578871 -5.538682653516274 -2.299205123011934 10.000000000000000
-2.340674647647355 -5.382989462926217 -2.353219631884421 1.000000000000000
-2.409987418090748 -5.477476099846258 -2.516998255910661 12.000000000000000
-2.463090579823772 -5.530749166886039 -2.667480918127205 10.000000000000000
-2.432861702040627 -5.398391781553015 -2.729276481341683 1.000000000000000
-2.378636302035400 -5.213277720975213 -2.759243509845198 1.000000000000000
-2.364791726482183 -5.120389963923036 -2.833850861939928 14.000000000000000
-2.379688229962655 -5.091043926473970 -2.943584832630056 49.000000000000000
-2.403683229261054 -5.082053116064174 -3.066962513444134 1.000000000000000
-2.356701161912399 -4.919345239264524 -3.095801358350728 3.000000000000000
-2.081137182873281 -4.127650018290324 -3.053354442669595 68.000000000000000
-2.091569932269381 -5.543449647025957 -0.946309267266489 33.000000000000000
-2.112848900382953 -5.533762915486017 -1.051472072545077 29.000000000000000
-2.137768453376125 -5.533369261822085 -1.158320617131696 4.000000000000000
-2.168998757759590 -5.549159666695270 -1.270722386030794 20.000000000000000
-2.184238169493882 -5.522912518035896 -1.373956672187449 22.000000000000000
-2.212656280385920 -5.531328700626096 -1.485986201315060 3.000000000000000
-2.243590028959449 -5.544646423511352 -1.601269440224385 17.000000000000000
-2.264095086406532 -5.530772629031913 -1.709702771145095 18.000000000000000
-2.292276958544637 -5.536305024726784 -1.825510618569588 5.000000000000000
-2.320115072002426 -5.539490613179465 -1.942280566541245 14.000000000000000
-2.339961665309023 -5.523156790636871 -2.053026661036344 10.000000000000000
-2.377073462035698 -5.546193274305165 -2.180439845567348 6.000000000000000
-2.398858670278878 -5.532399048789328 -2.294851159657811 9.000000000000000
-2.300866033129384 -5.244190622798172 -2.291005065325519 3.000000000000000
-2.455806731612743 -5.531824201695787 -2.540478360171231 10.000000000000000
-2.479333964067121 -5.517616033884886 -2.659789540027485 8.000000000000000
-2.459346152653100 -5.408573969826146 -2.733229612445586 1.000000000000000
-2.368480755515189 -5.144854288630596 -2.722026682366201 1.000000000000000
-2.374066736220839 -5.094795330621491 -2.818831614525278 39.000000000000000
-2.396586994028120 -5.081666004770941 -2.937454918123953 43.000000000000000
-2.428296625293430 -5.088516783568314 -3.070304942987278 1.000000000000000
-2.379393236532688 -4.922664402179946 -3.097502059636579 3.000000000000000
-2.100042662316469 -4.128287512748569 -3.054073841369097 66.000000000000000
-2.109802606997086 -5.541435578826244 -0.942995591308335 17.000000000000000
-2.128382733311577 -5.524339820162838 -1.046804896771303 7.000000000000000
-2.163426300815496 -5.549519447877042 -1.158897984541460 17.000000000000000
-2.181997604072517 -5.532373038775936 -1.264173649324691 15.000000000000000
-2.203062078425416 -5.520640097612779 -1.370784589654349 8.000000000000000
-2.237483297141718 -5.543373640387268 -1.486700096882839 12.000000000000000
-2.258432349189027 -5.531470535996953 -1.595046404821539 18.000000000000000
-2.284911774296686 -5.531823978465980 -1.707711232893074 4.000000000000000
-2.316238503047950 -5.544312492673216 -1.825934878517280 18.000000000000000
-2.335387016950276 -5.526301298847003 -1.935556104953306 14.000000000000000
-2.370212685574026 -5.544789637822871 -2.059073504621939 5.000000000000000
-2.392680157386837 -5.532990480232305 -2.173375717658128 11.000000000000000
-2.417577042543664 -5.526062366112365 -2.290471560443928 7.000000000000000
-2.362382788997363 -5.336640357510217 -2.329822579691907 8.000000000000000
-2.461300255305568 -5.495066214831751 -2.522108710553015 5.000000000000000
-2.501556076118036 -5.517788244126901 -2.658512006933933 3.000000000000000
-2.449543299685343 -5.339365610071006 -2.697074063676731 1.000000000000000
-2.370014264663922 -5.102695603508866 -2.698727471090924 26.000000000000000
-2.390788266079939 -5.085381095135803 -2.812772046222348 36.000000000000000
-2.497239106827384 -5.248363368519263 -3.033086677844389 2.000000000000000
-2.445356360585354 -5.079064058014022 -3.064049047312215 1.000000000000000
-2.397553181527338 -4.916520058354356 -3.093254799971611 3.000000000000000
-2.117448215310001 -4.125892017682834 -3.052561565947780 68.000000000000000
-2.123785636866534 -5.528302199295000 -0.937776818816438 17.000000000000000
-2.156718355550703 -5.547921622508612 -1.048364252219653 7.000000000000000
-2.179135812908721 -5.539994309550578 -1.154091053186815 17.000000000000000
-2.199246719923119 -5.526468208136817 -1.260104364471629 14.000000000000000
-2.230622529660585 -5.540007814687781 -1.372960503207916 7.000000000000000
-2.255080305487582 -5.537351318600819 -1.482549557415135 17.000000000000000
-2.276150554067884 -5.525408026547862 -1.590867937755026 6.000000000000000
-2.313151153651268 -5.550565087269954 -1.711158365652254 15.000000000000000
-2.331348003617163 -5.531072474227724 -1.819350920210463 16.000000000000000
-2.358056292378190 -5.530589071190184 -1.934944714354216 4.000000000000000
-2.388629481635576 -5.538493124436905 -2.054732856121807 14.000000000000000
-2.409721793545679 -5.523200697824368 -2.167651016483832 10.000000000000000
-2.445333757389773 -5.540204618433918 -2.294570025266933 5.000000000000000
-2.453340788159182 -5.493276547632652 -2.396582514411631 13.000000000000000
-2.379934448505886 -5.266628412009439 -2.415829710602533 2.000000000000000
-2.526848016514536 -5.524554331391961 -2.660406461602225 9.000000000000000
-2.370541593821788 -5.121749821415081 -2.586015336148540 18.000000000000000
-2.388108384944707 -5.096509409657640 -2.694462873937568 47.000000000000000
-2.435064666344541 -5.134118411129201 -2.838871644020652 12.000000000000000
-2.543850392974220 -5.299445504395285 -3.061876307774289 1.000000000000000
-2.466977416042880 -5.079054244196276 -3.063495783128517 1.000000000000000
-2.420302841793689 -4.919701093763201 -3.094881468171366 3.000000000000000
-2.137930214412420 -4.129381025481105 -3.055415314601124 67.000000000000000
-2.150553999129529 -5.548293789234752 -0.938152186570524 4.000000000000000
-2.175141771880052 -5.545718717758077 -1.045019701120618 19.000000000000000
-2.196249203712370 -5.534078852924315 -1.150024645304903 23.000000000000000
-2.223764480089290 -5.538674105250364 -1.260143123983261 4.000000000000000
-2.250982708271090 -5.541209989866317 -1.370607418362488 19.000000000000000
-2.271178731532540 -5.527687412326550 -1.477414986062093 12.000000000000000
-2.304231879945382 -5.544285670204694 -1.593849381405364 7.000000000000000
-2.329596649666533 -5.540821963855992 -1.705806382539795 16.000000000000000
-2.350883037759226 -5.528367615482495 -1.816225881012695 5.000000000000000
-2.385285879185053 -5.545297276439988 -1.937960110649247 14.000000000000000
-2.405511404166255 -5.528671660982679 -2.049079927546295 14.000000000000000
-2.435816452365449 -5.534041485447876 -2.170013605424553 4.000000000000000
-2.465595279798321 -5.537156000311028 -2.291537332110440 10.000000000000000
-2.476675490190487 -5.496971998674845 -2.396564491532491 14.000000000000000
-2.378175512395520 -5.216697650199181 -2.391503890577775 3.000000000000000
-2.384824738027849 -5.168475613214754 -2.487652468592580 11.000000000000000
-2.379294162474379 -5.095766459285926 -2.571765829314932 45.000000000000000
-2.404636627140991 -5.087008968589378 -2.688449077982180 37.000000000000000
-2.634210151915680 -5.505575997044283 -3.043348454632533 5.000000000000000
-2.578479153529797 -5.324776431889854 -3.075780422137223 1.000000000000000
-2.490168296428402 -5.082134528842912 -3.064811003341888 1.000000000000000
-2.441548980684533 -4.919685269828334 -3.094503420704593 3.000000000000000
-2.158460190369964 -4.132801468130328 -3.058231127892046 70.000000000000000
-2.167382683367046 -5.542421689263230 -0.934125324688927 31.000000000000000
-2.189215962430041 -5.532468204503785 -1.039581182975229 31.000000000000000
-2.216260156689848 -5.535407944168413 -1.147446647782071 3.000000000000000
-2.245433819310244 -5.543535774697616 -1.258484039527523 22.000000000000000
-2.265450493151651 -5.527913753337343 -1.364656586377241 22.000000000000000
-2.297641383448435 -5.543096022701577 -1.478962662197771 3.000000000000000
-2.326469436190938 -5.548793128286300 -1.592674097846816 16.000000000000000
-2.344492868589911 -5.527492756742621 -1.699346054601273 10.000000000000000
-2.377966549132559 -5.543201116279946 -1.818844819020946 9.000000000000000
-2.398981981834897 -5.528454395521923 -1.929938197835838 11.000000000000000
-2.428436331743557 -5.532681192514921 -2.048544801721349 5.000000000000000
-2.460474131218485 -5.541347772950631 -2.170974875216138 15.000000000000000
-2.479721290602507 -5.520390360555472 -2.282826447196296 10.000000000000000
-2.500055081667218 -5.500590143026718 -2.396504259764046 9.000000000000000
-2.366834423998688 -5.146689834376359 -2.358002238782196 2.000000000000000
-2.376499068893956 -5.105703691665398 -2.456171408607406 41.000000000000000
-2.397187768769836 -5.089532920898272 -2.567489327797293 46.000000000000000
-2.447535946462476 -5.132867781471864 -2.711685108692034 1.000000000000000
-2.669485664787567 -5.530958733847341 -3.056459024749310 5.000000000000000
-2.607080526820273 -5.337211808789193 -3.082233805991319 1.000000000000000
-2.511844963116131 -5.081983629498978 -3.064182316829811 1.000000000000000
-2.465938902435255 -4.925837237383807 -3.098011110415756 3.000000000000000
-2.179037852536879 -4.136153108393209 -3.061008902492878 73.000000000000000
-2.182738810075640 -5.532825615478534 -0.929457904207694 13.000000000000000
-2.206144929825271 -5.526505272734155 -1.035501819915274 5.000000000000000
-2.239236056189474 -5.543957846535494 -1.146340822137349 15.000000000000000
-2.261224865348884 -5.533828706432558 -1.253501478336137 24.000000000000000
-2.285810273691278 -5.529001344053136 -1.362245033078123 4.000000000000000
-2.319721867832563 -5.547655579454104 -1.477589938938120 17.000000000000000
-2.341219166575813 -5.535415962061763 -1.586353977209976 17.000000000000000
-2.374462925917046 -5.549521302953774 -1.703737984992911 5.000000000000000
-2.397557478076425 -5.540357826741850 -1.815645695332693 13.000000000000000
-2.418696707838588 -5.525546306049523 -1.926776649015980 7.000000000000000
-2.452940178848568 -5.540079126665067 -2.049249557589406 10.000000000000000
-2.474421163212706 -5.524504649679064 -2.162469024684395 10.000000000000000
-2.504568867278329 -5.527465400930261 -2.283969577419768 3.000000000000000
-2.528129386415587 -5.514273497197056 -2.400817694797359 10.000000000000000
-2.365911725305537 -5.100242643980116 -2.335322393287165 1.000000000000000
-2.391138037404290 -5.092818481157227 -2.448704719655221 50.000000000000000
-2.430679102171738 -5.116128693021997 -2.579767876903394 6.000000000000000
-2.484518998323182 -5.165525853037141 -2.727931818901655 1.000000000000000
-2.692421299757099 -5.530436510926842 -3.055251797024534 8.000000000000000
-2.629515467338547 -5.336799384416993 -3.081269338683940 1.000000000000000
-2.531972539888542 -5.078613458498980 -3.061617937692977 1.000000000000000
-2.484108012132510 -4.919451151953871 -3.093639886541223 3.000000000000000
-2.194949345744288 -4.130565490567026 -3.057183360178696 81.000000000000000
-2.202434657334854 -5.534206848251555 -0.926617580739702 16.000000000000000
-2.233356871319330 -5.546086070307364 -1.036180672505211 7.000000000000000
-2.256349169120805 -5.537873140786399 -1.142188033365978 22.000000000000000
-2.279954551388819 -5.531320674926094 -1.250137126373160 9.000000000000000
-2.313699347168120 -5.548024960120294 -1.364225191380079 13.000000000000000
-2.335807544035099 -5.537822204447120 -1.472369637408063 18.000000000000000
-2.365007493601158 -5.543352627224571 -1.586129000255909 4.000000000000000
-2.393911794524175 -5.546688055852034 -1.700474619365553 18.000000000000000
-2.414081760298898 -5.530432428350240 -1.810117788997238 13.000000000000000
-2.449185985568226 -5.546983866764265 -1.932085399239165 5.000000000000000
-2.472874940577082 -5.537010457186750 -2.046070557256143 11.000000000000000
-2.496030852848427 -5.524801885551108 -2.160668902687239 5.000000000000000
-2.529483834928214 -5.534454810836695 -2.285064873399309 9.000000000000000
-2.551632402669035 -5.517724050682805 -2.400664362664212 10.000000000000000
-2.386612656659041 -5.100700378453015 -2.334127604978816 2.000000000000000
-2.413558718747776 -5.096478661056176 -2.449192431916209 29.000000000000000
-2.580829591897917 -5.385600693326036 -2.714447234637311 1.000000000000000
-2.512292246418534 -5.178529228732494 -2.733789804602497 0.000000000000000
-2.709058196691673 -5.516974236926118 -3.046899892682912 6.000000000000000
-2.656714939164368 -5.345862120000797 -3.085777685764392 1.000000000000000
-2.556845065729314 -5.084621822575292 -3.064712095980109 1.000000000000000
-2.508587772886882 -4.925451596485779 -3.097064732355160 2.000000000000000
-2.209257130287645 -4.121980082810195 -3.051150459939537 76.000000000000000
-2.228042872087010 -5.550197934938813 -0.926192119996277 3.000000000000000
-2.251802217440064 -5.543651121905247 -1.032716327037920 22.000000000000000
-2.270451837667772 -5.524470901503694 -1.136516480861584 18.000000000000000
-2.309207343772255 -5.554067211999451 -1.252451535214407 6.000000000000000
-2.331134266343644 -5.541768981525455 -1.359965289145572 17.000000000000000
-2.353368116575230 -5.531522758696630 -1.468079860875549 7.000000000000000
-2.388863097203746 -5.551206423555059 -1.585857605808035 19.000000000000000
-2.410285068663557 -5.536733672897076 -1.695019210270247 17.000000000000000
-2.438279865913548 -5.538000484379433 -1.810303270309640 4.000000000000000
-2.467427376161531 -5.540445239982378 -1.927631885533450 13.000000000000000
-2.489693917383449 -5.526968416466071 -2.040308878853983 10.000000000000000
-2.525475672678454 -5.542178022996344 -2.165532587638810 5.000000000000000
-2.548193347909810 -5.527751490660367 -2.280498655814180 10.000000000000000
-2.570459965210035 -5.510978435231653 -2.396069334068631 6.000000000000000
-2.442042141505826 -5.174633106724191 -2.366530454041018 5.000000000000000
-2.624263079360953 -5.494159714141374 -2.638929390076389 7.000000000000000
-2.620343147672652 -5.421464055485031 -2.731313472219693 1.000000000000000
-2.537001968588725 -5.184937818709766 -2.736162427102994 0.000000000000000
-2.741533856385156 -5.535600057217243 -3.056270295773984 4.000000000000000
-2.672853377455971 -5.332583400098626 -3.077393881779643 1.000000000000000
-2.580190927549901 -5.087402427093068 -3.065864857131955 1.000000000000000
-2.531539764732953 -4.928262374516979 -3.098490017330391 3.000000000000000
-2.228302658365485 -4.122203707670036 -3.051650021741141 76.000000000000000
-2.243375719916288 -5.540442983608679 -0.921445019885303 31.000000000000000
-2.267257760695515 -5.533864216213225 -1.027868222624254 33.000000000000000
-2.299535793857045 -5.547341064068573 -1.138282149411475 4.000000000000000
-2.326499722128642 -5.547804882931745 -1.248197109375772 19.000000000000000
-2.345497464999615 -5.528279344824875 -1.353922127473743 15.000000000000000
-2.380100377853613 -5.546602792069624 -1.469443315799053 7.000000000000000
-2.403541228253600 -5.537678263949577 -1.579464785636447 15.000000000000000
-2.426611269557486 -5.526736785623694 -1.689544982795807 5.000000000000000
-2.464100586450976 -5.548987540655093 -1.811585375715566 15.000000000000000
-2.482519425167094 -5.526898470149114 -1.920735953829004 14.000000000000000
-2.515876074999010 -5.537596799475942 -2.042166805547816 4.000000000000000
-2.544036271176640 -5.535465683493833 -2.160970873889743 12.000000000000000
-2.568457144164064 -5.524392685222618 -2.277307479909423 6.000000000000000
-2.600354344054735 -5.527759180690819 -2.401693512012728 9.000000000000000
-2.501178541753041 -5.254993486524623 -2.401825422227417 12.000000000000000
-2.664077856331234 -5.530249850815128 -2.654876600327186 4.000000000000000
-2.656936991761458 -5.450614384139740 -2.744781349619406 0.000000000000000
-2.556978550503421 -5.181533560479000 -2.733355932529689 0.000000000000000
-2.764550918603992 -5.534851719381919 -3.054942661147804 8.000000000000000
-2.703359010858201 -5.347830611318356 -3.085475297431194 1.000000000000000
-2.605185671905522 -5.093243715335090 -3.068866251744735 1.000000000000000
-2.551322636588081 -4.924794322560045 -3.095974432147914 2.000000000000000
-2.248977383947414 -4.125310555688968 -3.054296898733687 73.000000000000000
-2.261652994632522 -5.537968998851185 -0.917893838977546 23.000000000000000
-2.290196406149025 -5.542256542665275 -1.026376556896173 4.000000000000000
-2.318162696582557 -5.544712867485820 -1.134784970516556 25.000000000000000
-2.339190777858114 -5.530670314061774 -1.241489581889187 25.000000000000000
-2.373609626792688 -5.547048861018578 -1.355758928817943 3.000000000000000
-2.400768895237166 -5.547313868984243 -1.466975647595011 16.000000000000000
-2.419701749707867 -5.527662007415891 -1.574068668842503 12.000000000000000
-2.456929866664892 -5.548402713216608 -1.693730486901802 9.000000000000000
-2.475907489333761 -5.528390955406614 -1.802546961507339 12.000000000000000
-2.506983345647219 -5.534161067594002 -1.921062149586598 4.000000000000000
-2.537407851706833 -5.537786836445590 -2.040160373153655 15.000000000000000
-2.560985768264825 -5.525279514421965 -2.155049461672283 10.000000000000000
-2.598264982009393 -5.541332615906709 -2.282471450676267 5.000000000000000
-2.620807278159682 -5.524241904279822 -2.398487980737882 11.000000000000000
-2.525676204755067 -5.261727781386214 -2.403440131004423 14.000000000000000
-2.689721875664170 -5.536446415797590 -2.656458792561185 10.000000000000000
-2.679283849537528 -5.450175749616510 -2.743340728363772 0.000000000000000
-2.581787819569083 -5.187783781758502 -2.735641622809570 0.000000000000000
-2.782744485628426 -5.524417211113170 -3.048272232800274 7.000000000000000
-2.722688048811082 -5.340777385657214 -3.080692569165869 1.000000000000000
-2.627013474581608 -5.092730962233701 -3.068043603124448 1.000000000000000
-2.572721634994061 -4.924363496531270 -3.095375186122647 3.000000000000000
-2.269698449174731 -4.128347686118065 -3.056905352204649 69.000000000000000
-2.276917490377534 -5.528126930216427 -0.913106448027157 9.000000000000000
-2.314717652327666 -5.554207779176427 -1.025511645832832 12.000000000000000
-2.333733733625976 -5.534783439589645 -1.129780127892317 20.000000000000000
-2.361013358790603 -5.535133256412169 -1.239617583520145 4.000000000000000
-2.392576037950873 -5.544207907294083 -1.352287906963995 19.000000000000000
-2.413682348704231 -5.530142260125285 -1.459769879922872 18.000000000000000
-2.446759142431065 -5.542394166492484 -1.575701939505087 4.000000000000000
-2.476406496291735 -5.545320791949350 -1.690338480748259 13.000000000000000
-2.497068868401811 -5.528745425793091 -1.800334714221352 7.000000000000000
-2.529928407092386 -5.537868666661959 -1.920137725734971 10.000000000000000
-2.554185888022294 -5.527576027629386 -2.034315046447994 15.000000000000000
-2.590664452501767 -5.542385301470260 -2.159760835044042 3.000000000000000
-2.618592238145159 -5.537825773296843 -2.279200823739570 12.000000000000000
-2.639649605548805 -5.517302615873332 -2.393793183381411 6.000000000000000
-2.548628751714824 -5.265046762310757 -2.403487066038332 14.000000000000000
-2.705733297744956 -5.522759817107628 -2.648499070042413 9.000000000000000
-2.700030584081471 -5.446398792494152 -2.740218793845286 0.000000000000000
-2.611532825021036 -5.203650405983670 -2.742993757948351 0.000000000000000
-2.809015767822314 -5.529935978994408 -3.050406937500107 3.000000000000000
-2.745245051708597 -5.340000137896326 -3.079534402038187 1.000000000000000
-2.648861446081776 -5.092148662921801 -3.067184219143884 1.000000000000000
-2.595770799044865 -4.926957251530188 -3.096683742396062 3.000000000000000
-2.287209742893674 -4.125442351133414 -3.055126347548832 72.000000000000000
-2.308823148469136 -5.558418096868198 -0.914914165100306 7.000000000000000
-2.331686668902114 -5.547891724757382 -1.021249572059997 18.000000000000000
-2.350797126199817 -5.528431939124015 -1.125494187423534 12.000000000000000
-2.389072583710007 -5.553920092219563 -1.240922156706470 13.000000000000000
-2.409982876420945 -5.537729540076741 -1.347916197810260 17.000000000000000
-2.435902598731531 -5.534300234907061 -1.458183609632415 4.000000000000000
-2.467628839185873 -5.542876655305856 -1.573261038761065 16.000000000000000
-2.489550227461529 -5.528122141546906 -1.682637588158869 16.000000000000000
-2.524609955827791 -5.542994133048926 -1.802627141679717 5.000000000000000
-2.548126890846845 -5.531102457266392 -1.915570660499077 16.000000000000000
-2.577326814830476 -5.531080545200289 -2.033508911232668 5.000000000000000
-2.610825717861630 -5.538902599716199 -2.156434803514690 12.000000000000000
-2.634074333321769 -5.524102740134853 -2.271722985526643 9.000000000000000
-2.671418086058194 -5.537156735378521 -2.400712539504354 6.000000000000000
-2.573248420004680 -5.271614765597707 -2.405009424529486 14.000000000000000
-2.731438882107898 -5.528804981198321 -2.650000210035043 3.000000000000000
-2.724035994379039 -5.449084944457999 -2.740346906763550 0.000000000000000
-2.631605490715952 -5.200026301732386 -2.740069160171885 0.000000000000000
-2.835351188255766 -5.535364656201962 -3.052491730066893 8.000000000000000
-2.771098466199167 -5.345473432921098 -3.081983625615712 1.000000000000000
-2.672368797896744 -5.094622225357679 -3.068170365041596 1.000000000000000
-2.617222289032867 -4.926385463218086 -3.096009327760993 3.000000000000000
-2.309639206601288 -4.131279801902259 -3.059834952039831 68.000000000000000
-2.324118170974311 -5.548451919111030 -0.910061552127190 29.000000000000000
-2.345553721696029 -5.534264747899825 -1.015631546768414 24.000000000000000
-2.380233626079124 -5.550943225898806 -1.127055095428077 5.000000000000000
-2.403228660722140 -5.540242216325224 -1.234951087586648 17.000000000000000
-2.424227135474127 -5.524050948847664 -1.341783853743264 10.000000000000000
-2.462899223747139 -5.549047552129719 -1.459361051237465 13.000000000000000
-2.483760750841173 -5.532692901410703 -1.567781168167454 16.000000000000000
-2.515352954651100 -5.538979309420641 -1.683464203165014 4.000000000000000
-2.544256326052150 -5.539709203474300 -1.799199179714617 15.000000000000000
-2.564691909227547 -5.520823323852721 -1.909781463295354 9.000000000000000
-2.606967372302840 -5.548249214275257 -2.037707480489388 10.000000000000000
-2.629363767543802 -5.531950261998474 -2.151751955199040 12.000000000000000
-2.664113531879761 -5.540769026577935 -2.276733116412581 4.000000000000000
-2.693560388604709 -5.536779484518085 -2.398847509275920 10.000000000000000
-2.596299333974086 -5.274775392306701 -2.404969506900537 14.000000000000000
-2.757209171031350 -5.534761374336297 -2.651452076944935 8.000000000000000
-2.753011144629379 -5.461467050601382 -2.745345751037907 0.000000000000000
-2.656613146566068 -5.206017954248475 -2.742210723036226 0.000000000000000
-2.853507990982488 -5.524744679844636 -3.045728873016685 7.000000000000000
-2.795366075674879 -5.347700902294818 -3.082563796997752 1.000000000000000
-2.689314982001928 -5.084532398098037 -3.061596188309523 1.000000000000000
-2.640346175650571 -4.928829461949315 -3.097236866587350 3.000000000000000
-2.330486225382214 -4.134110615954087 -3.062330381973749 54.000000000000000
-2.337828257144790 -5.534802693272009 -0.904596145605467 36.000000000000000
-2.370203604527305 -5.545996971337542 -1.014646966683765 3.000000000000000
-2.398898817322770 -5.548070952972330 -1.123430979202590 21.000000000000000
-2.422027692930561 -5.537305272181904 -1.231363543939793 20.000000000000000
-2.454204914056315 -5.546051939391300 -1.344295401091531 5.000000000000000
-2.477293921032266 -5.535289684347745 -1.453024066961738 13.000000000000000
-2.501442368567106 -5.525996197632006 -1.563281196872139 6.000000000000000
-2.539638336621388 -5.546237203830108 -1.683173787228681 15.000000000000000
-2.560674848235954 -5.529400537627991 -1.793482092492443 15.000000000000000
-2.597401777133988 -5.545071544602543 -1.915917945367281 4.000000000000000
-2.622110968022108 -5.534425292598526 -2.030510958360946 13.000000000000000
-2.652770031969798 -5.535157832226606 -2.151012535952174 4.000000000000000
-2.687738744870625 -5.543816885194447 -2.276132417666909 11.000000000000000
-2.710795987230489 -5.526289692159819 -2.392597616387514 9.000000000000000
-2.619393205188400 -5.277858617683169 -2.404887450248004 15.000000000000000
-2.773139710781899 -5.520911138122124 -2.643413768111903 8.000000000000000
-2.775480309569420 -5.460725814802784 -2.743743177984941 0.000000000000000
-2.678371366473737 -5.205480346808616 -2.740911742877333 0.000000000000000
-2.876593645442093 -5.523639176275303 -3.044214718005100 4.000000000000000
-2.818013274185621 -5.346695175763526 -3.081283479977246 1.000000000000000
-2.711198999681510 -5.083749315764848 -3.060632104416735 1.000000000000000
-2.660185338172916 -4.925035999438681 -3.094551723723952 3.000000000000000
-2.346393152129641 -4.128100071087472 -3.058289224178566 43.000000000000000
-2.357670619361643 -5.535680721908303 -0.901489986462218 6.000000000000000
-2.393378864767352 -5.554015969884394 -1.012950253444888 26.000000000000000
-2.412846181831035 -5.534325404507931 -1.117593673855360 28.000000000000000
-2.445570081916492 -5.545071103693218 -1.230133907109888 3.000000000000000
-2.476379711000606 -5.550100727664032 -1.342423718401813 17.000000000000000
-2.494819125740706 -5.528591657525877 -1.448532986912505 14.000000000000000
-2.530359110000555 -5.543920330429125 -1.565724798389494 6.000000000000000
-2.552672210758891 -5.528899251370854 -1.675408503204553 19.000000000000000
-2.583540389885518 -5.532960047893106 -1.792252259657915 4.000000000000000
-2.618875397195667 -5.545021450218852 -1.913636530424749 14.000000000000000
-2.642093809291363 -5.530846967808567 -2.027068849740195 8.000000000000000
-2.679503976121445 -5.545086436542505 -2.152870375387634 9.000000000000000
-2.703164351323296 -5.529926031265408 -2.268572365711111 11.000000000000000
-2.741208446899694 -5.542498138698559 -2.397897961375499 4.000000000000000
-2.644187506024857 -5.284177181386063 -2.406271794436549 13.000000000000000
-2.790659271099865 -5.510305703297112 -2.636931529038196 4.000000000000000
-2.799633296739077 -5.463162762593194 -2.743735051568387 0.000000000000000
-2.700148946070294 -5.204873013806198 -2.739575985291789 0.000000000000000
-2.908053217532125 -5.538375081819156 -3.051430473906576 7.000000000000000
-2.840678507297126 -5.345617262859600 -3.079965210387549 1.000000000000000
-2.738123108623394 -5.092234085938050 -3.065252005306126 1.000000000000000
-2.365623445533974 -4.127883011918871 -3.058552525926529 55.000000000000000
-2.385338344634231 -5.554670569081688 -0.901298979581882 9.000000000000000
-2.410329039734619 -5.547478009295522 -1.008576053946647 16.000000000000000
-2.433056502768713 -5.534953082627574 -1.114645426782163 6.000000000000000
-2.469176889252854 -5.552753719770514 -1.228857850670418 22.000000000000000
-2.488980453957109 -5.532698754344910 -1.335351936191261 23.000000000000000
-2.521988088498227 -5.543095415704230 -1.449575556454993 3.000000000000000
-2.549688811147529 -5.540613120585880 -1.562148909131489 19.000000000000000
-2.573752273482877 -5.529022532031080 -1.672927097943706 9.000000000000000
-2.611353439684465 -5.546862270969080 -1.794351180774781 14.000000000000000
-2.633800113060699 -5.531108945592154 -1.906564133836548 14.000000000000000
-2.671963056772380 -5.547742385339628 -2.031113942926337 5.000000000000000
-2.699708112787214 -5.541337007420656 -2.149405563392161 10.000000000000000
-2.726815800534621 -5.532837230250725 -2.267900300609844 4.000000000000000
-2.765094495290028 -5.545237749712969 -2.397358281791652 11.000000000000000
-2.669046911662277 -5.290409116209426 -2.407607934542966 12.000000000000000
-2.823189943009706 -5.529152207652803 -2.644537466230532 4.000000000000000
-2.823827161712752 -5.465519042754749 -2.743683245941214 0.000000000000000
-2.728666458547603 -5.217045696740127 -2.744964399791483 0.000000000000000
-2.926182351959201 -5.527564840422945 -3.044572183082967 8.000000000000000
-2.866730146949704 -5.350754650744867 -3.082230836926704 1.000000000000000
-2.760079093390916 -5.091297793351374 -3.064205309316236 1.000000000000000
-2.706599348515927 -4.929553925736592 -3.096807720842242 2.000000000000000
-2.386560114583240 -4.130518600276756 -3.060942814272782 23.000000000000000
-2.400559043282656 -5.544505235423316 -0.896349247825485 24.000000000000000
-2.424087952888364 -5.533663153589093 -1.002868734816232 18.000000000000000
-2.461256838960451 -5.553499291769941 -1.115274131763655 9.000000000000000
-2.483222856441162 -5.538884262786955 -1.222795718302615 14.000000000000000
-2.507944368286726 -5.529506451564011 -1.331701711229237 5.000000000000000
-2.542775367642848 -5.543347004836799 -1.446866066253428 17.000000000000000
-2.565753077060431 -5.530215514189545 -1.556564009018641 17.000000000000000
-2.606325972133586 -5.553527217641934 -1.677796283787806 6.000000000000000
-2.627750755860625 -5.536378365398014 -1.788545934614688 15.000000000000000
-2.656919862266803 -5.534382009571850 -1.905407205197777 4.000000000000000
-2.692006416983758 -5.544016037157132 -2.027592570183370 14.000000000000000
-2.718242499338858 -5.534135128828242 -2.144595554098078 8.000000000000000
-2.757192518653194 -5.549121384051097 -2.272694717763407 7.000000000000000
-2.780640970884301 -5.531226893091283 -2.389573361121891 12.000000000000000
-2.690609883310814 -5.289945801057611 -2.405890246395941 11.000000000000000
-2.844080862257863 -5.524962065358395 -2.641117609136192 6.000000000000000
-2.848061567067347 -5.467794437016548 -2.743587670318699 1.000000000000000
-2.750527428211427 -5.216280852197030 -2.743543135738757 0.000000000000000
-2.945954092961350 -5.519881417061903 -3.039440676134173 5.000000000000000
-2.886061922170314 -5.343244394326102 -3.077214637281786 1.000000000000000
-2.783749923588989 -5.093395008387595 -3.064989339532950 1.000000000000000
-2.410932008008764 -4.138904269682474 -3.067608563549628 14.000000000000000
-2.414150182805349 -5.530674213795475 -0.890798313715686 37.000000000000000
-2.450532899394291 -5.548698267235975 -1.002367222208861 4.000000000000000
-2.476746050649524 -5.543196478902508 -1.110083689131054 18.000000000000000
-2.502044920918221 -5.535704499897634 -1.219082812412844 14.000000000000000
-2.538280355197870 -5.551133217178117 -1.334000316176238 8.000000000000000
-2.558680081319479 -5.532931784221798 -1.441359813720064 23.000000000000000
-2.591623102334130 -5.540844373951448 -1.556880637396011 4.000000000000000
-2.620921221473544 -5.539529818710633 -1.671013266986642 17.000000000000000
-2.647414622743602 -5.532781097933823 -1.784957461014002 7.000000000000000
-2.685074846285037 -5.547895435005310 -1.907756093449741 14.000000000000000
-2.707032545732337 -5.529987948201979 -2.020299009821757 15.000000000000000
-2.746811392622918 -5.547200093855834 -2.147627130598505 4.000000000000000
-2.774241862979205 -5.538421027510021 -2.266426837056184 10.000000000000000
-2.802864221899955 -5.530498724136269 -2.387524244048689 4.000000000000000
-2.715575632285948 -5.296012431852699 -2.407135498262703 9.000000000000000
-2.858181461370407 -5.507634032669574 -2.631419027076153 4.000000000000000
-2.868936959897609 -5.463515368725331 -2.740201550221367 0.000000000000000
-2.772406848700382 -5.215445781343194 -2.742084894227146 0.000000000000000
-2.977634776009317 -5.534329948687381 -3.046496210363943 6.000000000000000
-2.915607645748376 -5.354488985962322 -3.083002393002929 2.000000000000000
-2.807461597758253 -5.095412900012035 -3.065730378801046 1.000000000000000
-2.751470938581368 -4.930697642351796 -3.096970848078588 3.000000000000000
-2.426859460881644 -4.132669825871053 -3.063451854928386 15.000000000000000
-2.437236822468525 -5.538547009009204 -0.888723635445089 4.000000000000000
