# This PCD file was generated using the MATLAB® pcwrite function
# from Computer Vision Toolbox®.
# .PCD v.7 - Point Cloud Data file format
VERSION .7
FIELDS x y z intensity
SIZE 8 8 8 8
TYPE F F F F
COUNT 1 1 1 1
WIDTH 637
HEIGHT 1
VIEWPOINT 0 0 0 1 0 0 0
POINTS 637
DATA ascii
3.116861777542157 -4.918230823454568 -3.081869923750540 20.000000000000000
3.072415320460066 -5.591330873213260 -1.264634004308956 14.000000000000000
2.912334291994369 -5.260613362485311 -1.300522980233203 22.000000000000000
3.145710549016770 -5.638574361639808 -1.514730441386461 62.000000000000000
2.825618177783881 -5.026564919376918 -1.458845785087176 35.000000000000000
2.827608595293621 -4.991173586828434 -1.556904575742460 53.000000000000000
2.853405684058410 -4.997640726825827 -1.669049779891233 54.000000000000000
2.870462370864404 -4.989007865958654 -1.777307596015439 54.000000000000000
2.765071102848012 -4.767789194406375 -1.806258008673371 7.000000000000000
2.765394759888970 -4.730711975938806 -1.900777741527868 10.000000000000000
2.770599190968712 -4.702087512705493 -1.998373625191893 15.000000000000000
2.790115515869121 -4.697548527117858 -2.107374965087898 27.000000000000000
2.751555027602512 -4.595810681377275 -2.171605192251548 38.000000000000000
2.746290584995076 -4.550507205245527 -2.261182920016852 33.000000000000000
2.774486473200163 -4.560158829108555 -2.378972942959340 11.000000000000000
3.096828049124420 -4.924449042534579 -3.083587790486353 19.000000000000000
2.509503768480623 -4.634884284693628 -0.952352090080963 0.000000000000000
3.045580834887030 -5.582886615665908 -1.264148098439135 15.000000000000000
2.882587813900348 -5.244968769714112 -1.297831306401893 7.000000000000000
3.139099964538457 -5.668035079069456 -1.523734148423787 41.000000000000000
2.803811785514493 -5.024529203063746 -1.459055091135916 36.000000000000000
3.159547030616830 -5.618344741049332 -1.753244116500519 36.000000000000000
2.835154303068028 -5.002533964225590 -1.671136743227277 46.000000000000000
2.850184347956195 -4.990672252656914 -1.778171996525050 68.000000000000000
2.819311479352599 -4.897666675420528 -1.855545181035995 10.000000000000000
2.760829945633793 -4.758349777449319 -1.911779643876283 7.000000000000000
2.765972859771004 -4.729597892559706 -2.009774592760343 12.000000000000000
2.773971477820086 -4.705681838815813 -2.110539426800568 25.000000000000000
2.731817491153712 -4.597475391504403 -2.171722178258091 37.000000000000000
2.724665718171563 -4.549073959363422 -2.259605902909231 33.000000000000000
2.752674983806030 -4.558914399049742 -2.377247133906230 11.000000000000000
3.073044863401072 -4.924611332366325 -3.081522755498238 20.000000000000000
2.456050982062467 -4.569236017702431 -0.940148811646771 19.000000000000000
2.561143793524459 -4.729220801501058 -1.072039681887208 1.000000000000000
2.882916942149303 -5.284102704759248 -1.308681974440127 1.000000000000000
3.128577975603255 -5.690687838208753 -1.530900316360678 25.000000000000000
2.785800482664124 -5.029198772255707 -1.461197926336476 35.000000000000000
3.167668323639313 -5.674623055914608 -1.771504040270430 33.000000000000000
3.056032300091498 -5.432462065482917 -1.815237308972728 25.000000000000000
2.829922474813023 -4.992269157195149 -1.779002936665976 62.000000000000000
2.850091970268097 -4.988317033466855 -1.889966384525863 66.000000000000000
2.835282951660437 -4.923501000807976 -1.978020343441023 24.000000000000000
2.857310484464478 -4.922736848251499 -2.091538839762789 23.000000000000000
2.754032795300152 -4.707330968192003 -2.110791917340922 25.000000000000000
2.712097348992422 -4.599073904072259 -2.171806435774105 36.000000000000000
2.704960159432375 -4.550725846981447 -2.259562081797837 34.000000000000000
2.732779662384310 -4.560724490294534 -2.377116623240508 11.000000000000000
3.049297463086868 -4.924690227692114 -3.079417338212828 20.000000000000000
2.441932107243575 -4.576239294025203 -0.942860279910380 64.000000000000000
2.511100160580634 -4.670898045107435 -1.059977092084285 7.000000000000000
2.544282627842405 -4.697826979656411 -1.164504864254187 2.000000000000000
3.024699320969845 -5.542480564095204 -1.492061397648058 12.000000000000000
2.765916454428517 -5.030416323426604 -1.462324786128152 35.000000000000000
3.153011989940900 -5.690501022376852 -1.777146450244584 32.000000000000000
3.068202405388722 -5.494927910803067 -1.836583037775397 23.000000000000000
2.892094216921790 -5.140283441194703 -1.832007965219333 41.000000000000000
2.829697466163260 -4.989970833079747 -1.890662141949915 68.000000000000000
2.852426286176450 -4.990761238918243 -2.004921579025195 60.000000000000000
2.872412808053274 -4.986349815309120 -2.118250263660600 47.000000000000000
2.734111371997066 -4.708913434460611 -2.111011433477493 24.000000000000000
2.690523851611822 -4.597409237821597 -2.170348751675760 36.000000000000000
2.681534982962909 -4.545975797181724 -2.256340884393160 34.000000000000000
2.712901746883528 -4.562467947978962 -2.376953162227001 11.000000000000000
3.027434444560992 -4.927694274041698 -3.079151478161207 20.000000000000000
2.424105816640094 -4.576248766294178 -0.944115574875602 61.000000000000000
2.483600253904383 -4.653854170520550 -1.057246961846932 9.000000000000000
2.461019561804639 -4.577762872339671 -1.135724350819056 22.000000000000000
2.551004972888275 -4.709247246316285 -1.268613416830268 5.000000000000000
2.742335943058156 -5.024763746119524 -1.461439999142702 35.000000000000000
3.123408062602617 -5.679305397356345 -1.774320229842415 23.000000000000000
3.050215536880280 -5.503789359564259 -1.840006484804169 23.000000000000000
2.895588823269756 -5.185334268213511 -1.848316502508681 26.000000000000000
2.809319505200168 -4.991556890846378 -1.891324330501229 75.000000000000000
2.833745822410465 -4.995765672172284 -2.006804913965542 57.000000000000000
2.851720684670374 -4.988197516568722 -2.118714391398888 54.000000000000000
2.717930670472667 -4.716890835986495 -2.114094064106566 24.000000000000000
2.672710320803768 -4.602072755166652 -2.171877044683198 38.000000000000000
2.663744886886709 -4.550658078046072 -2.257802080408939 35.000000000000000
2.689332083573062 -4.557858175792556 -2.373483051050825 11.000000000000000
3.007422866124295 -4.933640067296839 -3.080731632368516 19.000000000000000
2.408130570009404 -4.579680780907238 -0.946060834605814 36.000000000000000
2.432362883881805 -4.591646002961800 -1.044221137786010 16.000000000000000
2.468672420566531 -4.626179763301872 -1.148712878638705 15.000000000000000
2.510223322458379 -4.668582392896074 -1.258499627384449 15.000000000000000
2.624682133773370 -4.845249035248738 -1.409946624192577 16.000000000000000
3.092057142403319 -5.664608565743267 -1.770383129444199 25.000000000000000
3.026649026058502 -5.502510916190129 -1.840028611263310 23.000000000000000
2.902515239770183 -5.237136755054196 -1.867026483947739 13.000000000000000
2.787106462708882 -4.989759853491923 -1.890696741946377 74.000000000000000
2.974332973244338 -5.283647859673072 -2.122306448005017 38.000000000000000
2.831045010693367 -4.989976622907768 -2.119144509055995 38.000000000000000
2.698022372790691 -4.718351155806156 -2.114252030015250 25.000000000000000
2.651195158751838 -4.600265309849768 -2.170350043012330 37.000000000000000
2.645950833522164 -4.555285436818918 -2.259234997889515 34.000000000000000
2.671355626700196 -4.562606585211599 -2.374888684608387 11.000000000000000
2.985577592924791 -4.936505481671341 -3.080396089150584 18.000000000000000
2.392153803826571 -4.583063249972244 -0.947980709504115 57.000000000000000
2.407083474129382 -4.577776730551859 -1.042154189067601 18.000000000000000
2.424837898743622 -4.578013327010100 -1.137704330014841 19.000000000000000
2.482547531091100 -4.651759180649968 -1.254788540397233 20.000000000000000
2.504536109206708 -4.658280155163719 -1.356217118933250 7.000000000000000
2.539055776150243 -4.686677407410122 -1.465276303114750 3.000000000000000
2.999441162684550 -5.494413119467072 -1.837757651112266 21.000000000000000
2.855765107019159 -5.192015480169297 -1.851173926786522 20.000000000000000
2.753887633508296 -4.967959560167700 -1.882481529935534 73.000000000000000
2.847914554580597 -5.097871786575955 -2.047542414076171 37.000000000000000
3.033082010994735 -5.387230232540219 -2.287493811179558 45.000000000000000
2.678132105852934 -4.719745065974109 -2.114377198092331 27.000000000000000
2.627883042099834 -4.595167868309616 -2.167270859652520 38.000000000000000
2.622647127622698 -4.550305113716073 -2.255903680581636 39.000000000000000
2.651542689780775 -4.564145357841182 -2.374624710721029 11.000000000000000
2.913145195267811 -4.975476583299464 -2.713042911626493 11.000000000000000
2.963747164113672 -4.939298973860859 -3.080024739190456 18.000000000000000
2.372556249805809 -4.579410062092440 -0.948428344533156 54.000000000000000
2.421821039828052 -4.640274155136593 -1.057468021368756 27.000000000000000
2.408595036704588 -4.581504983379165 -1.139509559606190 27.000000000000000
2.451358186050405 -4.627944655289202 -1.249170649376532 16.000000000000000
2.480455383092527 -4.648399122168219 -1.354003948854301 10.000000000000000
2.501944450605450 -4.653242507196490 -1.455337807969111 7.000000000000000
2.531768447148444 -4.673065274457919 -1.563396773272572 5.000000000000000
2.814827783620970 -5.156727908896587 -1.838814243517403 35.000000000000000
2.636672734912326 -4.793013172031632 -1.816226203340661 41.000000000000000
2.563582897565213 -4.624255360209029 -1.857180952650874 5.000000000000000
2.608639415405216 -4.669172333277256 -1.982283058130841 2.000000000000000
2.660088377335400 -4.724319628136513 -2.115923882366566 27.000000000000000
2.611940395762742 -4.602858407281136 -2.170221613454286 36.000000000000000
2.606703412252354 -4.557996168376250 -2.258854632246032 36.000000000000000
2.626284415269201 -4.556139159841355 -2.369398684534586 11.000000000000000
2.891724984861467 -4.977797408654056 -2.712923804739991 23.000000000000000
2.914621368827189 -4.976287715593079 -2.839141921076389 15.000000000000000
2.947343146406427 -4.951110807844213 -3.085282182520634 22.000000000000000
2.374587922759197 -4.617665489183641 -0.957547715306439 12.000000000000000
2.401926765202748 -4.636758177457025 -1.057735987091333 47.000000000000000
2.419454492856779 -4.636890592454062 -1.154219039266878 33.000000000000000
2.405859765923001 -4.576446829319377 -1.236053884394018 15.000000000000000
2.456460430101107 -4.638424216856061 -1.351748105170012 14.000000000000000
2.477779622381894 -4.643451715458998 -1.452778134854023 10.000000000000000
2.500117548510080 -4.649970912688663 -1.556020165287489 11.000000000000000
2.536002907672879 -4.681619194692703 -1.669590059912774 5.000000000000000
2.602491536659961 -4.767353367604940 -1.806531391921854 27.000000000000000
2.531633323156745 -4.601959703893089 -1.848086470062092 7.000000000000000
2.503662163702228 -4.516074835397644 -1.916978834294737 5.000000000000000
2.636589652026487 -4.719081788321586 -2.113073136916561 26.000000000000000
2.590526037189676 -4.600832481685162 -2.168589247901294 38.000000000000000
2.583482198456002 -4.552863176540192 -2.255450426403848 37.000000000000000
2.608352384405762 -4.560694571900093 -2.370708514475324 10.000000000000000
2.873933669444567 -4.986315799997154 -2.716184089183136 50.000000000000000
2.891246541410319 -4.975585446633457 -2.837128636497158 22.000000000000000
2.930151841486579 -5.002842788265094 -2.982645507219512 17.000000000000000
2.925509766328835 -4.953776788967208 -3.084845560510984 23.000000000000000
2.371038004342288 -4.645464099914864 -0.964498874217446 117.000000000000000
2.387451774228714 -4.643629821746920 -1.060358479154497 71.000000000000000
2.404841413627442 -4.643827505346152 -1.156866403649489 49.000000000000000
2.403894140480388 -4.607500913254568 -1.245216565791822 13.000000000000000
2.436155440592394 -4.635212647264789 -1.351448994194246 20.000000000000000
2.455505266196472 -4.636973854343476 -1.451242006633079 14.000000000000000
2.475864950402039 -4.640278045660770 -1.553115709253299 46.000000000000000
2.500653979390667 -4.651994673955226 -1.659208012531830 9.000000000000000
2.532356499739101 -4.674808396290667 -1.771483281377334 7.000000000000000
2.505282111245408 -4.589459588779376 -1.842921112265735 10.000000000000000
2.459385453000396 -4.470817127007314 -1.897459725640598 6.000000000000000
2.596901226729365 -4.684438130788780 -2.097056846493111 19.000000000000000
2.570957506598081 -4.601959951668091 -2.168442321693154 39.000000000000000
2.565730398583979 -4.557244402766391 -2.256760283068740 38.000000000000000
2.586819242890159 -4.558854212587205 -2.368695521376496 10.000000000000000
2.848933315564082 -4.982227399333594 -2.712580525034911 62.000000000000000
2.873284231297532 -4.984123487173900 -2.840388492931637 55.000000000000000
2.890468267306666 -4.974619421552906 -2.963973482742693 22.000000000000000
2.901910633268703 -4.953330331366748 -3.082481030741994 25.000000000000000
2.356671844233307 -4.652233657454031 -0.967075909662670 124.000000000000000
2.372953915296734 -4.650461437814834 -1.062959139043024 105.000000000000000
2.386635114488934 -4.643777445013325 -1.157759850519051 72.000000000000000
2.403540227683617 -4.642041029943796 -1.255318863964425 41.000000000000000
2.417683866732708 -4.635362337758927 -1.352117124448351 30.000000000000000
2.435088646797342 -4.633824933972976 -1.450735593941584 20.000000000000000
2.455288702647306 -4.637270478465878 -1.552438049070353 54.000000000000000
2.474503614526855 -4.639044660988127 -1.654762972467986 13.000000000000000
2.496996007951163 -4.645402689508336 -1.760353597600397 9.000000000000000
2.484429479683402 -4.586803131974368 -1.841703339028900 13.000000000000000
2.442380065872278 -4.474701567135583 -1.898795802318955 7.000000000000000
2.552093942609057 -4.639823721739674 -2.076582851532764 15.000000000000000
2.551408536143591 -4.603022145716460 -2.168263269932286 38.000000000000000
2.544394655332689 -4.555159740740954 -2.254868416171384 37.000000000000000
2.568903237740761 -4.563288611505322 -2.369944556995135 10.000000000000000
2.854321687436006 -5.031507147752298 -2.738025479565524 61.000000000000000
2.848173072877994 -4.980161453143547 -2.836529930664557 62.000000000000000
2.868777250187651 -4.977017039985707 -2.963564487656324 49.000000000000000
2.878349846530171 -4.952801683217158 -3.080076889900808 24.000000000000000
2.344049593414308 -4.662477030697386 -0.970362531136432 116.000000000000000
2.358433331494829 -4.657252958235473 -1.065537941089447 120.000000000000000
2.371997905097537 -4.650623229113037 -1.160359219831131 99.000000000000000
2.386991261846338 -4.645491491483216 -1.257006570558110 42.000000000000000
2.401012919848902 -4.638888971711648 -1.353758496501756 43.000000000000000
2.418279000422531 -4.637438202029626 -1.452335222485369 32.000000000000000
2.434755220120390 -4.634189737419749 -1.551725650909334 51.000000000000000
2.455601038070649 -4.639476490143464 -1.655082305878600 17.000000000000000
2.470782635775931 -4.632575179457367 -1.755498895876519 13.000000000000000
2.460049169426401 -4.577428939069826 -1.837783009979842 21.000000000000000
2.425373196830985 -4.478533462655155 -1.900104965514241 7.000000000000000
2.507620056851339 -4.594996859513121 -2.056020795503156 12.000000000000000
2.533661147986692 -4.607259160618333 -2.169577888456923 38.000000000000000
2.524880562844613 -4.556210238338585 -2.254529309507448 39.000000000000000
2.545655028882818 -4.558125402645791 -2.366211589794700 11.000000000000000
2.832799261915838 -5.033625154203147 -2.737796586429024 0.000000000000000
2.835505667356899 -4.997932609774131 -2.845052062536510 28.000000000000000
2.847102683288863 -4.979343457999083 -2.963120152489789 60.000000000000000
2.860104690724333 -4.961344810957824 -3.083322043653328 45.000000000000000
2.329627670376627 -4.669172104250759 -0.972898133569037 82.000000000000000
2.343890166135300 -4.664004315979271 -1.068094859842033 103.000000000000000
2.357337933779740 -4.657428527936253 -1.162936530137651 102.000000000000000
2.372207687531033 -4.652355026056513 -1.259606049026978 61.000000000000000
2.382572109472985 -4.638920269806190 -1.354368071663946 57.000000000000000
2.399697149001955 -4.637577045955951 -1.452836100836693 44.000000000000000
2.414264808402648 -4.631036028520946 -1.550978638618048 70.000000000000000
2.431398834259331 -4.629714537466873 -1.651756341089769 25.000000000000000
2.451775485530479 -4.633052224728876 -1.755678800773819 18.000000000000000
2.437530760026111 -4.571286990804230 -1.835155318121749 33.000000000000000
2.403044654433828 -4.472410819469158 -1.897186825458214 7.000000000000000
2.477658871643685 -4.576145771747383 -2.047085829046717 13.000000000000000
2.512370328071613 -4.604951152632890 -2.167809082112709 39.000000000000000
2.505386606761966 -4.557195695962839 -2.254158232989765 39.000000000000000
2.526002089426886 -4.559247820799577 -2.365744862140741 11.000000000000000
2.839466909642915 -5.006321352564646 -2.977343477648859 31.000000000000000
2.843578871066853 -4.972893955577053 -3.088437940222756 53.000000000000000
2.318672846031465 -4.682874499072678 -0.976882111112263 51.000000000000000
2.329324562753315 -4.670715444413053 -1.070629870065025 68.000000000000000
2.342655345223539 -4.664193274317423 -1.165491756001598 88.000000000000000
2.357401302261919 -4.659177666347522 -1.262183256703348 73.000000000000000
2.365910296375204 -4.642338937552989 -1.355954888034698 68.000000000000000
2.382896381085294 -4.641081504946473 -1.454380727820055 57.000000000000000
2.399102137935218 -4.638025473935633 -1.553619205236222 51.000000000000000
2.414333725777976 -4.633386848288026 -1.653214739434229 36.000000000000000
2.431026322734623 -4.630108290462892 -1.754555281761786 24.000000000000000
2.420366697978751 -4.575057511275694 -1.836501515337053 37.000000000000000
2.387831348989224 -4.479428008542484 -1.899838457624598 6.000000000000000
2.458419460760123 -4.576839272780782 -2.046893262016215 15.000000000000000
2.494640882262913 -4.609068591919899 -2.169063757366303 40.000000000000000
2.485913049049901 -4.558116226946773 -2.253755260494793 41.000000000000000
2.506369313165671 -4.560304846250346 -2.365245986210959 11.000000000000000
2.918742586982785 -5.188087255298717 -3.083554498033084 24.000000000000000
2.820056361233656 -4.972156246289046 -3.085929419470642 63.000000000000000
2.309386080639774 -4.700085467351237 -0.981588778532519 31.000000000000000
2.316474455394617 -4.680897828559926 -1.073948609611824 45.000000000000000
2.329691458823583 -4.674410982195412 -1.168898488413503 62.000000000000000
2.342572252172040 -4.665959345019532 -1.264738168151219 64.000000000000000
2.354487790069688 -4.656068407714349 -1.360543358036461 63.000000000000000
2.369592372155847 -4.651399717841897 -1.458050978080381 64.000000000000000
2.380415636763103 -4.638152160290451 -1.553951715545480 77.000000000000000
2.393765322934097 -4.630232297870258 -1.652228932829022 47.000000000000000
2.413824075221273 -4.633816243790851 -1.755945429864553 34.000000000000000
2.406704701237700 -4.585449747653248 -1.840499685625379 39.000000000000000
2.370843738602174 -4.483092112232823 -1.901063144760508 7.000000000000000
2.435701430583789 -4.570901284717341 -2.043732855933338 15.000000000000000
2.476909502251904 -4.613131528425326 -2.170290491870257 40.000000000000000
2.468205699613237 -4.562198394122126 -2.254915172920307 42.000000000000000
2.486756963099077 -4.561296592508117 -2.364715036035439 11.000000000000000
2.853119205552932 -5.113024496964861 -3.037088621088006 40.000000000000000
2.796573425437698 -4.971336910098502 -3.083381650465595 62.000000000000000
2.298288952946465 -4.713752532371050 -0.985546017357772 22.000000000000000
2.307033904307156 -4.698082865166535 -1.078864197388104 27.000000000000000
2.318413373965511 -4.688096581709021 -1.173162336586906 43.000000000000000
2.329453908252247 -4.676179295210963 -1.268214370037118 50.000000000000000
2.341262685651829 -4.666317664230768 -1.364105748562881 54.000000000000000
2.351030304096192 -4.651372926818534 -1.458468513503444 58.000000000000000
2.368707288456517 -4.651878455017675 -1.558831813043138 58.000000000000000
2.381940391586937 -4.643966034416601 -1.657261428414848 55.000000000000000
2.394880325766400 -4.634103448869904 -1.756032303355805 44.000000000000000
2.384294984408896 -4.579097518464335 -1.837771297990137 47.000000000000000
2.366033603871619 -4.509916633374075 -1.912102754918293 7.000000000000000
2.423480769139779 -4.584611719233310 -2.049354128860665 21.000000000000000
2.457439690820387 -4.613879291346590 -2.169955771637681 40.000000000000000
2.448762424375463 -4.562994549098152 -2.254450561415651 41.000000000000000
2.467165301580226 -4.562223173931814 -2.364152086038053 11.000000000000000
2.819441752387129 -5.174560641492613 -2.808817255075833 26.000000000000000
2.821804128464826 -5.137879347276325 -2.918205145874820 10.000000000000000
2.834487860571652 -5.121489240255777 -3.040270140993437 43.000000000000000
2.776558248625528 -4.976580070850402 -3.084602906437741 64.000000000000000
2.287126182425137 -4.727399055424788 -0.989488755082269 15.000000000000000
2.297505420451419 -4.715257129483964 -1.083768907953628 21.000000000000000
2.307068963316378 -4.701761272626445 -1.177411454731288 30.000000000000000
2.318013191600280 -4.689852415893288 -1.272617444759809 41.000000000000000
2.327992814759909 -4.676535536815589 -1.367649380260589 45.000000000000000
2.339396074743767 -4.665055677277135 -1.463175154715877 52.000000000000000
2.351747453916614 -4.655321338650416 -1.560257397643999 63.000000000000000
2.364861444716616 -4.647485777809474 -1.658641098113605 60.000000000000000
2.377687446663742 -4.637700479626413 -1.757366400967821 52.000000000000000
2.370597563195643 -4.589399349814109 -1.841721151883940 53.000000000000000
2.364522032389751 -4.543402387634353 -1.925958021967742 7.000000000000000
2.404282398865583 -4.585123447752046 -2.049071281185588 28.000000000000000
2.436265574879308 -4.611296606441859 -2.168053886801659 41.000000000000000
2.431063248868326 -4.566962776413519 -2.255552810034625 41.000000000000000
2.449314614620192 -4.566291371015537 -2.365218178857284 11.000000000000000
2.759773627031337 -5.106673485640514 -2.770588283848479 23.000000000000000
2.770736621146270 -5.086506123492007 -2.887431043664467 17.000000000000000
2.814120822197764 -5.126791513150979 -3.041578008001119 42.000000000000000
2.756538086798431 -4.981762395015890 -3.085792801799107 58.000000000000000
2.282701694665769 -4.755198257449165 -0.996386724882693 11.000000000000000
2.289593835955111 -4.735946676481992 -1.089473792193064 14.000000000000000
2.295658273666103 -4.715404806164777 -1.181645718710345 19.000000000000000
2.304794808712770 -4.700014929708472 -1.276058208017223 34.000000000000000
2.316391582830091 -4.690190942724367 -1.372189110793488 35.000000000000000
2.329409950123793 -4.682164486160125 -1.468948266211293 40.000000000000000
2.336504005915702 -4.662137577814668 -1.562804605786742 50.000000000000000
2.349499480108173 -4.654355305483175 -1.661208260060145 55.000000000000000
2.362211926811170 -4.644622556479653 -1.759953442756788 55.000000000000000
2.349983220322598 -4.586258468798770 -1.840270665302742 55.000000000000000
2.361089628808336 -4.573600306091616 -1.938410690450400 46.000000000000000
2.385105718791254 -4.585571361434170 -2.048757184095767 34.000000000000000
2.416849537999163 -4.611910104288802 -2.167653916249565 42.000000000000000
2.406516413698782 -4.557909624230684 -2.250225457136161 42.000000000000000
2.429753777952208 -4.567093043073182 -2.364593350756004 12.000000000000000
2.710851757129704 -5.057576842231592 -2.742589877431463 17.000000000000000
2.743887712785553 -5.078971643893963 -2.881567500536043 20.000000000000000
2.792052272201454 -5.128916020571123 -3.041006504962389 42.000000000000000
2.731439290563111 -4.977637509431946 -3.081227714185404 60.000000000000000
2.561210142506369 -4.628591225685077 -2.989000145773435 19.000000000000000
2.554918459850715 -4.576744350330480 -3.080941871446472 21.000000000000000
2.274743914326968 -4.775918876229111 -1.001795893339006 8.000000000000000
2.281572278338421 -4.756634546908954 -1.095171094336348 9.000000000000000
2.289272396028837 -4.739567112455323 -1.188508091395376 14.000000000000000
2.294931981375491 -4.717134325970536 -1.281378535644512 27.000000000000000
2.301319166423958 -4.696876494861184 -1.374680066877480 26.000000000000000
2.312517728493160 -4.685449985716251 -1.470375525760828 32.000000000000000
2.324649033006545 -4.675772630791158 -1.567629158470224 40.000000000000000
2.337527185192722 -4.667996911357934 -1.666184711860538 47.000000000000000
2.348420154286318 -4.654884713774964 -1.763799047625890 51.000000000000000
2.273098208336862 -4.472245832451295 -1.794331560603497 49.000000000000000
2.261948679123279 -4.417274228406340 -1.871815312489355 44.000000000000000
2.367655560882448 -4.589259581042059 -2.049887714689781 42.000000000000000
2.397455132526158 -4.612459210110772 -2.167222398045085 40.000000000000000
2.388860359451985 -4.561749008045001 -2.251264571444098 43.000000000000000
2.410214396152622 -4.567829867068160 -2.363936731407741 12.000000000000000
2.677553880756181 -5.036921381169283 -2.730037401862333 20.000000000000000
2.710366102605291 -5.058720709945527 -2.868504204043710 27.000000000000000
2.759891915020559 -5.112242520230670 -3.029303060400149 36.000000000000000
2.713123828819853 -4.985770255012762 -3.084259076945365 56.000000000000000
2.533953531513498 -4.617921156783058 -2.980031491421809 23.000000000000000
2.531046080687222 -4.572321233514974 -3.075675580256467 19.000000000000000
2.280108792208008 -4.825061946047064 -1.013165885975381 5.000000000000000
2.278489049783567 -4.787928719508526 -1.103305137721119 6.000000000000000
2.282753850491112 -4.763737023576891 -1.195366231859840 10.000000000000000
2.290046886432594 -4.744738895410351 -1.289540256184566 15.000000000000000
2.291297576107599 -4.713957133499241 -1.380204173756575 18.000000000000000
2.304090271545156 -4.705972240619448 -1.477203198984537 21.000000000000000
2.311032370376356 -4.685949766874426 -1.571286150070111 31.000000000000000
2.323792251050453 -4.678203515140105 -1.669927377130108 38.000000000000000
2.336278417455862 -4.668501799287586 -1.768908733139870 44.000000000000000
2.259727944929303 -4.482245094860706 -1.798146969661472 34.000000000000000
2.292678195510438 -4.513972387150993 -1.912439274818773 41.000000000000000
2.350204916305619 -4.592894221053749 -2.050990864334595 51.000000000000000
2.379773998302843 -4.616224941078946 -2.168300488945750 41.000000000000000
2.371203548264573 -4.565534211416512 -2.252275981553528 42.000000000000000
2.389010765224056 -4.565280168043553 -2.361581790011050 12.000000000000000
2.646116344213023 -5.019316663480469 -2.719152905703538 26.000000000000000
2.685414124264818 -5.054123022693195 -2.864330890920535 27.000000000000000
2.714497525139556 -5.070428906199287 -3.002731738465815 28.000000000000000
2.694781411459518 -4.993852305920043 -3.087262912534227 52.000000000000000
2.518451826297342 -4.628543592318227 -2.984815004758162 28.000000000000000
2.508897230022623 -4.570831599279684 -3.072399254688610 21.000000000000000
2.738889723007531 -5.842019512805515 -1.227971944794883 1.000000000000000
2.382220403913048 -5.045870876880473 -1.163706595766236 11.000000000000000
2.286151559569213 -4.809052707951663 -1.207527680354382 8.000000000000000
2.279973152877540 -4.761848472728398 -1.294842671884063 14.000000000000000
2.284546519104263 -4.737992923289305 -1.387757277375646 12.000000000000000
2.293869190705371 -4.723028989961513 -1.482935364712778 15.000000000000000
2.302420041961361 -4.706415436341167 -1.578385152915546 21.000000000000000
2.313379615747607 -4.695211631987704 -1.676090237514323 29.000000000000000
2.322384690437659 -4.678702827860356 -1.772716897361869 34.000000000000000
2.305249290690065 -4.610074204965699 -1.849220790625832 45.000000000000000
2.270594883878067 -4.507318698875247 -1.909265047099615 53.000000000000000
2.337799601024972 -4.606417214755628 -2.056505159013827 59.000000000000000
2.360412256583654 -4.616650591367389 -2.167807947258427 42.000000000000000
2.350191168111868 -4.562751695062143 -2.250047653392369 44.000000000000000
2.366177304869210 -4.559429125816411 -2.357523066393811 13.000000000000000
2.474485826306193 -4.733126953836471 -2.562850977773863 9.000000000000000
2.653858629345663 -5.036779787255494 -2.852947204233205 23.000000000000000
2.679413206849218 -5.047190578991956 -2.987192013630333 24.000000000000000
2.664811671194481 -4.980203591627637 -3.076844965708359 61.000000000000000
2.497946092500087 -4.629942057006733 -2.983656459400750 29.000000000000000
2.490085122633934 -4.575316645083698 -3.073151099320890 23.000000000000000
2.682691811353517 -5.767915941651290 -1.213625286215523 1.000000000000000
2.402986039288411 -5.130710409490695 -1.184235107117173 19.000000000000000
2.349177088014439 -4.981438237183228 -1.251616593960322 67.000000000000000
2.289808964907248 -4.821050480463204 -1.311588033284810 7.000000000000000
2.279330200117188 -4.765523963251447 -1.396327753254929 8.000000000000000
2.281888140990202 -4.736605188732515 -1.487566401234078 10.000000000000000
2.292023598202518 -4.723432450864117 -1.584319951085192 14.000000000000000
2.302876836266036 -4.712206320299947 -1.682240729477968 20.000000000000000
2.310118565279218 -4.692268281143209 -1.777792617863414 23.000000000000000
2.262959488905866 -4.562851177149041 -1.830067618084236 48.000000000000000
2.278672770147480 -4.560813934383149 -1.931561715950311 40.000000000000000
2.321984959290481 -4.613278486975273 -2.059040419816939 53.000000000000000
2.341072902350462 -4.617012175052079 -2.167284070282724 42.000000000000000
2.334222373182453 -4.569680449319151 -2.252607933850185 44.000000000000000
2.348401227752757 -4.563188991174574 -2.358436326109423 13.000000000000000
2.427724732052023 -4.682839904483897 -2.534377054496069 14.000000000000000
2.450277546566009 -4.689756488838106 -2.654943317699146 8.000000000000000
2.547134838722881 -4.838780809895877 -2.862147513170409 15.000000000000000
2.618516499653798 -4.935414013741021 -3.047221005114262 49.000000000000000
2.479101664047059 -4.634340219639958 -2.984439925337175 27.000000000000000
2.467999826245348 -4.573682432898774 -3.069804857095330 24.000000000000000
2.679646570640835 -5.807700413766476 -1.223214682870308 1.000000000000000
2.383651402351951 -5.130503400375643 -1.185133262886304 22.000000000000000
2.335115403767964 -4.991726604840053 -1.254992252413368 76.000000000000000
2.347293138731082 -4.982248277706030 -1.356097717777472 69.000000000000000
2.295503729613057 -4.838486088243071 -1.418208377217822 7.000000000000000
2.281454794892378 -4.774464681782430 -1.499816995928096 7.000000000000000
2.286518873263236 -4.750786207707332 -1.593714482229740 9.000000000000000
2.292283919591233 -4.729187232348846 -1.688378675940948 14.000000000000000
2.299446135379132 -4.709212632338454 -1.784141209073401 18.000000000000000
2.255895891916765 -4.586351687421439 -1.839275923867757 24.000000000000000
2.259843200738983 -4.560786966697625 -1.931182785878866 34.000000000000000
2.314443104600273 -4.636715023458354 -2.068967594430575 37.000000000000000
2.321756191894620 -4.617309812711654 -2.166728935246784 41.000000000000000
2.313266555512620 -4.566765065787985 -2.250315239482068 44.000000000000000
2.330624850615052 -4.566894411868116 -2.359321774693595 13.000000000000000
2.406070475990215 -4.680415551968071 -2.531824465768437 18.000000000000000
2.421866639574974 -4.674817082963662 -2.645054105485360 15.000000000000000
2.439356360129179 -4.673614297440809 -2.762819926642737 11.000000000000000
2.495764953798574 -4.744378122315063 -2.927404571952602 9.000000000000000
2.460255317444785 -4.638680938783782 -2.985193950340358 20.000000000000000
2.447582253561161 -4.575007087018677 -3.068458125147113 23.000000000000000
2.689456519213766 -5.876097011661681 -1.238833136786076 2.000000000000000
2.361061376707394 -5.123122543845114 -1.184356608529095 23.000000000000000
2.316084737056103 -4.991368559966958 -1.255678059595346 76.000000000000000
2.334715897592941 -4.996053003584924 -1.360498461188708 76.000000000000000
2.347444606104301 -4.988550028520414 -1.462699023798401 73.000000000000000
2.312108332023812 -4.878433892366313 -1.532834569938235 12.000000000000000
2.338578891515564 -4.899077208698364 -1.643677362309914 6.000000000000000
2.286550116945028 -4.756449365199646 -1.698179613289050 10.000000000000000
2.291983494099592 -4.732957623417219 -1.793058782558970 17.000000000000000
2.271794056586323 -4.657208183934755 -1.867465580927851 23.000000000000000
2.282262977573317 -4.644595634639394 -1.966291710781200 27.000000000000000
2.316650732246937 -4.680128536847196 -2.087798424984617 28.000000000000000
2.304108172385723 -4.620844228770902 -2.167690970452190 41.000000000000000
2.293999815180508 -4.567047631167175 -2.249599249333552 45.000000000000000
2.311208063501431 -4.567303892625463 -2.358505552169478 13.000000000000000
2.384461055510932 -4.677915619378791 -2.529236037368525 20.000000000000000
2.401755454434836 -4.675655267571818 -2.644101842955456 16.000000000000000
2.415834248074425 -4.668295349041260 -2.758053556396324 14.000000000000000
2.432877752233995 -4.664694916737234 -2.876411510276421 11.000000000000000
2.439789373952706 -4.639887387482208 -2.983939818801812 20.000000000000000
2.425573041818528 -4.573224012849977 -3.065040545750670 24.000000000000000
2.668011544129189 -5.876644213059848 -1.240141602198548 1.000000000000000
2.340165018923551 -5.119219613043152 -1.184365753321523 22.000000000000000
2.297076507264756 -4.990948013647647 -1.256333333490340 76.000000000000000
2.313906655442294 -4.992217315072280 -1.360083184585555 76.000000000000000
2.331409360283326 -4.995336462775821 -1.465182588773711 75.000000000000000
2.345381660818385 -4.989591473583531 -1.568115363051877 76.000000000000000
2.342190240911262 -4.947386316525503 -1.660094428168548 30.000000000000000
2.287211748714217 -4.797472182564476 -1.712886182460378 7.000000000000000
2.284384982018804 -4.756707252242179 -1.801970413295849 32.000000000000000
2.262661190348415 -4.677400771298148 -1.875329934265061 19.000000000000000
2.271383503412344 -4.661368615417917 -1.973008771299080 22.000000000000000
2.313675721085635 -4.713603911481518 -2.102184298134916 37.000000000000000
2.283191724109960 -4.617713736395553 -2.165525201806621 39.000000000000000
2.274756295369071 -4.567266540264070 -2.248852184307151 46.000000000000000
2.293443162354480 -4.570895650338605 -2.359333680250654 13.000000000000000
2.366146983028210 -4.681771325827435 -2.530087292440031 24.000000000000000
2.381666289849052 -4.676427389650304 -2.643117203819213 17.000000000000000
2.395612648244398 -4.669191696871093 -2.756968069717438 17.000000000000000
2.410895553108277 -4.662609939104606 -2.873309448661191 14.000000000000000
2.422557744473319 -4.647190133043238 -2.986613775170456 21.000000000000000
2.408412039216153 -4.580500995421762 -3.067705670415423 24.000000000000000
2.653036587297219 -5.891448122795586 -1.244441996587506 2.000000000000000
2.316080549450337 -5.108115036228667 -1.182690012265441 22.000000000000000
2.278090963667643 -4.990465085481103 -1.256958150397186 78.000000000000000
2.296385967776317 -4.995364896209656 -1.361556844467505 74.000000000000000
2.310480684060408 -4.991555179435732 -1.464554505381095 77.000000000000000
2.325942347275473 -4.989416615222815 -1.568403658784679 75.000000000000000
2.343880661742188 -4.992300735595353 -1.675366470025321 74.000000000000000
2.349451872467832 -4.969318425125757 -1.774295998040649 52.000000000000000
2.273395833116300 -4.773626869236364 -1.808287006886372 39.000000000000000
2.251788090295459 -4.694196505208780 -1.881825062775282 14.000000000000000
2.263665753511814 -4.684857792576066 -1.982561176790542 19.000000000000000
2.303995858698491 -4.733758412977878 -2.110620375780865 42.000000000000000
2.263944475983972 -4.617820267695334 -2.164876759754201 38.000000000000000
2.255536250195904 -4.567421916364736 -2.248074122880134 47.000000000000000
2.272443805234332 -4.567930683469022 -2.356779247845316 13.000000000000000
2.352673376248550 -4.695232139973763 -2.536128375388092 20.000000000000000
2.364819039631765 -4.683510029169537 -2.645702310628213 17.000000000000000
2.377018128778164 -4.673177140463959 -2.757712136772990 17.000000000000000
2.390558184111899 -4.663570113666568 -2.872093550581460 16.000000000000000
2.402111927081295 -4.648272150943912 -2.985297355462778 22.000000000000000
2.386457253924768 -4.578579392384493 -3.064220703999941 24.000000000000000
2.634788633641606 -5.899048004816188 -1.247205473411316 1.000000000000000
2.295295538012569 -5.104058262387221 -1.182627433867627 23.000000000000000
2.260736275410931 -4.993471440277706 -1.258447642205269 78.000000000000000
2.277255200246023 -4.994926600015269 -1.362040019020129 76.000000000000000
2.291209792326954 -4.991213703974863 -1.464923018045180 78.000000000000000
2.309753999590040 -4.996160819925763 -1.570856302408511 75.000000000000000
2.324301147312687 -4.992174720959054 -1.675515363110207 74.000000000000000
2.339488532302355 -4.989947555269202 -1.781707271941347 78.000000000000000
2.252620612635988 -4.770000191383474 -1.806813368815130 37.000000000000000
2.244055765016590 -4.717770222786562 -1.891029838073483 12.000000000000000
2.254196823737832 -4.704980452621232 -1.990681195044143 14.000000000000000
2.287748418569511 -4.740533875781691 -2.113085361716112 33.000000000000000
2.244720890034672 -4.617863343516002 -2.164197372342260 40.000000000000000
2.237948810744395 -4.570799864784361 -2.248881881419077 46.000000000000000
2.251490931167460 -4.564892253894781 -2.354190157400653 14.000000000000000
2.337528494091373 -4.705440741348445 -2.540410196989675 17.000000000000000
2.347948396972960 -4.690546005053954 -2.648262165954212 15.000000000000000
2.358422984557833 -4.677105952970649 -2.758427256716378 17.000000000000000
2.371831544180211 -4.667590004562665 -2.872769164993667 16.000000000000000
2.381687982574796 -4.649287256451601 -2.983948116280768 27.000000000000000
2.367704181789962 -4.582691795170727 -3.064785933472225 22.000000000000000
2.622877942855696 -5.920959884347124 -1.252980983428390 3.000000000000000
2.274555530754030 -5.099929587564866 -1.182530904203656 23.000000000000000
2.243382355664606 -4.996424914640405 -1.259910186740839 77.000000000000000
2.258147564425956 -4.994425636882812 -1.362492618301047 75.000000000000000
2.270360906484879 -4.987291985599162 -1.464228125902352 78.000000000000000
2.288735123642080 -4.992372004491249 -1.569986402036368 78.000000000000000
2.304744591387934 -4.991984633101336 -1.675632952453546 74.000000000000000
2.321390081352249 -4.993314827472845 -1.782946752973634 78.000000000000000
2.236705549375777 -4.776580654965414 -1.809199141057110 25.000000000000000
2.237791441164869 -4.744748705048938 -1.901591226259124 9.000000000000000
2.243011009208371 -4.721721836646454 -1.997363389547852 11.000000000000000
2.268274834584206 -4.740568613400865 -2.112542188083019 31.000000000000000
2.227121162518516 -4.621162889465965 -2.165042465284395 39.000000000000000
2.218764979806883 -4.570833303528370 -2.248043788661264 48.000000000000000
2.232179255793991 -4.565041325166556 -2.353247430578554 14.000000000000000
2.325518839568776 -4.722072211011320 -2.548156227707664 15.000000000000000
2.335815020948937 -4.707128580566276 -2.656210216440980 13.000000000000000
2.344573531163081 -4.690473044484026 -2.764710034694094 16.000000000000000
2.354681436388153 -4.674683986310557 -2.875341538193447 16.000000000000000
2.361286176158387 -4.650235568883005 -2.982566134753536 30.000000000000000
2.347383352554167 -4.583687264990991 -3.063277077397826 21.000000000000000
2.037508067081665 -4.637801763086516 -0.982321578144729 5.000000000000000
2.250695287529641 -5.088572301735251 -1.180739875122660 20.000000000000000
2.222858423817985 -4.992203991071107 -1.259549022148457 73.000000000000000
2.237475321407524 -4.990320382675325 -1.361948113676692 76.000000000000000
2.255917167077609 -4.997385070717094 -1.467636259520201 77.000000000000000
2.270945032319551 -4.995511796090539 -1.571284364875891 77.000000000000000
2.285211248504561 -4.991730594084182 -1.675719315933372 77.000000000000000
2.301699078952831 -4.993171568267260 -1.782924294465460 77.000000000000000
2.246258231541106 -4.838016505895770 -1.832353744753970 8.000000000000000
2.236146069326680 -4.781957414223772 -1.916243733240927 6.000000000000000
2.238101811618672 -4.751966259985802 -2.009749473139816 8.000000000000000
2.252005802208190 -4.747244566856739 -2.114955056087436 31.000000000000000
2.207934157387136 -4.621084149232206 -2.164303130884859 38.000000000000000
2.198019493404520 -4.567508091803942 -2.245554750594881 50.000000000000000
2.214474533090773 -4.568392296124308 -2.353956323087681 14.000000000000000
2.322891921654483 -4.758093132005073 -2.566355171732567 8.000000000000000
2.323589490036753 -4.723692709803037 -2.664143214082979 10.000000000000000
2.332225337679236 -4.706981578882394 -2.772841392930503 13.000000000000000
2.342204858998449 -4.691137817955967 -2.883670988761961 15.000000000000000
2.344027981395279 -4.657318698013302 -2.985126357052855 28.000000000000000
2.327084941535433 -4.584616274673332 -3.061735666069077 22.000000000000000
1.980794750496791 -4.546449936400105 -0.963820072530054 46.000000000000000
2.055623442752413 -4.686577243961016 -1.088223321746729 6.000000000000000
2.178766811218107 -4.934431860232810 -1.245653803853156 34.000000000000000
2.221579390710045 -4.996782531346358 -1.364274659005390 74.000000000000000
2.235115231424273 -4.993337464825192 -1.466879976217662 79.000000000000000
2.248415604501337 -4.988081485506497 -1.569246431693313 78.000000000000000
2.267282462104326 -4.994895917802116 -1.676943948782400 72.000000000000000
2.285194348385846 -4.999884251785200 -1.785341496424630 78.000000000000000
2.298127392709695 -4.992325849063950 -1.890671072303496 75.000000000000000
2.284871853417184 -4.928345696085839 -1.974631437340678 13.000000000000000
2.240911709225458 -4.799153934546587 -2.029290571599406 6.000000000000000
2.234135861853120 -4.750518188095564 -2.115848268509597 31.000000000000000
2.190348480227331 -4.624271507284878 -2.165091813775817 39.000000000000000
2.182044567695151 -4.574010889415259 -2.247897214754872 49.000000000000000
2.195199688400766 -4.568419047263828 -2.352953407239983 15.000000000000000
2.420360440486965 -5.001466569813567 -2.696324069759247 11.000000000000000
2.367568032513402 -4.855697150304368 -2.737145008205935 10.000000000000000
2.326020883854895 -4.736168496125976 -2.788433041006132 9.000000000000000
2.332744190547520 -4.713853145056237 -2.895843412256647 12.000000000000000
2.322099133876790 -4.655037724786729 -2.981693376801354 23.000000000000000
2.305265162812443 -4.582409682179713 -3.058113476277317 21.000000000000000
1.966708107709292 -4.552129397976753 -0.965857734423835 54.000000000000000
2.030044870851966 -4.667373550479281 -1.084508166227463 9.000000000000000
2.050657142451316 -4.683679365816012 -1.182986425257164 7.000000000000000
2.144611189796885 -4.864716016670111 -1.328751640356947 19.000000000000000
2.214359798062678 -4.989217910330733 -1.466089808967667 75.000000000000000
2.233798845148473 -4.998119137308537 -1.572693170546468 78.000000000000000
2.247784898807609 -4.994518947457832 -1.676969746947503 73.000000000000000
2.263957460475999 -4.996156977837247 -1.784022440992053 77.000000000000000
2.265769544212704 -4.964641752271969 -1.880054425838801 75.000000000000000
2.294960436469022 -4.993103336160090 -2.000294895626366 76.000000000000000
2.293626316904037 -4.954859398715100 -2.094695838867748 41.000000000000000
2.216267109723924 -4.753737366454979 -2.116713761736722 33.000000000000000
2.171198999926551 -4.624071328660157 -2.164292782915712 43.000000000000000
2.162922600665780 -4.573859798037917 -2.246968707263571 49.000000000000000
2.174389567393542 -4.565107623063882 -2.350233690307021 15.000000000000000
2.396304827581270 -4.995689220431571 -2.691916117967736 5.000000000000000
2.435458873020961 -5.039407859710068 -2.839204906539129 9.000000000000000
2.458902639436283 -5.051486345506902 -2.972376071584919 35.000000000000000
2.326230259526362 -4.742857546605417 -2.911868656425280 8.000000000000000
2.298678649716216 -4.649570872729650 -2.976233721467937 20.000000000000000
2.285023881281023 -4.583201487249411 -3.056505519257276 22.000000000000000
1.947964748758969 -4.546943765717475 -0.965575335743100 44.000000000000000
1.967424243780929 -4.561858088732174 -1.060703833900811 23.000000000000000
2.018805054859038 -4.650272293184648 -1.175163711877959 10.000000000000000
2.043638608859608 -4.675365955816375 -1.277534506607006 8.000000000000000
2.090969617560015 -4.751684954126285 -1.396678973555058 8.000000000000000
2.198893042218671 -4.962432925533404 -1.561740326835515 48.000000000000000
2.226753033281363 -4.990586002920347 -1.675791835589302 76.000000000000000
2.245884448732461 -4.999295058759076 -1.785146480938967 76.000000000000000
2.151007953631221 -4.754229643805452 -1.800240338781661 38.000000000000000
2.240748109648027 -4.917757287305629 -1.969826178184556 40.000000000000000
2.287685079183039 -4.985358294401853 -2.107148702612597 71.000000000000000
2.196843914312854 -4.753535606078627 -2.116052943073324 34.000000000000000
2.152074408669591 -4.623808262156955 -2.163463171481897 42.000000000000000
2.143825587812345 -4.573645866503555 -2.246009647542948 50.000000000000000
2.156723882685306 -4.568282629523280 -2.350855144548615 16.000000000000000
2.373862496628168 -4.993073999398394 -2.689217894413541 61.000000000000000
2.392666750300538 -4.995208658800494 -2.812824252784170 6.000000000000000
2.426714416315373 -5.030185971357208 -2.958155884196822 9.000000000000000
2.365462943333923 -4.866371355812408 -2.985869201931412 32.000000000000000
2.284483735644727 -4.662707406802709 -2.982689675464391 21.000000000000000
2.264805820490228 -4.583927229512285 -3.054865258895951 23.000000000000000
1.932339563021008 -4.548918671828373 -0.966798184873644 51.000000000000000
1.940853067813340 -4.538744737286720 -1.056025368498148 32.000000000000000
1.999505330477924 -4.645356674502578 -1.174522796732665 15.000000000000000
2.017944579188642 -4.656354160497173 -1.272827406738182 10.000000000000000
2.038625650874552 -4.672784831257818 -1.373858572183889 8.000000000000000
2.062211149969985 -4.694339504943861 -1.477618958075083 6.000000000000000
2.164004056748408 -4.892164174658732 -1.642873132826176 25.000000000000000
2.223171346457991 -4.991956648099255 -1.782521244694103 74.000000000000000
2.130505203408836 -4.750176177854660 -1.798565499944323 39.000000000000000
2.105090084598381 -4.660650357306349 -1.866566361709591 6.000000000000000
2.190359575875521 -4.815375581117431 -2.034872708831779 11.000000000000000
2.178989710201938 -4.756641404589962 -2.116861448223411 35.000000000000000
2.132974956100175 -4.623482436407381 -2.162603060407047 42.000000000000000
2.124753778627838 -4.573369223679953 -2.245020116636762 51.000000000000000
2.137523424093580 -4.568119716677501 -2.349759959134877 16.000000000000000
2.352999068370570 -4.993635015249320 -2.688234498462353 69.000000000000000
2.370099450031792 -4.992686184317230 -2.809931184546492 69.000000000000000
2.388613013341345 -4.995998957714036 -2.936383198258812 15.000000000000000
2.344557209696767 -4.867157172578828 -2.984529535433243 32.000000000000000
2.267190898314633 -4.669575916098085 -2.985138220316780 15.000000000000000
2.249139710583938 -4.593836367472434 -3.059352544438458 16.000000000000000
1.922812883727663 -4.565315812496773 -0.971074737771427 23.000000000000000
1.967876688972444 -4.641552339239204 -1.080642965600534 24.000000000000000
1.975666778451299 -4.629623812619158 -1.171131134482177 15.000000000000000
2.000047044744330 -4.655060450511461 -1.272949339484296 15.000000000000000
2.015935694681848 -4.660972306322090 -1.370744481880612 11.000000000000000
