# This PCD file was generated using the MATLAB® pcwrite function
# from Computer Vision Toolbox®.
# .PCD v.7 - Point Cloud Data file format
VERSION .7
FIELDS x y z intensity
SIZE 8 8 8 8
TYPE F F F F
COUNT 1 1 1 1
WIDTH 628
HEIGHT 1
VIEWPOINT 0 0 0 1 0 0 0
POINTS 628
DATA ascii
-1.308176283366003 -5.149333488532528 -2.898231087321391 24.000000000000000
-1.323194231117882 -5.140020979968664 -3.014657087003152 25.000000000000000
-1.281538150119709 -4.915088866936872 -3.001593143632391 31.000000000000000
-1.280283352035468 -4.840488672241777 -3.075373140352218 11.000000000000000
-1.188590420523727 -4.311987458771220 -3.075256244224039 8.000000000000000
-1.119997033360840 -5.514485349177559 -1.070533502030163 8.000000000000000
-1.134053820817238 -5.507556406593549 -1.172297044131803 21.000000000000000
-1.117537400864441 -5.353835532847236 -1.239846460208483 51.000000000000000
-1.131241093733464 -5.347749152873061 -1.340244972306994 49.000000000000000
-1.142468419651520 -5.328515184559783 -1.437424028606310 48.000000000000000
-1.156916297108022 -5.326637878875985 -1.539275670180433 45.000000000000000
-1.169557909429829 -5.315277635560936 -1.639455383167186 44.000000000000000
-1.180500895590273 -5.294672488739192 -1.737031051103837 43.000000000000000
-1.193972178470006 -5.287170071425335 -1.839684503621153 42.000000000000000
-1.206503315658582 -5.274007936199951 -1.941312452493098 38.000000000000000
-1.219532298093618 -5.262761940800111 -2.044077720726965 33.000000000000000
-1.231513830435405 -5.245878987227503 -2.145723033574290 32.000000000000000
-1.244095332466894 -5.230854079982153 -2.248549843269690 28.000000000000000
-1.257434126520739 -5.217299988025802 -2.353346606942331 29.000000000000000
-1.271206168187987 -5.205383049913903 -2.459845153994423 18.000000000000000
-1.286044680905641 -5.194722163558395 -2.568471670497745 27.000000000000000
-1.299876325047331 -5.181893414613252 -2.677849543788682 24.000000000000000
-1.313321430243909 -5.163321399141584 -2.785577668999498 25.000000000000000
-1.327567377233548 -5.149548949826960 -2.897386144828006 24.000000000000000
-1.341848453103259 -5.136812892725106 -3.011878489255090 24.000000000000000
-1.292497136458170 -4.885354511351882 -2.982647557231871 8.000000000000000
-1.289350333448101 -4.804481943900895 -3.051790452892783 23.000000000000000
-1.185405915957483 -4.177947396793639 -3.093508099882437 40.000000000000000
-1.136131231447100 -5.507666370750088 -1.067236137618592 22.000000000000000
-1.154314126362647 -5.519897238085252 -1.172984816039166 4.000000000000000
-1.135876305194205 -5.358534715782649 -1.239091085857096 50.000000000000000
-1.148904069336859 -5.348592503042911 -1.338656668400964 48.000000000000000
-1.161045951968992 -5.333104262361666 -1.436908912978219 49.000000000000000
-1.173159009607088 -5.319884836007732 -1.535618204435170 45.000000000000000
-1.186740814075361 -5.312265871164427 -1.636866993457134 45.000000000000000
-1.200288751848783 -5.302794841504143 -1.738084514948091 42.000000000000000
-1.212208574303544 -5.287816628521811 -1.838349715237336 42.000000000000000
-1.224853109343873 -5.274612106341854 -1.940027316344435 37.000000000000000
-1.237145426378778 -5.259679087835202 -2.041426728290569 33.000000000000000
-1.249224727613446 -5.242779890287338 -2.143057769150845 31.000000000000000
-1.263643076402427 -5.234913284149698 -2.248951996573789 27.000000000000000
-1.277102331582244 -5.221281958111132 -2.353858183614803 29.000000000000000
-1.291875809232386 -5.212814238748264 -2.462130907531832 17.000000000000000
-1.303336581369932 -5.188043959163472 -2.564008118834719 27.000000000000000
-1.319049501213914 -5.182159758451021 -2.676887866765846 24.000000000000000
-1.332600056128276 -5.163535317709267 -2.784660861429264 25.000000000000000
-1.348748178798723 -5.156506241581029 -2.900335451412996 24.000000000000000
-1.362272736306201 -5.140280343086287 -3.013017588132793 23.000000000000000
-1.317540334348522 -4.908852068038209 -2.996207409623337 6.000000000000000
-1.290994026039664 -4.742140386201672 -3.011500453641830 29.000000000000000
-1.290959129193144 -4.677477894688685 -3.088709936438122 16.000000000000000
-1.194274708796738 -4.150084274451676 -3.072541038762116 7.000000000000000
-1.158675823222214 -5.531577617468810 -1.069870739200963 4.000000000000000
-1.173843787078442 -5.528341915011285 -1.172821569662966 23.000000000000000
-1.153430059734143 -5.359363765889750 -1.237424390486030 47.000000000000000
-1.166579013710822 -5.349384095737410 -1.337041211422124 49.000000000000000
-1.179659495941998 -5.337637044297019 -1.436362857004472 47.000000000000000
-1.191888916500822 -5.324360430339331 -1.535190808518365 44.000000000000000
-1.204758755882364 -5.312941917142123 -1.635404697681571 45.000000000000000
-1.217577323892701 -5.299713919488458 -1.735454358928108 43.000000000000000
-1.230456926361712 -5.288409840903753 -1.836986964298013 40.000000000000000
-1.243214835599273 -5.275162619912823 -1.938714059891336 36.000000000000000
-1.257352886589217 -5.267467389956609 -2.042986787605214 34.000000000000000
-1.268670557428683 -5.246857946816553 -2.143320018718990 31.000000000000000
-1.281470434207226 -5.231741893281104 -2.246242704682687 28.000000000000000
-1.295041187113596 -5.218090732397928 -2.351131946986868 29.000000000000000
-1.310832280598743 -5.213127204173182 -2.461050077761485 16.000000000000000
-1.324155484541795 -5.195303555834552 -2.566431221656008 27.000000000000000
-1.337339647983705 -5.178906039919867 -2.674108243062039 24.000000000000000
-1.351890105573606 -5.163693038255261 -2.783714667333260 25.000000000000000
-1.367285253482189 -5.153207381951582 -2.897517681431793 24.000000000000000
-1.380925151906541 -5.136962789621563 -3.010183220814865 24.000000000000000
-1.344576808042223 -4.938916263213117 -3.013771615807005 7.000000000000000
-1.297635423496969 -4.699558839499198 -2.983780323980101 7.000000000000000
-1.298418049012269 -4.638617506725270 -3.062450358177421 20.000000000000000
-1.175650580664352 -5.528499212132437 -1.067261061612665 28.000000000000000
-1.189305621104480 -5.517580541335597 -1.168568829587739 8.000000000000000
-1.170995575976009 -5.360141324752900 -1.235730690612177 49.000000000000000
-1.184265734841591 -5.350123859400799 -1.335398576586928 47.000000000000000
-1.197461971308809 -5.338338011907560 -1.434771095991294 45.000000000000000
-1.209801529307885 -5.325023932283189 -1.533650670881603 44.000000000000000
-1.223647789913597 -5.317299240842089 -1.635062955845952 44.000000000000000
-1.235718800704751 -5.300295951590069 -1.734014380316015 41.000000000000000
-1.248717036924272 -5.288949636417171 -1.835596226063277 40.000000000000000
-1.262464398576590 -5.279323057094945 -1.938718056126864 37.000000000000000
-1.274977418819568 -5.264278660715643 -2.040281050207082 35.000000000000000
-1.287266515999142 -5.247265953861336 -2.142075845117330 31.000000000000000
-1.301066041530687 -5.235687511855393 -2.246583947636314 28.000000000000000
-1.314757152616070 -5.221958478057952 -2.351582293495927 28.000000000000000
-1.329800216455012 -5.213384809364364 -2.459940286634025 13.000000000000000
-1.343228076603175 -5.195510818761564 -2.565367355050048 27.000000000000000
-1.357430183293943 -5.182524641236593 -2.674876752386566 24.000000000000000
-1.371191370803875 -5.163794489645245 -2.782739063107138 24.000000000000000
-1.386722520427164 -5.153251028876333 -2.896582207486117 23.000000000000000
-1.402311999250826 -5.143671697355416 -3.013227261024630 23.000000000000000
-1.360832566060785 -4.929001730932652 -3.006942078526181 5.000000000000000
-1.323297259410289 -4.725997240318387 -2.999889739263796 4.000000000000000
-1.297299091449360 -4.570520375624333 -3.016909439033176 34.000000000000000
-1.300012678368225 -4.515275288274018 -3.097844429144865 13.000000000000000
-1.209924299311811 -4.033111038627478 -3.098722727195191 61.000000000000000
-1.192612931361889 -5.525372949341096 -1.064627712694950 8.000000000000000
-1.205544730320583 -5.510606468237892 -1.165108688239418 25.000000000000000
-1.188572662777228 -5.360867321573404 -1.234009961785172 48.000000000000000
-1.201964040363083 -5.350811723031319 -1.333728739416179 46.000000000000000
-1.215276037796873 -5.338986756857723 -1.433151967536794 44.000000000000000
-1.227725741033263 -5.325634906432665 -1.532083009562559 43.000000000000000
-1.240829810700022 -5.314135595449669 -1.632397088349809 43.000000000000000
-1.252994410942386 -5.297115357705109 -1.731334136818138 41.000000000000000
-1.266988707915320 -5.289435943478308 -1.834177476106065 39.000000000000000
-1.279973290139528 -5.276102389186102 -1.936003087640642 37.000000000000000
-1.293482384793299 -5.264676068722394 -2.038958854820559 34.000000000000000
-1.305873936266540 -5.247619550124029 -2.140803195003175 30.000000000000000
-1.319794732647395 -5.235992545655970 -2.245356970619886 28.000000000000000
-1.333601678453969 -5.222214181542730 -2.350401158381000 28.000000000000000
-1.349690749292249 -5.217109677055909 -2.460462862724109 12.000000000000000
-1.362311854340323 -5.195662364686704 -2.564274362017839 27.000000000000000
-1.376637275305553 -5.182623038030193 -2.673827267778906 24.000000000000000
-1.391426340203143 -5.167266170422079 -2.783579900739412 25.000000000000000
-1.407096402423126 -5.156630485026366 -2.897523383026382 23.000000000000000
-1.421902126367807 -5.143599734361565 -3.012301464944429 22.000000000000000
-1.381675430257731 -4.935652307821002 -3.010223463752039 4.000000000000000
-1.380866379406628 -4.864011834364442 -3.086806264958506 3.000000000000000
-1.305023947379784 -4.534925367665186 -2.992842863645211 7.000000000000000
-1.299255054085688 -4.451216826936001 -3.053409416379432 36.000000000000000
-1.224668751964837 -4.027154391638084 -3.093927916721880 80.000000000000000
-1.207880423191312 -5.514518472105578 -1.060493707702944 26.000000000000000
-1.225143599323010 -5.518887052469958 -1.164857443259609 4.000000000000000
-1.206161128646043 -5.361541686104435 -1.232262179857722 48.000000000000000
-1.219673737558943 -5.351447616182559 -1.332031675735604 46.000000000000000
-1.232230667127227 -5.335812316437678 -1.430494497278184 44.000000000000000
-1.247415809305681 -5.333694962695339 -1.532643416980162 43.000000000000000
-1.260649384435580 -5.322112247674434 -1.633140640813270 42.000000000000000
-1.272036298542198 -5.301300460480355 -1.731050860865113 40.000000000000000
-1.285271740905402 -5.289868691075024 -1.832730690312737 40.000000000000000
-1.297469224675711 -5.272832354185514 -1.933263710845953 37.000000000000000
-1.312904097175438 -5.268652828921162 -2.039014516849007 33.000000000000000
-1.324492616523875 -5.247918664618727 -2.139502044476737 31.000000000000000
-1.337619701183243 -5.232663651401147 -2.242567422913226 27.000000000000000
-1.352457342619755 -5.222414752815243 -2.349191198257736 28.000000000000000
-1.368693206160910 -5.217254069294590 -2.459293167525580 11.000000000000000
-1.382334352624542 -5.199247551092775 -2.564873610923135 26.000000000000000
-1.396786449076967 -5.186122726466928 -2.674531488260739 23.000000000000000
-1.411696512462658 -5.170676882066282 -2.784387461896438 23.000000000000000
-1.426567439912532 -5.156558362797184 -2.896526746026668 22.000000000000000
-1.441502815807606 -5.143470604644351 -3.011345840513543 23.000000000000000
-1.403519906915105 -4.945557536048175 -3.015492087293568 3.000000000000000
-1.404519307387597 -4.880347929793407 -3.096487300044468 3.000000000000000
-1.329526865215074 -4.557718155987909 -3.007318327887748 3.000000000000000
-1.305610556567587 -4.412833478025517 -3.026606312323509 35.000000000000000
-1.302157669148250 -4.345016239319532 -3.096333845813132 15.000000000000000
-1.242226804743665 -4.030402034465491 -3.096216401699463 64.000000000000000
-1.223940981367539 -5.507463115114370 -1.057080181340939 3.000000000000000
-1.244800645922596 -5.527106048443275 -1.164571200559434 10.000000000000000
-1.223760781743559 -5.362164348652387 -1.230487320986171 48.000000000000000
-1.239146076582429 -5.359606885056790 -1.332190316186928 43.000000000000000
-1.250938168246745 -5.340127296883347 -1.429831511858946 42.000000000000000
-1.264497419635415 -5.330447545468791 -1.529940927206384 41.000000000000000
-1.277841927737246 -5.318844873501141 -1.630421178514128 43.000000000000000
-1.291113540291577 -5.305427703529207 -1.730735886465800 40.000000000000000
-1.304473081119990 -5.293929261662239 -1.832530205248911 39.000000000000000
-1.316777084371331 -5.276826673450196 -1.933179342026777 36.000000000000000
-1.330526001597360 -5.265308209854625 -2.036229361911577 33.000000000000000
-1.343122354712533 -5.248163226941789 -2.138172369956970 30.000000000000000
-1.356358409978434 -5.232861296719632 -2.241285013775469 27.000000000000000
-1.372255546697725 -5.226108056561511 -2.349547466151769 27.000000000000000
-1.388642245215532 -5.220860955506481 -2.459751938320349 11.000000000000000
-1.400512141272644 -5.195798024511298 -2.562000903714206 26.000000000000000
-1.415083923883308 -5.182651391510458 -2.671640328046000 23.000000000000000
-1.431054560256022 -5.170604476857338 -2.783319634801811 23.000000000000000
-1.446048942108672 -5.156429356718638 -2.895500431047561 22.000000000000000
-1.461113856121265 -5.143284239532044 -3.010360365609361 22.000000000000000
-1.420677511412260 -4.938809052623604 -3.010610660695039 3.000000000000000
-1.423521043661126 -4.880207161116528 -3.095717994721241 3.000000000000000
-1.310727392582371 -4.371250809401077 -2.997625737753905 8.000000000000000
-1.306221455569900 -4.300773504089562 -3.064430253004633 30.000000000000000
-1.258859375110742 -4.030517379574364 -3.096110257507764 66.000000000000000
-1.246017938762306 -5.527214366076676 -1.058790181158730 12.000000000000000
-1.261897576023640 -5.523803015597961 -1.161839383261096 14.000000000000000
-1.242251835155246 -5.366538598404514 -1.229556769688955 47.000000000000000
-1.255126534369546 -5.352563212046539 -1.328555773675884 44.000000000000000
-1.268785843392918 -5.340618952413538 -1.428130137181846 43.000000000000000
-1.282467260033894 -5.330898196288782 -1.528288633650784 41.000000000000000
-1.295021378668819 -5.315529015561125 -1.627677767102103 42.000000000000000
-1.308398538491873 -5.302091758724171 -1.727975765611762 41.000000000000000
-1.322790340175865 -5.294252345765783 -1.831025345343674 38.000000000000000
-1.335195483922577 -5.277107832920221 -1.931725120053267 35.000000000000000
-1.348134502017520 -5.261913896561448 -2.033419659008808 31.000000000000000
-1.361762948424438 -5.248353167273233 -2.136814148182148 29.000000000000000
-1.377925767299252 -5.243727390516984 -2.244564018635849 27.000000000000000
-1.390201268171441 -5.222650218596568 -2.346684710004248 27.000000000000000
-1.406730432077351 -5.217375965195303 -2.456866607952058 11.000000000000000
-1.421532500040225 -5.202751525881752 -2.564255430191091 25.000000000000000
-1.434323064449694 -5.182581209630253 -2.670502827629106 23.000000000000000
-1.450422970684025 -5.170475455187991 -2.782222272466859 23.000000000000000
-1.465540698434052 -5.156243398403665 -2.894444416058469 21.000000000000000
-1.481699683748916 -5.146391085992979 -3.011305503795717 22.000000000000000
-1.440695852183214 -4.941957745884037 -3.011767769832005 3.000000000000000
-1.444470908481780 -4.886565585570583 -3.099076729038353 3.000000000000000
-1.332071139619355 -4.384077975364246 -3.005968526934262 3.000000000000000
-1.308014522905525 -4.250224263731819 -3.028050811306432 30.000000000000000
-1.275504006190141 -4.030583934003433 -3.095978469102508 63.000000000000000
-1.262964269971627 -5.523890065914502 -1.056056718394479 14.000000000000000
-1.277212304864408 -5.512816284570961 -1.157480600646151 21.000000000000000
-1.259885150482505 -5.367055322480446 -1.227725772731019 47.000000000000000
-1.272869246818999 -5.353042776655477 -1.326776888477885 43.000000000000000
-1.286644332033265 -5.341058106195527 -1.426401300157054 41.000000000000000
-1.300447908045304 -5.331296005761104 -1.526608704749286 41.000000000000000
-1.314026653264959 -5.319609926912143 -1.627187813378370 42.000000000000000
-1.325670194293356 -5.298707065228109 -1.725191575699332 39.000000000000000
-1.339255690126383 -5.287168124430723 -1.826951400685801 38.000000000000000
-1.355498146643429 -5.284639181127279 -1.932914250488273 34.000000000000000
-1.367613189370789 -5.265722984504255 -2.033386243369085 31.000000000000000
-1.381360981046158 -5.252088202671907 -2.136891984026750 28.000000000000000
-1.394819482779664 -5.236663833234426 -2.240162161128695 26.000000000000000
-1.410045082573945 -5.226228180064465 -2.346979308602680 27.000000000000000
-1.425764788539036 -5.217353330706269 -2.455609698288889 12.000000000000000
-1.439719003514427 -5.199192358571829 -2.561326220825400 25.000000000000000
-1.455507987233440 -5.189355435904754 -2.672890319288362 23.000000000000000
-1.469801533992556 -5.170289748977245 -2.781095352966874 23.000000000000000
-1.485042497969581 -5.156000420073278 -2.893358679360103 22.000000000000000
-1.502319743611273 -5.149435806918810 -3.012216834555273 20.000000000000000
-1.457813620640636 -4.935109484156863 -3.006837845122284 3.000000000000000
-1.461555935673115 -4.879758886992259 -3.094092346992695 3.000000000000000
-1.314356615092576 -4.215487651280990 -3.002953637714020 8.000000000000000
-1.313714891948355 -4.154231843011623 -3.073554127908173 27.000000000000000
-1.278120929439346 -5.512855902591528 -1.051837766478673 26.000000000000000
-1.294259037626289 -5.509421549523903 -1.154705041629373 9.000000000000000
-1.278433191480391 -5.371318774932450 -1.226735176384627 46.000000000000000
-1.290622576616430 -5.353470094580223 -1.324970683133471 44.000000000000000
-1.304513438898782 -5.341444689864281 -1.424644977828916 42.000000000000000
-1.318439167177849 -5.331640905398604 -1.524901117558685 40.000000000000000
-1.332135014176548 -5.319912635642805 -1.625529407034176 41.000000000000000
-1.344803935468103 -5.302669290044967 -1.724788907537240 39.000000000000000
-1.358513512012663 -5.291062686658373 -1.826662717507116 38.000000000000000
-1.372064284951258 -5.277507840029489 -1.928731862231883 31.000000000000000
-1.386172617753836 -5.265848686591003 -2.031922017134832 32.000000000000000
-1.400034819009754 -5.252166279772013 -2.135474625273298 28.000000000000000
-1.414565748594371 -5.240263758065773 -2.240317720504400 26.000000000000000
-1.429923544223471 -5.229745899798174 -2.347241036029231 26.000000000000000
-1.444809365038468 -5.217274883484142 -2.454323672391780 12.000000000000000
-1.457891295305028 -5.195581896013464 -2.558371695608551 25.000000000000000
-1.474791791755861 -5.189167690627541 -2.671690073626949 23.000000000000000
-1.489190040086879 -5.170047290750261 -2.779938854707405 23.000000000000000
-1.504554129456804 -5.155700354557919 -2.892243199585027 21.000000000000000
-1.520006962691860 -5.142381054267173 -3.007224621820308 22.000000000000000
-1.475883537898912 -4.931524742302759 -3.003902711243274 3.000000000000000
-1.481581696330342 -4.882723848587845 -3.095310565279418 3.000000000000000
-1.332404320245689 -4.218616473058966 -3.004842388649720 3.000000000000000
-1.315733715967772 -4.107466979285344 -3.038706271219080 21.000000000000000
-1.295917012382540 -5.513269445615045 -1.049790034752230 8.000000000000000
-1.317648922737020 -5.532669761760925 -1.157489794212583 6.000000000000000
-1.295183388888571 -5.367932879600275 -1.223982266723424 45.000000000000000
-1.309309678887415 -5.357623393935869 -1.324070894447434 44.000000000000000
-1.322392968379778 -5.341778635620235 -1.422861147551274 41.000000000000000
-1.337378036138744 -5.335671910612167 -1.524233988191444 40.000000000000000
-1.350253776630985 -5.320162041515783 -1.623843154589872 40.000000000000000
-1.363022320992150 -5.302877721781861 -1.723153510371843 40.000000000000000
-1.376850366331850 -5.291226591853453 -1.825075401838167 37.000000000000000
-1.391475247785640 -5.281273839370672 -1.928524635149588 31.000000000000000
-1.404742332650090 -5.265919840856787 -2.030429316310127 31.000000000000000
-1.419689953742705 -5.255784422472551 -2.135489297499965 28.000000000000000
-1.433370741360134 -5.240236411932926 -2.238916404170784 25.000000000000000
-1.447875855383753 -5.226126529285737 -2.344295418093161 26.000000000000000
-1.463863954425178 -5.217140555946242 -2.453008508431152 15.000000000000000
-1.479015135501705 -5.202352699306984 -2.560526629615519 24.000000000000000
-1.494085425226375 -5.188923411280602 -2.670460367425474 22.000000000000000
-1.509584046374548 -5.173160388566188 -2.780586916660071 23.000000000000000
-1.525074120082191 -5.158721472871064 -2.892992515302198 21.000000000000000
-1.540658362754052 -5.145308353361417 -3.008074094517160 21.000000000000000
-1.498952382816609 -4.944425570419815 -3.011012708811954 3.000000000000000
-1.501641575077378 -4.885628176823365 -3.096495744842664 3.000000000000000
-1.381753356959265 -4.319429250458839 -3.076310876815345 13.000000000000000
-1.323461455658256 -4.079394513897354 -3.017702134964799 56.000000000000000
-1.324498913762862 -4.027420459611649 -3.093071461984429 32.000000000000000
-1.318281346779612 -5.532761775971658 -1.051350284671988 7.000000000000000
-1.333831053453180 -5.525351380352991 -1.153857376141119 24.000000000000000
-1.312847924983398 -5.368293578316442 -1.222069712771424 45.000000000000000
-1.327095543112783 -5.357943579102345 -1.322208010339577 43.000000000000000
-1.341225258089561 -5.345816599069038 -1.422049118765080 42.000000000000000
-1.353503570145489 -5.328435073580215 -1.520336723309552 40.000000000000000
-1.368382742286218 -5.320358077091921 -1.622129033750399 40.000000000000000
-1.382212772755716 -5.306725426919821 -1.722688913911502 38.000000000000000
-1.396164928031556 -5.295005966395999 -1.824724447571580 38.000000000000000
-1.408974413938838 -5.277690976131178 -1.925625368894283 29.000000000000000
-1.423322131269773 -5.265936379787418 -2.028908118833639 31.000000000000000
-1.437413000861608 -5.252157779969248 -2.132553989764977 29.000000000000000
-1.453173583187775 -5.243718534266657 -2.239008367673855 25.000000000000000
-1.468791043550746 -5.233064077660074 -2.346080397064183 26.000000000000000
-1.481931757577220 -5.213444266135587 -2.450016561124042 15.000000000000000
-1.497194922800302 -5.198632292951133 -2.557515522108644 24.000000000000000
-1.513388677869081 -5.188622531342184 -2.669201179556518 23.000000000000000
-1.529003951518753 -5.172801740471060 -2.779369185628207 23.000000000000000
-1.545627791460206 -5.161680403875502 -2.893708025788619 22.000000000000000
-1.561343298960167 -5.148173122736333 -3.008889596034960 22.000000000000000
-1.517054080644136 -4.940726552354571 -3.008017295704847 3.000000000000000
-1.520718133056574 -4.885204007784941 -3.095577193693427 3.000000000000000
-1.339156807836049 -4.076190349511916 -3.015106511978025 54.000000000000000
-1.342199489214999 -4.030360820823407 -3.095194369522319 40.000000000000000
-1.336155605136377 -5.533058101568074 -1.049237934662363 26.000000000000000
-1.349975699851688 -5.517989650780284 -1.150205122441917 10.000000000000000
-1.329582845937711 -5.364810749497989 -1.219268255085400 43.000000000000000
-1.344891430687418 -5.358211282801904 -1.320317722564504 43.000000000000000
-1.359136961171954 -5.346042588421531 -1.420208211340678 43.000000000000000
-1.373435757971923 -5.336091612858698 -1.520676335681974 39.000000000000000
-1.387489278207432 -5.324213516173807 -1.621517788077446 39.000000000000000
-1.400463366066846 -5.306823999820910 -1.720995466359375 38.000000000000000
-1.412574772324053 -5.287725476290442 -1.820553706975619 36.000000000000000
-1.428429596020012 -5.281343354789668 -1.925357436434365 27.000000000000000
-1.442902134530217 -5.269514924805515 -2.028750819450256 31.000000000000000
-1.457112231844249 -5.255661001139710 -2.132507300083404 28.000000000000000
-1.472010431458571 -5.243578080261885 -2.237547363939864 25.000000000000000
-1.485746216930874 -5.225802564318301 -2.341495619820774 26.000000000000000
-1.502002341566067 -5.216703992591555 -2.450290680635541 16.000000000000000
-1.517385813407582 -5.201805597710005 -2.557894215346341 24.000000000000000
-1.533717719771863 -5.191705478919703 -2.669681661961393 22.000000000000000
-1.548433157269000 -5.172386107321079 -2.778121796153265 23.000000000000000
-1.562122896759651 -5.151083636660919 -2.886827570802136 21.000000000000000
-1.581036212970321 -5.147636908855421 -3.007720523563631 21.000000000000000
-1.536167932268961 -4.940278790755714 -3.007006743171317 2.000000000000000
-1.541862741656833 -4.891254258209614 -3.098766701033944 3.000000000000000
-1.358973187007000 -4.085368882883707 -3.021680487371484 53.000000000000000
-1.360968455094922 -4.036311913331627 -3.099641108666247 59.000000000000000
-1.349363753022092 -5.514194950045678 -1.043482397992831 9.000000000000000
-1.367026149725710 -5.514390360247597 -1.147324915084860 16.000000000000000
-1.349158312544846 -5.372647375407541 -1.219022570429934 41.000000000000000
-1.362697146050914 -5.358426439103873 -1.318400009427066 43.000000000000000
-1.377058488186881 -5.346215706245705 -1.418339713328301 42.000000000000000
-1.390506373179748 -5.332490055798512 -1.517793737948763 40.000000000000000
-1.405650035207460 -5.324300084120630 -1.619745842024090 40.000000000000000
-1.418723742134127 -5.306868759315348 -1.719273949929946 37.000000000000000
-1.432912745401504 -5.295058599805541 -1.821404811866739 37.000000000000000
-1.445924256588927 -5.277656703110321 -1.922405464079431 25.000000000000000
-1.462515986550831 -5.273033629144207 -2.028560902462019 31.000000000000000
-1.476845291991276 -5.259104061596307 -2.132427830625087 27.000000000000000
-1.491868948971233 -5.246941859199191 -2.237575510519993 25.000000000000000
-1.506729099545032 -5.232618611482901 -2.343214434776931 26.000000000000000
-1.521085723333520 -5.216401624612583 -2.448887974777562 25.000000000000000
-1.537610275327102 -5.204917428223283 -2.558239474049691 24.000000000000000
-1.553051710962224 -5.191288646142756 -2.668361402716396 22.000000000000000
-1.568903625508875 -5.175318238735004 -2.778672802199266 22.000000000000000
-1.584764973109416 -5.160669465564918 -2.891260390762378 20.000000000000000
-1.600737968305484 -5.147042927677134 -3.006521421422775 20.000000000000000
-1.556330024316400 -4.943074694971724 -3.007974969201292 2.000000000000000
-1.560982205833869 -4.890713025153099 -3.097785767071032 3.000000000000000
-1.374690730921997 -4.082066144540142 -3.019033187283028 51.000000000000000
-1.366251365294324 -5.510579359473764 -1.040603829405366 16.000000000000000
-1.388838273846353 -5.529758633300147 -1.148370021614104 4.000000000000000
-1.366864130630828 -5.372848923794259 -1.217026248886071 44.000000000000000
-1.380512493311575 -5.358588982645292 -1.316454849542189 42.000000000000000
-1.395967895671568 -5.350085070693427 -1.417436901804662 41.000000000000000
-1.409532727078844 -5.336298468424180 -1.517007629244965 40.000000000000000
-1.423820388360113 -5.324333049099732 -1.617945945930952 40.000000000000000
-1.435995788201700 -5.303174320447981 -1.716331618076201 38.000000000000000
-1.452304746727993 -5.298665467740231 -1.820961060431700 36.000000000000000
-1.465422808954726 -5.281195059258833 -1.922076673042816 24.000000000000000
-1.480134482100691 -5.269269200414616 -2.025561652593777 30.000000000000000
-1.495592455684705 -5.258901992948371 -2.130862978950695 28.000000000000000
-1.510736789571229 -5.246687895952118 -2.236054667289138 24.000000000000000
-1.525712115933107 -5.232312143406340 -2.341737853231544 27.000000000000000
-1.541211269443861 -5.219541464183911 -2.449097533093386 24.000000000000000
-1.556830872929075 -5.204500261544415 -2.556847797714797 24.000000000000000
-1.573435311701642 -5.194250333377993 -2.668776647472203 21.000000000000000
-1.588362912609924 -5.174785852491764 -2.777363973032056 22.000000000000000
-1.606441243684620 -5.166814199102698 -2.893764600402002 19.000000000000000
-1.621497863782135 -5.149724270366002 -3.007238703021978 20.000000000000000
-1.574423332411533 -4.939214851666903 -3.004897971550990 2.000000000000000
-1.579057315496435 -4.886855556861736 -3.094711094875701 3.000000000000000
-1.393567198105830 -4.088024118501377 -3.023245486379580 50.000000000000000
-1.389834231440757 -5.533630188399370 -1.042735703402657 4.000000000000000
-1.405918795317258 -5.526050401747359 -1.145432363049657 21.000000000000000
-1.383604318236223 -5.369214299950957 -1.214146981118937 43.000000000000000
-1.398337276248568 -5.358698848632231 -1.314482221835403 40.000000000000000
-1.412930225409561 -5.346403065882963 -1.414519860320577 39.000000000000000
-1.427595433415956 -5.336321915051404 -1.515131577597148 40.000000000000000
-1.442000137867373 -5.324312346005000 -1.616118078782989 39.000000000000000
-1.455273040350151 -5.306796575622546 -1.715746625522209 38.000000000000000
-1.470714451332428 -5.298553629510097 -1.819228528208408 35.000000000000000
-1.483933482611354 -5.281039068318314 -1.920393651853849 22.000000000000000
-1.499791197639172 -5.272672948359541 -2.025310431297277 29.000000000000000
-1.515380385442757 -5.262226845560754 -2.130719811067399 27.000000000000000
-1.528577430008109 -5.242823882123933 -2.232990994496113 24.000000000000000
-1.544704180997724 -5.231949765480207 -2.340232177519950 27.000000000000000
-1.560324914514311 -5.219124119654668 -2.447634283299855 24.000000000000000
-1.576060337286133 -5.204026533758861 -2.555426705888325 24.000000000000000
-1.591746415308974 -5.190284424317809 -2.665632184686209 21.000000000000000
-1.607830854435510 -5.174196253809673 -2.776025408851136 20.000000000000000
-1.624996475918962 -5.162794175366127 -2.890577581739772 19.000000000000000
-1.641228742028746 -5.149011947366714 -3.005977408799604 20.000000000000000
-1.595690633521906 -4.945187736007287 -3.007807450242382 2.000000000000000
-1.600313538375836 -4.892719490267400 -3.097798664931041 3.000000000000000
-1.412502024269179 -4.093922301222303 -3.027423693999594 54.000000000000000
-1.405804688658957 -5.526087592943862 -1.039078963532798 27.000000000000000
-1.422006013063302 -5.518495962949673 -1.141685248095976 8.000000000000000
-1.402303847624530 -5.373094844279696 -1.212951653328518 43.000000000000000
-1.416171298314031 -5.358755972841081 -1.312482105543377 39.000000000000000
-1.429878023657140 -5.342673188794557 -1.411579269895300 40.000000000000000
-1.445667355779258 -5.336291954781080 -1.513227699248506 39.000000000000000
-1.460189083602290 -5.324237910310876 -1.614262219881637 37.000000000000000
-1.474583447929894 -5.310359585533881 -1.715129361715790 39.000000000000000
-1.489133291919176 -5.298387420946775 -1.817467682367679 35.000000000000000
-1.504519911523005 -5.288092291974323 -1.921321354535091 19.000000000000000
-1.517403865342798 -5.268803822296207 -2.022258092232447 30.000000000000000
-1.533114157171239 -5.258332005966674 -2.127646938781812 27.000000000000000
-1.549548043030845 -5.249564927088139 -2.234437946917607 24.000000000000000
-1.564758086698171 -5.235054330341820 -2.340272268023968 26.000000000000000
-1.579447312176427 -5.218650467773062 -2.446141754533178 24.000000000000000
-1.596359867500155 -5.206958254470255 -2.555675431199933 23.000000000000000
-1.612171548198969 -5.193126978424567 -2.665984074434181 18.000000000000000
-1.628375726340761 -5.176946325954095 -2.776478926996314 19.000000000000000
-1.645678650080039 -5.165447627653474 -2.891129292619038 19.000000000000000
-1.660967807208952 -5.148241633723622 -3.004686010918647 20.000000000000000
-1.613789412472814 -4.941217879606392 -3.004673958759712 2.000000000000000
-1.617316585916920 -4.885497293259900 -3.092607194337526 3.000000000000000
-1.428251394250597 -4.090470935729043 -3.024698576515880 60.000000000000000
-1.422718967824186 -5.522313511818977 -1.036117858052275 7.000000000000000
-1.437064577598397 -5.507103203925765 -1.137134864966560 22.000000000000000
-1.419038735551896 -5.369360510046847 -1.210021809783915 42.000000000000000
-1.434014362635238 -5.358760291619857 -1.310454480214449 40.000000000000000
-1.448838889261512 -5.346378160860412 -1.410589392430811 38.000000000000000
-1.465789784839231 -5.343650934512926 -1.513403778487450 38.000000000000000
-1.479414396219625 -5.327809545813823 -1.613498834146845 38.000000000000000
-1.492892919089179 -5.310185770715546 -1.713293265212799 39.000000000000000
-1.507561065747343 -5.298166778055197 -1.815678502641628 34.000000000000000
-1.522027295680786 -5.284192330080360 -1.918259713887182 28.000000000000000
-1.537102584805146 -5.272092219493446 -2.021945417893865 29.000000000000000
-1.552943989327958 -5.261540805604077 -2.127441965594683 26.000000000000000
-1.568454707452684 -5.249141302499325 -2.232828120806707 24.000000000000000
-1.583779708299986 -5.234577250925323 -2.338706232016391 26.000000000000000
-1.599647535947156 -5.221610826776183 -2.446255124559158 23.000000000000000
-1.616692025765366 -5.209827902818391 -2.555890474343845 20.000000000000000
-1.632629203559553 -5.195907128883917 -2.666302119358907 18.000000000000000
-1.647872423401928 -5.176239422534396 -2.775078722629729 19.000000000000000
-1.665309592590045 -5.164677764666555 -2.889766694386667 19.000000000000000
-1.681800576977984 -5.150738469997247 -3.005304648944421 20.000000000000000
-1.634046921837265 -4.943775483730994 -3.005514701959471 2.000000000000000
-1.638638019222904 -4.891238027080443 -3.095627885324630 3.000000000000000
-1.446173359968807 -4.093162817462998 -3.026526848163569 51.000000000000000
-1.444759125676548 -4.034654365439676 -3.097931442142145 6.000000000000000
-1.438624870170009 -5.514683202716910 -1.032420290676377 23.000000000000000
-1.461080328444311 -5.529807560307681 -1.139603711733633 4.000000000000000
-1.437779701241139 -5.373130772307204 -1.208767651115932 42.000000000000000
-1.452884411057412 -5.362469604261062 -1.309316856793100 38.000000000000000
-1.466806573341860 -5.346285950016086 -1.408582626991298 38.000000000000000
-1.482870690895028 -5.339790075402864 -1.510388183452705 37.000000000000000
-1.498672364062308 -5.331321929802226 -1.612703204562377 38.000000000000000
-1.512256977757674 -5.313632496996315 -1.712613359777370 37.000000000000000
-1.527049256566686 -5.301542837731464 -1.815111045560946 34.000000000000000
-1.540576692639200 -5.283869489904427 -1.916489151483511 29.000000000000000
-1.555771331649687 -5.271719177611958 -2.020219907835595 30.000000000000000
-1.571738741040118 -5.261114586293243 -2.125759779421488 27.000000000000000
-1.588442410086196 -5.252208252177337 -2.232696841400515 24.000000000000000
-1.602809742717289 -5.234044036946375 -2.337111026022645 25.000000000000000
-1.619880250537327 -5.224509302055286 -2.446334917107000 20.000000000000000
-1.634885406702469 -5.205722004497229 -2.552681750403808 20.000000000000000
-1.652030126130523 -5.195200057142280 -2.664829605927181 18.000000000000000
-1.668469771229639 -5.178866615190841 -2.775466303984731 19.000000000000000
-1.684948408499217 -5.163850101271822 -2.888374108783512 19.000000000000000
-1.701567421694410 -5.149849271297485 -3.003950863836658 19.000000000000000
-1.652138295890415 -4.939698075257180 -3.002326760456433 2.000000000000000
-1.656711135374909 -4.887163216053284 -3.092442386460980 3.000000000000000
-1.463024166215976 -4.092708392691292 -3.026039375398528 52.000000000000000
-1.458513161133279 -5.522233776760400 -1.031547126217503 3.000000000000000
-1.479161945130601 -5.529686050343632 -1.137342571397244 26.000000000000000
-1.456552831236978 -5.376843055454624 -1.207481928156659 42.000000000000000
-1.470756770658595 -5.362365419001476 -1.307232050807746 40.000000000000000
-1.484782894036345 -5.346140483257690 -1.406548147363000 38.000000000000000
-1.500980948575070 -5.339596791325317 -1.508398587271637 37.000000000000000
-1.514809092015023 -5.323691571112413 -1.608526490430068 37.000000000000000
-1.530595730863842 -5.313347542559121 -1.710718738028649 37.000000000000000
-1.545506266243638 -5.301210394890568 -1.813263006324742 33.000000000000000
-1.559134573780271 -5.283491777135259 -1.914690058935677 29.000000000000000
-1.575523215422346 -5.274889084409958 -2.019843495134686 29.000000000000000
-1.591621647755376 -5.264204190351896 -2.125490713383146 26.000000000000000
-1.607377901714090 -5.251670171308538 -2.231026824775839 21.000000000000000
-1.622937200357966 -5.236969370653912 -2.337055124409139 20.000000000000000
-1.639051783431324 -5.223860832050535 -2.444750142366065 19.000000000000000
-1.655257952046543 -5.208472535153478 -2.552833516455505 19.000000000000000
-1.671438945665224 -5.194435772313724 -2.663327403497559 19.000000000000000
-1.687994327738392 -5.178042023021525 -2.774004318191695 19.000000000000000
-1.705702481819410 -5.166319329385382 -2.888827379808992 19.000000000000000
-1.722451622441140 -5.152221594791425 -3.004502795224994 19.000000000000000
-1.674658654789231 -4.948704844090900 -3.007095401880489 2.000000000000000
-1.675881776893857 -4.886284085714241 -3.091285833366242 3.000000000000000
-1.481001709846823 -4.095292547294583 -3.027809255469083 52.000000000000000
-1.479472949546042 -5.533523603214311 -1.031346849625110 26.000000000000000
-1.494175059269578 -5.518148912936881 -1.132721266203772 9.000000000000000
-1.473290121615132 -5.372956206967172 -1.204474082562266 41.000000000000000
-1.488637569356350 -5.362208207476337 -1.305119659944724 41.000000000000000
-1.504866489832152 -5.353408097559753 -1.406447506578868 37.000000000000000
-1.521212407550732 -5.346775892420064 -1.508476173941547 36.000000000000000
-1.535159073993697 -5.330784930050843 -1.608786700304814 37.000000000000000
-1.547873123210718 -5.309339054578987 -1.707615764147250 36.000000000000000
-1.563971588236995 -5.300823295460255 -1.811386557721276 32.000000000000000
-1.578782091877468 -5.286680143373085 -1.914173494757397 29.000000000000000
-1.594220625119743 -5.274402791932737 -2.018058420089708 29.000000000000000
-1.610444936553264 -5.263664021765380 -2.123748613255029 25.000000000000000
-1.625224814133211 -5.247535266202235 -2.227824484444299 18.000000000000000
-1.641995484204323 -5.236320909049318 -2.335399359275743 19.000000000000000
-1.659336694416836 -5.226637840709359 -2.444764736457643 20.000000000000000
-1.675662416262312 -5.211160569151791 -2.552951427121858 19.000000000000000
-1.691968586326446 -5.197033314336359 -2.663547828097431 18.000000000000000
-1.707526450841938 -5.177159840774504 -2.772512471161642 19.000000000000000
-1.725368442270241 -5.165373092076261 -2.887372604648125 18.000000000000000
-1.777022934705021 -5.254038378822273 -3.063032191047784 20.000000000000000
-1.693889124331724 -4.947795242342871 -3.005841957641809 2.000000000000000
-1.698436827388353 -4.895080191891380 -3.096255522130502 3.000000000000000
-1.500141444836352 -4.100906974592590 -3.031830079543073 55.000000000000000
-1.494339708874061 -5.521941606851400 -1.026865972269779 8.000000000000000
-1.511200304067011 -5.514143764939416 -1.129635419313475 26.000000000000000
-1.492103424944766 -5.376557570059791 -1.203129280294036 40.000000000000000
-1.507580123994657 -5.365747557246936 -1.303890839616113 40.000000000000000
-1.522883134090768 -5.353150371149936 -1.404353254619074 39.000000000000000
-1.538294742347259 -5.342759333820965 -1.505381010420863 36.000000000000000
-1.553414783560726 -5.330435290365990 -1.606786272481759 36.000000000000000
-1.568379728723915 -5.316280985928321 -1.708022688720760 36.000000000000000
-1.582445018400461 -5.300381477839363 -1.809481680790655 32.000000000000000
-1.598461647036760 -5.289807884922912 -1.913624023563647 28.000000000000000
-1.612926039646107 -5.273861139761480 -2.016244595565050 25.000000000000000
-1.630380002702952 -5.266633910246531 -2.123415244889152 18.000000000000000
-1.645272867284142 -5.250426016660819 -2.227599568088892 16.000000000000000
-1.661061541396841 -5.235616093796794 -2.333714351429571 19.000000000000000
-1.678535843818878 -5.225873232178645 -2.443118986503515 19.000000000000000
-1.696098554385434 -5.213785943738425 -2.553035414303386 20.000000000000000
-1.712529790713583 -5.199567866783674 -2.663734167410324 18.000000000000000
-1.729323528578169 -5.182986309126650 -2.774612955514995 19.000000000000000
-1.784650216299047 -5.281588625140001 -2.951391061898696 19.000000000000000
-1.809669009718031 -5.289339452893880 -3.082765353919503 18.000000000000000
-1.711991901306742 -4.943550669743234 -3.002567985165588 2.000000000000000
-1.717658801384050 -4.894079501666260 -3.095033775808925 3.000000000000000
-1.514775539050839 -4.094128526653445 -3.026699633848020 49.000000000000000
-1.508104331677059 -5.506525294768617 -1.021665553324704 28.000000000000000
-1.531356496395324 -5.521435957982496 -1.128845535423582 4.000000000000000
-1.509890880356720 -5.376335597400161 -1.200911767593044 40.000000000000000
-1.525488976257030 -5.365481305392026 -1.301721070278481 39.000000000000000
-1.540907795196538 -5.352839137654879 -1.402231198159815 37.000000000000000
-1.556441468339569 -5.342401965630898 -1.503305422479439 35.000000000000000
-1.571678459914402 -5.330031475998969 -1.604757702427798 36.000000000000000
-1.585661284827911 -5.312166459758280 -1.704865330053104 35.000000000000000
-1.602025889601430 -5.303524911846774 -1.808789804943464 32.000000000000000
-1.617067691325444 -5.289259487619588 -1.911734854601334 25.000000000000000
-1.632749966516757 -5.276853763439154 -2.015773277458941 21.000000000000000
-1.646999248172418 -5.258853593111925 -2.118742165232306 18.000000000000000
-1.664231923245223 -5.249719821045770 -2.225842291396825 7.000000000000000
-1.682385845081108 -5.241867396092763 -2.335123994577248 19.000000000000000
-1.696612881073560 -5.221575428356368 -2.439819414989620 19.000000000000000
-1.715432325339006 -5.212903088370638 -2.551399092348720 20.000000000000000
-1.734259531292944 -5.205452679514815 -2.665634310900805 19.000000000000000
-1.788823292312624 -5.300293159907248 -2.836368743291370 18.000000000000000
-1.811613302596301 -5.300503899086924 -2.961015308575833 18.000000000000000
-1.829981051316838 -5.288094303849814 -3.081196518466890 19.000000000000000
-1.735814393393035 -4.955631820410766 -3.009213460727211 2.000000000000000
-1.735738619849971 -4.889783789112204 -3.091735101734431 3.000000000000000
-1.531676452095089 -4.093471392026753 -3.026105617581110 53.000000000000000
-1.529145340893776 -5.517641723264480 -1.021371793282856 4.000000000000000
-1.553687902100610 -5.536221207697412 -1.129561260980394 14.000000000000000
-1.527686177889527 -5.376060724567640 -1.198666770894460 38.000000000000000
-1.543405660912776 -5.365161811790748 -1.299523643172609 38.000000000000000
-1.558940272955787 -5.352474336828565 -1.400081318691220 37.000000000000000
-1.575687939430078 -5.345695259236104 -1.502242894113746 34.000000000000000
-1.591048690984229 -5.333256614850112 -1.603808574323911 35.000000000000000
-1.605137690126309 -5.315324514102454 -1.704031192648035 34.000000000000000
-1.619415385073939 -5.299333444598296 -1.805586567724682 23.000000000000000
-1.635681376331822 -5.288655904913567 -1.909817047401163 20.000000000000000
-1.652605443712627 -5.279785134467430 -2.015268761547239 20.000000000000000
-1.668089410522193 -5.265269049638695 -2.119781958933646 18.000000000000000
-1.683198415480032 -5.248957466361254 -2.224055891936160 5.000000000000000
-1.700353494668455 -5.237540532806118 -2.331816279294272 19.000000000000000
-1.718097895096461 -5.227647134556910 -2.441361312756480 18.000000000000000
-1.737064868556856 -5.218848067311733 -2.553101347918279 19.000000000000000
-1.793969432156254 -5.323815415393106 -2.725105337287294 18.000000000000000
-1.813432919984717 -5.312640298738041 -2.841932107025129 19.000000000000000
-1.834104079811590 -5.305951597742387 -2.963113880166183 18.000000000000000
-1.851457158420531 -5.290097631280790 -3.081523883089462 18.000000000000000
-1.753943667584563 -4.951270644154355 -3.005878344057744 3.000000000000000
-1.757286016459775 -4.895143186145891 -3.094547308328698 3.000000000000000
-1.547422095727964 -4.089686823303170 -3.023210635227606 46.000000000000000
-1.550263280617989 -5.528687929599181 -1.021037481129789 12.000000000000000
-1.568614456659710 -5.524496886243295 -1.124849696735657 14.000000000000000
-1.546569881090364 -5.379492145906050 -1.197230911327993 37.000000000000000
-1.561329978643260 -5.364789016884164 -1.297298540085845 37.000000000000000
-1.576980366864635 -5.352055909009544 -1.397903598020798 36.000000000000000
-1.592758095379788 -5.341525443348226 -1.499070241071343 34.000000000000000
-1.610450212897225 -5.336421663936966 -1.602826857911825 34.000000000000000
-1.624645424805775 -5.318422186860755 -1.703164315609307 25.000000000000000
-1.637911911719483 -5.298727108756696 -1.803596295287371 20.000000000000000
-1.655431712456061 -5.291606631378499 -1.909172884823658 20.000000000000000
-1.671357567756052 -5.279071200823185 -2.013364134314464 20.000000000000000
-1.686955162136175 -5.264502766673465 -2.117921835344626 18.000000000000000
-1.703316836392047 -5.251668240149812 -2.223734797646780 12.000000000000000
-1.720602983681756 -5.240163811701922 -2.331598721708996 19.000000000000000
-1.743098823003506 -5.244062029699700 -2.447724641765419 17.000000000000000
-1.794645292263279 -5.331351097758344 -2.606903095128039 19.000000000000000
-1.815044299561022 -5.326057495956820 -2.725110959280962 19.000000000000000
-1.836980038291885 -5.321530456966998 -2.845642622412336 18.000000000000000
-1.854313548196433 -5.304647092171249 -2.961442974715917 18.000000000000000
-1.874133067482558 -5.295340610954930 -3.083740757479444 18.000000000000000
-1.774398350740208 -4.953397405628819 -3.006487092072758 2.000000000000000
-1.776541326833587 -4.893969142137425 -3.093235029844811 3.000000000000000
-1.566681520761227 -4.095080941215286 -3.027111675739866 5.000000000000000
-1.568233246507393 -5.528296262514613 -1.018568072548835 14.000000000000000
-1.583478178171744 -5.512735870483886 -1.120123243904066 30.000000000000000
-1.564391959197323 -5.379108401870973 -1.194928700349885 37.000000000000000
-1.581462791466840 -5.371839325614489 -1.296850684923901 36.000000000000000
-1.596136304100130 -5.355302755368978 -1.396667926556279 37.000000000000000
-1.610927592645034 -5.341006170383593 -1.496910611619569 33.000000000000000
-1.627637770919791 -5.332171743891005 -1.599606132873217 22.000000000000000
-1.643055003233467 -5.317804469570257 -1.701095494017919 21.000000000000000
-1.659821653596466 -5.308959712462975 -1.805281930806744 19.000000000000000
-1.674071996278153 -5.290889549925419 -1.907195512203006 19.000000000000000
-1.690116844991618 -5.278301599919629 -2.011430652685166 20.000000000000000
-1.705828000282938 -5.263680503179532 -2.116032701519141 19.000000000000000
-1.723466246889131 -5.254316817075019 -2.223380057848079 17.000000000000000
-1.752497014910948 -5.277699354290927 -2.346900027364897 18.000000000000000
-1.797366761387905 -5.347080978531514 -2.494478248869777 18.000000000000000
-1.819099275818739 -5.343939208384091 -2.611817673921931 19.000000000000000
-1.837322596880253 -5.331639379713550 -2.726822913150193 18.000000000000000
-1.855897741969988 -5.316857556765383 -2.842100155240405 18.000000000000000
-1.876888258070473 -5.309957876134759 -2.963466520882532 17.000000000000000
-1.796066842589492 -4.958727828529093 -3.009044070717768 3.000000000000000
-1.795803330100219 -4.892738134103017 -3.091893263147205 3.000000000000000
-1.583620936809663 -4.094270199805062 -3.026436891707194 49.000000000000000
-1.581864302782640 -5.512706272799259 -1.013287164342710 30.000000000000000
-1.604851737247693 -5.523560490121825 -1.119968934130861 4.000000000000000
-1.582221273015936 -5.378671548095969 -1.192598935484487 34.000000000000000
-1.597200714519316 -5.363883287832604 -1.292765234700046 35.000000000000000
-1.615322992077090 -5.358489961589997 -1.395399929341531 36.000000000000000
-1.631359091646907 -5.347824413779196 -1.496791753547626 22.000000000000000
-1.644808776482550 -5.327873273197072 -1.596361636208502 21.000000000000000
