# This PCD file was generated using the MATLAB® pcwrite function
# from Computer Vision Toolbox®.
# .PCD v.7 - Point Cloud Data file format
VERSION .7
FIELDS x y z intensity
SIZE 8 8 8 8
TYPE F F F F
COUNT 1 1 1 1
WIDTH 638
HEIGHT 1
VIEWPOINT 0 0 0 1 0 0 0
POINTS 638
DATA ascii
3.858721412005235 -4.489858169547642 -2.154400770952009 31.000000000000000
3.855715553797705 -4.443515442482241 -2.253581167968953 34.000000000000000
3.888328104542478 -4.437779443207847 -2.374156305904677 13.000000000000000
3.088864122879284 -3.456492494923328 -2.048463341856011 49.000000000000000
3.077500664509943 -3.409868226041564 -2.122590007743607 50.000000000000000
3.005539088137889 -3.121973050438472 -2.557546297139344 6.000000000000000
3.022683288661981 -3.102138907184729 -2.654528194797396 6.000000000000000
3.035120444045019 -3.078860247260403 -2.750279889025763 4.000000000000000
3.058825842276296 -3.065192968834439 -2.857187521047686 4.000000000000000
7.336801294275412 -9.599504313283616 -1.775896311040679 34.000000000000000
7.445278699669064 -9.654571319849374 -2.006941382850044 26.000000000000000
7.631328995875196 -9.808324427383921 -2.264290989227826 21.000000000000000
7.286165997445632 -9.279688388555941 -2.359701775429928 18.000000000000000
5.828033217598211 -7.288695174280634 -2.199703496153518 34.000000000000000
5.899763122249264 -7.310669050434534 -2.383647863331801 5.000000000000000
5.801235109754057 -7.123094296394078 -2.497518537675942 19.000000000000000
5.457419001654288 -6.638262323021462 -2.493342168884254 19.000000000000000
3.878941208901971 -4.586403270441521 -2.077848921063661 17.000000000000000
3.835765123910476 -4.492412696432384 -2.155012315307078 28.000000000000000
3.832753022768977 -4.446166758818880 -2.254007413303979 27.000000000000000
3.865217204677850 -4.440632928161165 -2.374442915294689 13.000000000000000
3.081125944329828 -3.470925777382533 -2.055508006084890 48.000000000000000
3.064931070874301 -3.418812128084589 -2.126386880050529 59.000000000000000
3.024084560006874 -3.163143636101051 -2.587757892717447 4.000000000000000
3.005474408572356 -3.106121446421116 -2.654113249185015 6.000000000000000
3.022580446545407 -3.087793045034160 -2.754072903029263 5.000000000000000
3.034428266152335 -3.062358876749641 -2.849987229369354 5.000000000000000
7.343315275296265 -9.667532514019754 -1.793465878674988 34.000000000000000
7.449014120452226 -9.719527329540627 -2.025023734087138 26.000000000000000
7.648794549726108 -9.892245470088170 -2.287873575091123 20.000000000000000
7.184462786478441 -9.207651935421412 -2.344863387457088 14.000000000000000
5.802081728133958 -7.302274406753182 -2.205831387148962 73.000000000000000
5.856508621179950 -7.303334136992252 -2.382901016301048 21.000000000000000
5.765605037260265 -7.124697930363860 -2.499295491811241 13.000000000000000
5.449867568330046 -6.671752731053360 -2.506679673062826 29.000000000000000
3.850988555174522 -4.583107412870087 -2.076032174608600 17.000000000000000
3.810400692006042 -4.492017253970103 -2.154207872141118 30.000000000000000
3.809812467252649 -4.448732847420295 -2.254391495869779 28.000000000000000
3.846979100486790 -4.449011090672172 -2.377685453438672 13.000000000000000
3.070899471169939 -3.482610452794838 -2.060922335279116 11.000000000000000
3.045092405159726 -3.419592532124117 -2.125112504852277 51.000000000000000
2.997716387645088 -3.119868240573777 -2.662051581149992 6.000000000000000
3.010010143313256 -3.096691410722438 -2.757846486646633 6.000000000000000
3.014775597409781 -3.064175128077234 -2.847155577367588 4.000000000000000
7.349469363078429 -9.735683227042045 -1.811075974072807 33.000000000000000
7.464360992187266 -9.800287378393802 -2.046417914114381 27.000000000000000
7.670591331182126 -9.982594771979306 -2.312970005954477 18.000000000000000
7.143344184212959 -9.212592063356357 -2.349562797640089 12.000000000000000
5.780916986965626 -7.321884407806651 -2.213764104083831 21.000000000000000
5.823015585904360 -7.307947167127692 -2.386028853301074 51.000000000000000
5.727599867189695 -7.123160738575084 -2.499951370285245 12.000000000000000
5.439724275633777 -6.702284513466212 -2.518897795789181 38.000000000000000
3.915595820022366 -4.734967852126412 -2.020696121031749 0.000000000000000
3.825518878917877 -4.582598523751834 -2.075474904004001 21.000000000000000
3.787498666327817 -4.494394581863312 -2.154732279213059 29.000000000000000
3.786894257064898 -4.451213844951396 -2.254733508049654 25.000000000000000
3.821476246685834 -4.448895199738129 -2.376391128952260 12.000000000000000
3.065438777833153 -3.499772907724301 -2.069574519971622 0.000000000000000
3.030089278907991 -3.425729594051572 -2.127174583875544 49.000000000000000
2.992239486367452 -3.136072052912059 -2.672081386329276 6.000000000000000
3.004429353162767 -3.112828219631940 -2.768068051352242 6.000000000000000
2.999809490970158 -3.070683428989438 -2.848710286570930 4.000000000000000
3.093673653787017 -3.128083403273508 -3.026528960051252 8.000000000000000
7.352888617601725 -9.800790447772464 -1.828135546395558 32.000000000000000
7.472123496515435 -9.871784747814104 -2.065899403564158 26.000000000000000
7.128576632487153 -9.251545366536837 -2.362913355514521 13.000000000000000
5.769283850447507 -7.353689362480379 -2.225372016789212 8.000000000000000
5.799166113112929 -7.324591467426131 -2.393066699411235 58.000000000000000
5.692065561069803 -7.124489687176567 -2.501593961017222 11.000000000000000
5.441477934528147 -6.747766502009161 -2.536728034773605 20.000000000000000
3.901876890743578 -4.749166262857445 -2.026711754842776 1.000000000000000
3.804913951447307 -4.587805184826435 -2.077502685476318 21.000000000000000
3.764619361349662 -4.496687049105661 -2.155214756481748 29.000000000000000
3.766406949797706 -4.456459287854834 -2.256476302602781 26.000000000000000
3.798421321065511 -4.451499054316514 -2.376553731160754 12.000000000000000
3.055091722183426 -3.511430026282759 -2.074967406868399 0.000000000000000
3.017469064697137 -3.434541737253393 -2.130901100159324 51.000000000000000
2.993695327684434 -3.159694253721626 -2.688415240992159 6.000000000000000
2.980119039520333 -3.109522067887977 -2.761017750686526 6.000000000000000
2.984832884455900 -3.077143278814805 -2.850239620368004 5.000000000000000
3.050603411138491 -3.106676497981609 -3.000887196286948 7.000000000000000
7.358330391868723 -9.869175270939007 -1.845821582815379 33.000000000000000
7.488988317884818 -9.956025394329799 -2.088069999316316 26.000000000000000
7.116005484622892 -9.293612752864815 -2.377049419470579 13.000000000000000
5.769455821576218 -7.400839633937358 -2.241619110291090 7.000000000000000
5.780050976072655 -7.347259984539409 -2.402058582463698 23.000000000000000
5.649381470390701 -7.116623235696423 -2.499987744600356 12.000000000000000
5.438179640896037 -6.787334750735908 -2.552329362522903 0.000000000000000
3.876092060444600 -4.748623510738342 -2.026430628524304 2.000000000000000
3.777108072279763 -4.584197792605153 -2.075535884679688 24.000000000000000
3.741763144879844 -4.498894794833538 -2.155655397469312 34.000000000000000
3.741126347879695 -4.455921119739788 -2.255291693741022 36.000000000000000
3.777784659219953 -4.456843768612717 -2.378182224040110 12.000000000000000
3.007201862882093 -3.446049839343039 -2.136300882516853 52.000000000000000
3.014540835956467 -3.419848880562627 -2.223142186740525 0.000000000000000
2.993000036954591 -3.145121748620076 -2.788504969539559 5.000000000000000
2.976774073802421 -3.090748033487533 -2.858396177409753 5.000000000000000
3.030734878830897 -3.108624361468023 -2.997878695598839 5.000000000000000
7.368119654711996 -9.944034479539631 -1.864737789495809 32.000000000000000
7.115094206032277 -9.351290584871812 -2.395174907302958 10.000000000000000
5.762227576065793 -7.438835718982883 -2.255090354644658 14.000000000000000
5.767996219779667 -7.379045363641874 -2.414020117961496 14.000000000000000
5.611577386049547 -7.114637353995264 -2.500426875857922 13.000000000000000
6.015418220203740 -7.556480436325692 -2.842353083532716 1.000000000000000
3.847957843780267 -4.745031969475607 -2.024842720100591 4.000000000000000
3.758930102155765 -4.592162679898213 -2.078805043398086 18.000000000000000
3.750001139041372 -4.538622865262965 -2.174067603387852 12.000000000000000
3.732606006344683 -4.475327436428177 -2.264199800846382 14.000000000000000
3.752379975881986 -4.456451022082820 -2.376752575338226 12.000000000000000
2.999257632169453 -3.460274613189060 -2.143382666999198 44.000000000000000
2.997065530505698 -3.423225871775294 -2.223335070713113 5.000000000000000
3.014874323364088 -3.190616811599128 -2.824694173863951 5.000000000000000
2.968645910833389 -3.104345230875680 -2.866544634857726 5.000000000000000
3.004031065924483 -3.103405014920073 -2.988005801254334 5.000000000000000
7.109150715529260 -9.402797891754572 -2.411719699862644 9.000000000000000
5.754804463429988 -7.476861341706348 -2.268564758736996 10.000000000000000
5.779540638452842 -7.441418426740198 -2.435985592454017 17.000000000000000
5.566704584726815 -7.103401852508190 -2.497594480327957 15.000000000000000
5.975943064924634 -7.555684216874932 -2.842828960673899 1.000000000000000
3.824649245824383 -4.747239028794414 -2.025723512700105 10.000000000000000
3.766927655954555 -4.632279681650651 -2.096622280185742 9.000000000000000
3.741341217575652 -4.558148813963756 -2.182793916848390 48.000000000000000
3.738256703502283 -4.511953288848368 -2.281810320331346 34.000000000000000
3.731769704125738 -4.461639414917735 -2.378302883701281 14.000000000000000
2.988880687544185 -3.471747677096579 -2.148757850992033 6.000000000000000
2.965457069268725 -3.410275031140702 -2.212942064831890 41.000000000000000
2.962737978937258 -3.120346017293619 -2.876908132096440 6.000000000000000
2.986527427975354 -3.107550268047641 -2.987192871829328 5.000000000000000
7.110001441261447 -9.463756422472036 -2.430689178274227 6.000000000000000
5.881086516001534 -7.759332036928059 -2.173974179241057 0.000000000000000
5.768445864824888 -7.542714468949919 -2.290483517617671 10.000000000000000
5.757612714645092 -7.461014499714629 -2.443942401777353 14.000000000000000
5.533797065813873 -7.107185014564341 -2.500023040522189 15.000000000000000
5.882022789712466 -7.485371961023164 -2.817125930169154 1.000000000000000
3.794249330706091 -4.740472150531089 -2.022769340897654 17.000000000000000
3.765202707285754 -4.660750609095293 -2.109160101288161 40.000000000000000
3.718364690425465 -4.560233829878680 -2.183164548499990 36.000000000000000
3.715273917896958 -4.514134734151015 -2.281995468208894 26.000000000000000
3.722989561566414 -4.480991105640978 -2.387400979231173 9.000000000000000
2.976101320986086 -3.480448145350993 -2.152417625542890 0.000000000000000
2.952758004095084 -3.418921133132607 -2.216578998066991 53.000000000000000
2.965859537137462 -3.146024910358227 -2.896173418387832 6.000000000000000
2.969033222555544 -3.111632979947525 -2.986348593427151 5.000000000000000
7.390940235476354 -9.988766220721059 -2.338650855386211 2.000000000000000
7.117556789393794 -9.534225458568184 -2.452108124643894 4.000000000000000
5.846885570494710 -7.763629315165792 -2.177518996986962 9.000000000000000
5.767599073601043 -7.590144151511844 -2.306810934053098 18.000000000000000
5.827472752433795 -7.600369139744288 -2.491137543224859 4.000000000000000
5.493842194943541 -7.101705659355338 -2.499174796795590 13.000000000000000
5.599842473126360 -7.172782817526579 -2.700187943230163 17.000000000000000
3.718457273680158 -4.719542513772290 -1.894464030936208 8.000000000000000
3.792268998967415 -4.769214368102231 -2.034960970278771 17.000000000000000
3.742071347455507 -4.662783376467397 -2.109728232425171 38.000000000000000
3.693052494551167 -4.559320862150830 -2.182099115174560 36.000000000000000
3.697030860595981 -4.521999291174821 -2.285053440603819 21.000000000000000
3.725887909823062 -4.514608961958074 -2.404090098985930 10.000000000000000
2.935355524598052 -3.422083156353560 -2.216666599922720 66.000000000000000
2.968812257014588 -3.171762831104060 -2.915458510393642 6.000000000000000
2.953806976941238 -3.118037046625119 -2.987757238941374 4.000000000000000
7.124725721724321 -9.604825703167254 -2.473570415811421 0.000000000000000
5.817383964336700 -7.774054069303139 -2.182757691322960 18.000000000000000
5.759469866214408 -7.628334599548880 -2.320326291169756 12.000000000000000
6.161511000021951 -8.088104546509118 -2.652623426222998 40.000000000000000
5.456322253874296 -7.099121944024569 -2.499326126327841 17.000000000000000
3.674987138410760 -4.738041539538941 -1.784087414371547 0.000000000000000
3.695498457761350 -4.721223668508756 -1.895331691445115 24.000000000000000
3.773671908161331 -4.777158838637404 -2.038272248739737 10.000000000000000
3.716613200723314 -4.661782542315608 -2.108920540079836 33.000000000000000
3.672484329359880 -4.564149967042911 -2.183780650374091 35.000000000000000
3.674076400973713 -4.524025037025686 -2.285160839891315 21.000000000000000
3.728587296615391 -4.548292211596553 -2.420800431561525 16.000000000000000
2.924945230002380 -3.433377140976101 -2.222026284567557 51.000000000000000
2.915231190458500 -3.387075468564897 -2.295587697393370 0.000000000000000
2.978375092552346 -3.204853931275070 -2.941458326622108 6.000000000000000
2.938570834456293 -3.124392096634515 -2.989140257226252 5.000000000000000
6.207365486374455 -8.644262539860042 -1.641695118022732 16.000000000000000
5.776224969732184 -7.768727455821700 -2.183546385173554 14.000000000000000
5.774466303310891 -7.697640323337008 -2.343307142579308 37.000000000000000
6.515770395482116 -8.608681046440841 -2.825056954117752 41.000000000000000
5.435234125615612 -7.117823057878061 -2.506955308034605 27.000000000000000
3.387789297140385 -4.396395092982217 -1.655855629148547 2.000000000000000
3.670223483196430 -4.719810450580191 -1.894949311719836 13.000000000000000
3.776127656755777 -4.811893860184771 -2.053007890437888 11.000000000000000
3.693540383638406 -4.663638726595404 -2.109402110132597 31.000000000000000
3.644902275417285 -4.560127555385804 -2.181226279245001 34.000000000000000
3.646471789868477 -4.520171180902746 -2.282300589543295 21.000000000000000
3.712408540012066 -4.559101204710319 -2.425328645205512 6.000000000000000
2.907535339741207 -3.436435102971487 -2.222060312237570 10.000000000000000
2.895546621477485 -3.387484786519181 -2.293665316464330 5.000000000000000
2.941232035641534 -3.149875449375709 -3.008816173503481 6.000000000000000
2.938279037337335 -3.109040175006374 -3.094961306533625 39.000000000000000
6.164770438893027 -8.639326411227533 -1.644762778037337 27.000000000000000
6.221677049874075 -8.644096976349678 -1.839343945686225 5.000000000000000
5.749059054578384 -7.782067086225711 -2.189555172278788 5.000000000000000
5.777454811912993 -7.751527017415370 -2.361598779340598 42.000000000000000
5.824939540858434 -7.746043610328069 -2.543479453866223 5.000000000000000
5.439676823598308 -7.170222610260384 -2.526445680025236 27.000000000000000
3.370798270038248 -4.403080369036386 -1.658778552584270 1.000000000000000
3.411937843574361 -4.416618062110281 -1.773386885320395 8.000000000000000
3.664170082773793 -4.700185011762375 -2.005258701442239 18.000000000000000
3.670492333179375 -4.665410255333685 -2.109841980220013 26.000000000000000
3.624374036181055 -4.564794871826691 -2.182827667041399 35.000000000000000
3.623587706750215 -4.522014518155465 -2.282319177740029 20.000000000000000
3.686894605792299 -4.558369198066191 -2.423719129746893 5.000000000000000
2.901670187850101 -3.453155675232986 -2.230930300020192 1.000000000000000
2.875894275253800 -3.387818511878742 -2.291706318037745 50.000000000000000
2.945952543079809 -3.177819678870438 -3.030803474741540 6.000000000000000
2.918515415314811 -3.110674667339460 -3.091568353529055 117.000000000000000
6.138257042931939 -8.656795189816664 -1.652058569319964 26.000000000000000
6.178823585322745 -8.639317814517820 -1.841935612667932 27.000000000000000
6.237990689935972 -8.647946123469429 -2.037948968409708 0.000000000000000
5.726473733191600 -7.801614250098978 -2.197291440778665 6.000000000000000
5.763961416579843 -7.783649162726001 -2.373254832455575 0.000000000000000
5.797326262926443 -7.759619272805826 -2.549426002511884 4.000000000000000
5.789132329993940 -7.680863748322628 -2.707460608304801 20.000000000000000
3.383129704633561 -4.408292363996240 -1.770202201772013 3.000000000000000
3.652801471091378 -4.716736553109978 -2.012226056224517 31.000000000000000
3.645149140609464 -4.664128383562325 -2.108897855364829 27.000000000000000
3.601531911042871 -4.566451209247938 -2.182987688306537 36.000000000000000
3.598412138041975 -4.520862643742839 -2.280827709670919 20.000000000000000
3.661426023080719 -4.557538666229794 -2.422062093202334 5.000000000000000
2.893418703272455 -3.467129802578480 -2.238021255400684 0.000000000000000
2.881470168720667 -3.417963617013246 -2.309908738358861 41.000000000000000
2.934954753027285 -3.188960726729463 -3.036747286334450 5.000000000000000
2.903194188333026 -3.116970659714463 -3.092839053573355 132.000000000000000
6.129894426119954 -8.700035941279184 -1.664257475595034 9.000000000000000
6.147463366154950 -8.650434774551297 -1.847878884834313 30.000000000000000
6.185718868923619 -8.630563328384852 -2.037057365265113 21.000000000000000
5.722197385591107 -7.846315169972044 -2.212102017041914 0.000000000000000
6.493479678213468 -8.748244825114499 -2.875892582918587 36.000000000000000
3.428735388671585 -4.579037140696027 -1.614722421531783 0.000000000000000
4.865281568937463 -6.381594251275837 -2.562823846275938 4.000000000000000
3.657529856775485 -4.754294229429027 -2.028148349311202 2.000000000000000
3.622161936740976 -4.665724343626684 -2.109251823115062 26.000000000000000
3.574098039477915 -4.562129403823387 -2.180289546590128 35.000000000000000
3.577896660868528 -4.525448860634341 -2.282232261170885 20.000000000000000
3.636003225920259 -4.556609840715116 -2.420357680301741 5.000000000000000
2.845808759407515 -3.399154584539235 -2.295034774308521 56.000000000000000
2.887863614756551 -3.123217481776874 -3.094084081612608 130.000000000000000
6.131993238215760 -8.683982827953590 -1.858592254983145 18.000000000000000
6.154113333603335 -8.641757996409616 -2.042871461608903 31.000000000000000
6.202455266754129 -8.634107730931820 -2.237907137165738 15.000000000000000
6.501623541838353 -8.816633450674091 -2.900015502832348 6.000000000000000
3.411324884650963 -4.585783993364248 -1.617729179302070 17.000000000000000
3.310554363737011 -4.410562404512377 -1.662759477688770 3.000000000000000
4.869072543978613 -6.429001356329820 -2.582072447043837 3.000000000000000
4.605151440159998 -6.026029560264869 -2.570527562973460 5.000000000000000
3.596900804171810 -4.664253859741726 -2.108216435006754 26.000000000000000
3.551328686618700 -4.563604699058841 -2.180361600819269 36.000000000000000
3.548200711991782 -4.518266831670292 -2.277704226902412 20.000000000000000
3.610626647094040 -4.555582954537493 -2.418606036464368 5.000000000000000
2.842104453111834 -3.418401699725798 -2.305869921941317 10.000000000000000
2.874709982021859 -3.131796725186718 -3.097659082496591 139.000000000000000
6.116364244781684 -8.717521605081259 -1.869291173171715 0.000000000000000
6.133830584152719 -8.668882069053792 -2.052428327067807 21.000000000000000
6.163742128128976 -8.635854568489247 -2.241123568621653 29.000000000000000
6.214068710536086 -8.631992767219247 -2.438400075338543 6.000000000000000
3.472887478476480 -4.740411998409634 -1.560111100907643 0.000000000000000
3.389327529184824 -4.586286769866976 -1.618522957653993 14.000000000000000
3.346196964519570 -4.487604830894399 -1.692179882983268 14.000000000000000
4.707728901525085 -6.257365415520721 -2.513332975630292 0.000000000000000
3.578555073347738 -4.671652761914252 -2.111186410319112 25.000000000000000
3.528586051726936 -4.564996433715345 -2.180392633386083 36.000000000000000
3.527738283357388 -4.522685562916934 -2.279026525321153 20.000000000000000
3.583013089636399 -4.551557313392392 -2.415267940084175 5.000000000000000
2.824731159833050 -3.421244816489460 -2.305640427367681 1.000000000000000
6.122461879945781 -8.708819944603727 -2.065006465143175 1.000000000000000
6.143178277926440 -8.662997108253292 -2.250905983822468 25.000000000000000
6.177372414194340 -8.637050464022002 -2.442180447528012 22.000000000000000
6.226333999437173 -8.629954838043131 -2.639306806869678 1.000000000000000
3.436929540669837 -4.722233295575397 -1.554980396863619 14.000000000000000
3.365081609778231 -4.583607306279638 -1.618182258385090 19.000000000000000
3.290215245881255 -4.441853213823478 -1.675290918800848 6.000000000000000
3.369091271607530 -4.507985644172097 -1.810810159988133 2.000000000000000
4.719079046915479 -6.258108835480203 -2.669225871343208 2.000000000000000
3.553357051285126 -4.670007719091078 -2.110065773788108 25.000000000000000
3.505870494056948 -4.566304760663436 -2.180382744300490 34.000000000000000
3.505006360181192 -4.524096349644396 -2.278833612667596 21.000000000000000
3.560013869241264 -4.553235939734327 -2.414961641086978 6.000000000000000
6.127001211431700 -8.696499929929702 -2.262326484804343 7.000000000000000
6.147470197506736 -8.651511942085442 -2.448594553354936 28.000000000000000
6.187120903466386 -8.631988804880677 -2.641863016566896 20.000000000000000
3.426030130830943 -4.738343970562135 -1.561127143853430 22.000000000000000
3.340884730778386 -4.580833913673306 -1.617796609896416 22.000000000000000
3.250448376327919 -4.417402982371485 -1.666421388533736 8.000000000000000
3.276743791191052 -4.413762164981493 -1.773084791505690 5.000000000000000
4.731805868937002 -6.317167847099891 -2.694253813259002 5.000000000000000
3.530475534482319 -4.671267847359077 -2.110254771029099 25.000000000000000
3.483182371986571 -4.567529833989775 -2.180332034139605 34.000000000000000
3.482301871257714 -4.525423790543355 -2.278599831786888 22.000000000000000
3.534778529427326 -4.551916284605368 -2.413069183808050 6.000000000000000
6.128765940362817 -8.681802680444878 -2.459470322258178 14.000000000000000
6.152452029608191 -8.640204156929499 -2.646286105081658 28.000000000000000
3.419564856078932 -4.760714630574192 -1.569329921114963 25.000000000000000
3.321249874530858 -4.584195360839408 -1.619566659507168 22.000000000000000
3.289905764768834 -4.500888675122392 -1.698265348258567 25.000000000000000
3.266384893154778 -4.429326120966055 -1.779453804935110 3.000000000000000
3.415807537907611 -4.590982530003292 -1.957917841273763 0.000000000000000
3.509879949496178 -4.675453056294752 -2.111761695482889 24.000000000000000
3.462779395943178 -4.571652025438153 -2.181662809266967 35.000000000000000
3.459625174459579 -4.526668040967361 -2.278325283871961 22.000000000000000
3.509591126360824 -4.550499515797497 -2.411130084109129 6.000000000000000
6.131230419747935 -8.667311294693661 -2.656475947723465 19.000000000000000
3.392789220116077 -4.754792033242238 -1.568195787674579 22.000000000000000
3.303869763820118 -4.590610017810028 -1.622405697751771 19.000000000000000
3.288378465655864 -4.528923964159648 -1.709186588255143 31.000000000000000
3.354890621798197 -4.579940430309268 -1.840075696972566 20.000000000000000
3.409166510157611 -4.613010780246821 -1.967183582522587 0.000000000000000
3.484794824571534 -4.673537529806270 -2.110509888186209 24.000000000000000
3.437889863744491 -4.569730842185182 -2.180108555724781 36.000000000000000
3.439221549455155 -4.530786690046186 -2.279497993652024 22.000000000000000
3.488936580754897 -4.554840424438626 -2.412245062876094 6.000000000000000
3.843686096646548 -4.973099212443830 -2.768354278923959 0.000000000000000
6.489106943716895 -9.234009271533692 -2.832147567877589 44.000000000000000
3.375017789645731 -4.761366836812783 -1.571170507893483 26.000000000000000
3.282006671745800 -4.590715737132197 -1.623004999210671 15.000000000000000
3.288932680534552 -4.560097620224013 -1.721287749604662 19.000000000000000
3.330500722907927 -4.577302505577893 -1.839122265413619 25.000000000000000
4.633544245111016 -6.312203411496796 -2.691608407715872 13.000000000000000
3.461996347104119 -4.674547395314876 -2.110576210799469 24.000000000000000
3.417522788586013 -4.573700350671086 -2.181363585413138 37.000000000000000
3.416591110852080 -4.531871542619066 -2.279144905978122 22.000000000000000
3.466057373782814 -4.556176972564103 -2.411771480949713 6.000000000000000
3.821367746834050 -4.978481026729607 -2.769742805740234 27.000000000000000
5.560978689983452 -8.308649549517067 -1.618098474401282 0.000000000000000
6.505865788068529 -9.319376649314430 -2.860302294487846 43.000000000000000
3.350564130752542 -4.758413436793653 -1.570988723783868 28.000000000000000
3.257948137442620 -4.587607594811474 -1.622456930017635 18.000000000000000
3.287083078689073 -4.588211261197277 -1.732229273629344 22.000000000000000
3.312844761539098 -4.583818264891464 -1.841839759694194 24.000000000000000
3.339834754891626 -4.580697606422055 -1.953133187608373 0.000000000000000
3.439226263574652 -4.675474153247824 -2.110601845505180 25.000000000000000
3.392711376309435 -4.571600715195228 -2.179723014028851 37.000000000000000
3.389541293754080 -4.526932792727831 -2.275764774325613 23.000000000000000
3.443206489260254 -4.557430049007471 -2.411257020875178 6.000000000000000
3.648244451038517 -4.785949095731430 -2.661090693406402 36.000000000000000
3.872057210951649 -4.986735407086250 -3.050866587517331 12.000000000000000
5.528871590229045 -8.314565013832119 -1.622665575378066 51.000000000000000
6.504448662562797 -9.379432510385717 -2.880690434462636 40.000000000000000
3.330586409791325 -4.761694021423544 -1.572852254107997 28.000000000000000
3.236155601228033 -4.587546584194778 -1.622975434959893 41.000000000000000
3.265127253173818 -4.588325348616653 -1.732593003513366 13.000000000000000
3.292959715439892 -4.587189686965414 -1.843287033613638 13.000000000000000
3.330887402520672 -4.599528089852455 -1.961018730758919 0.000000000000000
3.416484929574550 -4.676317962287061 -2.110586895055822 26.000000000000000
3.372381533480740 -4.575418062003344 -2.180902645817012 36.000000000000000
3.366989766352946 -4.527839404061592 -2.275325524908842 23.000000000000000
3.415962326519149 -4.552706341422408 -2.407585170367617 6.000000000000000
3.567046748406234 -4.712013607018384 -2.618473078333652 28.000000000000000
3.600382361751926 -4.712082288661449 -2.748240046660534 7.000000000000000
3.629519624552340 -4.707233592417998 -2.877734386874679 25.000000000000000
5.501124095678997 -8.326960690421728 -1.628466562171679 0.000000000000000
5.540449986835868 -8.317171344106150 -1.808980590318745 44.000000000000000
6.509300122273270 -9.449149963501386 -2.904044229249089 11.000000000000000
3.301806953361079 -4.752225338848419 -1.570490742266083 29.000000000000000
3.221007686418613 -4.596844784911209 -1.626795471922279 76.000000000000000
3.243201872428537 -4.588359010942453 -1.732917540271095 20.000000000000000
3.268669967946658 -4.584302173287544 -1.842212318011874 13.000000000000000
3.368196274775450 -4.682796195473461 -1.996369115731872 2.000000000000000
3.391566085555881 -4.674037968672971 -2.109159205633986 28.000000000000000
3.347649744656754 -4.573140729165143 -2.179176233889879 35.000000000000000
3.344467828815959 -4.528663648533720 -2.274846038848415 23.000000000000000
3.393190090047341 -4.553780093073670 -2.406983979325677 6.000000000000000
3.688531720406785 -4.906507608541563 -2.724990428400937 38.000000000000000
3.567928898005122 -4.702356324106064 -2.740764926059814 31.000000000000000
3.601305919914959 -4.703554500628439 -2.873365053522338 29.000000000000000
3.565684952534824 -4.568575369885895 -3.056585334803966 18.000000000000000
5.514605454807766 -8.332924721400737 -1.815441617147986 0.000000000000000
5.549669424535812 -8.317465496926985 -1.994831568278760 31.000000000000000
3.257773462596837 -4.720401889874096 -1.560722289349671 31.000000000000000
3.210216959216270 -4.612406678949794 -1.632824455579832 33.000000000000000
3.225698975079124 -4.594567780764891 -1.735565910627043 59.000000000000000
3.246628309754019 -4.584422937954955 -1.842339530123646 15.000000000000000
3.341265178972764 -4.677150769217425 -1.993806331064516 15.000000000000000
3.368893778232020 -4.674709975473125 -2.109060775843509 32.000000000000000
3.329553286680869 -4.579825446268969 -2.181718999518467 32.000000000000000
3.326361280165183 -4.535385102228435 -2.277328831833954 23.000000000000000
3.368257263556257 -4.551811344996028 -2.404778677148060 7.000000000000000
3.716832253550371 -4.978756947251672 -2.763537092054468 32.000000000000000
3.572688686775601 -4.741735871909786 -2.761908845061615 27.000000000000000
3.573161288164196 -4.699763869911492 -2.868943006725533 56.000000000000000
3.526879510100570 -4.551081455925415 -3.042190411983536 20.000000000000000
4.915206587361475 -7.538174318494395 -1.480227059457401 22.000000000000000
5.523558910846133 -8.333276021824190 -2.001305499543302 1.000000000000000
5.553113657377454 -8.307763165816016 -2.180821837968108 34.000000000000000
3.227069582607483 -4.707469346072117 -1.557180228747115 31.000000000000000
3.208088821372252 -4.640588040773454 -1.643315170628199 7.000000000000000
3.214741711428679 -4.610123766401291 -1.741737806692671 33.000000000000000
3.228989968332782 -4.590679350935332 -1.844925711594433 47.000000000000000
3.323151137900196 -4.683723536732560 -1.996446930456721 35.000000000000000
3.341879975682710 -4.669192034602974 -2.106167128252423 39.000000000000000
3.300523458726382 -4.571326814189166 -2.177028262625905 31.000000000000000
3.301696350268600 -4.533061763809721 -2.275270589646276 23.000000000000000
3.349913788344819 -4.558644892119738 -2.407226278979166 7.000000000000000
3.509662178411225 -4.734239725490224 -2.626318643085797 22.000000000000000
3.570687316980703 -4.772486933606988 -2.778009458749865 37.000000000000000
3.558087762311021 -4.713084017059849 -2.874973830111770 20.000000000000000
3.547182671445650 -4.654937510285464 -2.972397663626634 26.000000000000000
3.503339842591908 -4.553026212894241 -3.040816050340112 22.000000000000000
4.892010482008654 -7.552128246021795 -1.485931492215308 78.000000000000000
4.927024147830452 -7.543938048334280 -1.648948686160367 11.000000000000000
5.528926345707847 -8.326869991380709 -2.188157583534850 7.000000000000000
5.558326193019218 -8.302221943631229 -2.368532189075038 12.000000000000000
3.216023567929436 -4.723108847468158 -1.563077485440321 14.000000000000000
3.210151255017372 -4.675133368428566 -1.656055828562600 7.000000000000000
3.212411152469591 -4.638223908063629 -1.752643023024356 7.000000000000000
3.215692431893971 -4.603109421668282 -1.849986442006677 38.000000000000000
3.307201339599489 -4.693327509536707 -2.000374011923101 57.000000000000000
3.323639012666343 -4.675806842101549 -2.108743248676482 36.000000000000000
3.278108755417187 -4.571803403211606 -2.176612191006921 32.000000000000000
3.279254766476652 -4.533646227789291 -2.274673615662719 22.000000000000000
3.322882418118309 -4.553532112381076 -2.403368830802831 7.000000000000000
3.419050718478929 -4.644463558965495 -2.575054646781363 13.000000000000000
3.497176516679226 -4.707271998740342 -2.738271487829953 13.000000000000000
3.514862460302081 -4.645431518870099 -2.963950723046426 27.000000000000000
3.475537554654780 -4.549269589839329 -3.035652303072173 22.000000000000000
2.974646028235924 -4.622571689038789 -0.911315525159820 3.000000000000000
4.897147309390424 -7.548052219273663 -1.652501112026265 39.000000000000000
4.932431442833516 -7.541011092367099 -1.815801687008705 8.000000000000000
3.289031948984565 -4.986676997542887 -1.311784037383991 13.000000000000000
5.531725144616649 -8.318119831370801 -2.375020714724764 12.000000000000000
5.572921524247209 -8.309875740599308 -2.560487231052177 22.000000000000000
3.213549030868754 -4.751512358891927 -1.573193227006706 8.000000000000000
3.216341309635833 -4.716079552064553 -1.671061410759239 6.000000000000000
3.214252640229436 -4.672649991620260 -1.765933753171189 6.000000000000000
3.213168556506353 -4.631112902516242 -1.861299844631827 7.000000000000000
3.293384461727204 -4.705981547989652 -2.005595287498132 46.000000000000000
3.301057257221824 -4.676232030175663 -2.108524361847004 33.000000000000000
3.260051588466795 -4.578274385759540 -2.179048253075920 33.000000000000000
3.256844155186682 -4.534148953576025 -2.274036810522593 22.000000000000000
3.302399022789623 -4.557247384589393 -2.404174904188810 7.000000000000000
3.393765668817214 -4.642642520975361 -2.572591107733443 16.000000000000000
3.424179339771976 -4.641681059471630 -2.698372989640438 12.000000000000000
3.620043414387321 -4.863587843015159 -2.962482568932033 13.000000000000000
3.501919641472593 -4.661433276054103 -2.971789803731747 31.000000000000000
3.452075639653871 -4.551031910273339 -3.034189567212658 23.000000000000000
2.905161276396115 -4.544582060070569 -0.897683606519155 20.000000000000000
2.938697809818495 -4.559675104227462 -0.999837049951769 7.000000000000000
4.902340345512838 -7.545206797149719 -1.819151869691678 52.000000000000000
3.266790320517572 -4.986266196721698 -1.313029480706059 29.000000000000000
3.291890651466487 -4.983484493954461 -1.424056964205782 9.000000000000000
5.543877241651990 -8.322622225963020 -2.566000859976362 36.000000000000000
3.219520632100525 -4.792754070149049 -1.587557659598159 5.000000000000000
3.217985789493118 -4.750752092761819 -1.683841444952446 6.000000000000000
3.213741013392603 -4.703980418289930 -1.778049752729987 6.000000000000000
3.214796585735003 -4.665402519462798 -1.875133660232448 6.000000000000000
3.279514314725696 -4.718604073827611 -2.010797218509794 17.000000000000000
3.282814542564834 -4.682720578158891 -2.111035922482632 27.000000000000000
3.237678094462795 -4.578600460199185 -2.178557867604063 33.000000000000000
3.234464865188798 -4.534570108485370 -2.273360280969599 24.000000000000000
3.277629632401212 -4.554923221936046 -2.401798167014298 7.000000000000000
3.374964237032542 -4.649587269395090 -2.574989441343492 20.000000000000000
3.398784044913570 -4.639998374568069 -2.695660605500372 16.000000000000000
3.420713094839284 -4.628596597222035 -2.817317778132180 10.000000000000000
3.473990044865379 -4.657423741114506 -2.966879381417318 27.000000000000000
3.428642654327180 -4.552709609800353 -3.032685403690890 23.000000000000000
2.886939698779928 -4.546172051147368 -0.899721544131845 26.000000000000000
2.911793610347951 -4.548161617608840 -0.998873300697633 10.000000000000000
3.012215493059811 -4.667259642585672 -1.126707261031673 1.000000000000000
3.250970434023032 -4.995596083369296 -1.316824593077393 25.000000000000000
3.271651733815645 -4.986397864068560 -1.426027795603429 24.000000000000000
3.293917401951895 -4.978554263334413 -1.535904162424599 6.000000000000000
3.334401009261977 -4.997671643918464 -1.656161842636772 15.000000000000000
3.225857208615249 -4.795032644920229 -1.700024471522204 6.000000000000000
3.219481329747289 -4.744831817774229 -1.793760014173001 6.000000000000000
3.216224757228536 -4.699748650374231 -1.888984101123098 6.000000000000000
3.282744458908138 -4.756046881906459 -2.026569237557837 4.000000000000000
3.258130257826668 -4.679915637211597 -2.109354605469810 25.000000000000000
3.217478374749047 -4.581895724410339 -2.179478946595375 33.000000000000000
3.212117244338751 -4.534909861010657 -2.272644134291578 25.000000000000000
3.252912627560514 -4.552504437800055 -2.399376331730426 7.000000000000000
3.356150671279588 -4.656473607270228 -2.577357215534035 20.000000000000000
3.375569523629680 -4.641147428937212 -2.694602184741191 18.000000000000000
3.399496497579142 -4.632820994675342 -2.817870329564957 14.000000000000000
3.431295963485885 -4.633271443822547 -2.949165939519850 10.000000000000000
3.407352699755805 -4.557129853432720 -3.033021443778317 23.000000000000000
2.885569121081248 -4.574391745563351 -0.907020951017272 18.000000000000000
2.899758051466474 -4.559766881725633 -1.002968208505863 11.000000000000000
2.908706145224065 -4.537255478139136 -1.096695621780330 25.000000000000000
3.167279163458620 -4.899930710663666 -1.292902831389860 4.000000000000000
3.259917714415696 -5.002278044109051 -1.431695101850694 0.000000000000000
3.277800999418708 -4.987997617311799 -1.539739061627500 27.000000000000000
3.322318833580987 -5.013676137879026 -1.662182045533980 27.000000000000000
3.376275756794403 -5.053143297334731 -1.792038177797411 11.000000000000000
3.218580907491495 -4.776267970104061 -1.805906204565800 6.000000000000000
3.221719901546256 -4.740429221257461 -1.905374418383210 5.000000000000000
4.363222994350501 -6.365470243742116 -2.712097652667526 16.000000000000000
3.237764527033116 -4.683186814387928 -2.110408995675738 21.000000000000000
3.193026387744529 -4.579008758601129 -2.177458444108927 32.000000000000000
3.189801639553218 -4.535168380819750 -2.271888478318505 26.000000000000000
3.232501712646100 -4.555986006525571 -2.400067537817051 7.000000000000000
3.341571160269815 -4.669234478563184 -2.582976493321191 19.000000000000000
3.360861587153955 -4.653950338004413 -2.700313249121593 17.000000000000000
3.374060492902754 -4.631170271327667 -2.814859447326572 17.000000000000000
3.401474816856017 -4.626130513765158 -2.942310238554943 13.000000000000000
3.381864906628085 -4.555811792862193 -3.029553211504165 23.000000000000000
2.907086511699311 -4.639412285804402 -0.921632060978297 18.000000000000000
2.929676494385623 -4.637837464148359 -1.021694325317651 16.000000000000000
2.898661189773691 -4.552161781453608 -1.101658033317453 25.000000000000000
2.985071956288222 -4.649401596273617 -1.228010672734544 6.000000000000000
3.303055674757575 -5.103025673896006 -1.461662129566882 14.000000000000000
3.255303076669231 -4.987667680891990 -1.540544379111925 37.000000000000000
3.286851393951995 -4.994239921873839 -1.656439409346874 26.000000000000000
3.336254734609739 -5.027700985695132 -1.783505296945958 8.000000000000000
3.223868498540610 -4.817260590125196 -1.821660866062659 2.000000000000000
3.220603146185956 -4.771752819115100 -1.917997499488517 5.000000000000000
4.333056665736073 -6.365619045487422 -2.711901565184104 14.000000000000000
3.215287177361333 -4.683297603398940 -2.110036000899872 24.000000000000000
3.172869769641366 -4.582154260149001 -2.178305708823785 33.000000000000000
3.167518396805155 -4.535345838751618 -2.271093421420460 28.000000000000000
3.209985450368698 -4.556394698650058 -2.399142504841032 7.000000000000000
3.331162096660882 -4.687907058169099 -2.591862361264237 16.000000000000000
3.343990726646604 -4.663778671467100 -2.704298527099052 17.000000000000000
3.361296691638562 -4.646870777135293 -2.822399782345814 18.000000000000000
3.380139949052003 -4.630364868689223 -2.942704726545184 15.000000000000000
3.356428322569873 -4.554397203015732 -3.026038835278436 24.000000000000000
2.886543330514258 -4.637626985883775 -0.922975373921877 37.000000000000000
2.911067738460718 -4.639516403251641 -1.023599612178584 30.000000000000000
2.930440138359250 -4.633289974876240 -1.122657830420452 14.000000000000000
2.936729266839831 -4.605262113249371 -1.217537712580735 16.000000000000000
2.994406314701573 -4.657820668478077 -1.335160455815624 2.000000000000000
3.209669629470680 -4.951517510187945 -1.530265080290248 30.000000000000000
3.276845216830596 -5.013362134287481 -1.663472733598877 42.000000000000000
3.283770940834150 -4.982864225655267 -1.768074805209931 25.000000000000000
3.241583936186594 -4.877396427691395 -1.844651097579222 0.000000000000000
3.221419068278880 -4.806269889712768 -1.931897754481237 5.000000000000000
4.305045214569399 -6.368783967058103 -2.712983686175928 14.000000000000000
3.192842062040172 -4.683327066593345 -2.109623462654230 25.000000000000000
3.150614286423902 -4.582162156357865 -2.177660118343411 34.000000000000000
3.147375949497873 -4.538482247568185 -2.271780693867875 26.000000000000000
3.187501450136174 -4.556721817916616 -2.398177803980029 7.000000000000000
3.318554579325832 -4.703591643524948 -2.599091601886671 14.000000000000000
3.333380160089666 -4.682400779423725 -2.713380852216048 16.000000000000000
3.346364238565136 -4.659635066846324 -2.828155481346176 18.000000000000000
3.365076635133796 -4.643168475470518 -2.948550448622746 17.000000000000000
3.333125268143741 -4.555731890542707 -3.024367518730797 23.000000000000000
2.874329593314437 -4.649184311877502 -0.926957724596422 74.000000000000000
2.892472392766140 -4.641131763154225 -1.025473263486996 53.000000000000000
2.909626846480622 -4.631695803012777 -1.123619865698830 26.000000000000000
2.894958394334058 -4.570783442884564 -1.209582826154163 54.000000000000000
2.960642876340474 -4.636901856108747 -1.330163499570511 4.000000000000000
2.994558785957372 -4.651493101247787 -1.438362126340148 6.000000000000000
3.241566762530799 -4.993689741564990 -1.657621093327477 40.000000000000000
3.284109873885072 -5.017985871699365 -1.781004246956233 28.000000000000000
3.084530982261153 -4.673448387044063 -1.767747943884052 28.000000000000000
3.282985456031152 -4.932415213483543 -1.982622167051510 0.000000000000000
4.283360677079536 -6.381245842875543 -2.718018911419178 14.000000000000000
3.172530540205481 -4.686378937831628 -2.110569217654709 24.000000000000000
3.128391808298613 -4.582089368375132 -2.176975359069024 34.000000000000000
3.120952961941637 -4.532412282178602 -2.267861440587645 28.000000000000000
3.167144730938226 -4.559983398267659 -2.398760025682761 7.000000000000000
3.318417632320769 -4.737164323244043 -2.616196206725794 9.000000000000000
3.320585520082908 -4.698060218636490 -2.720742175561838 11.000000000000000
3.331377312415922 -4.672364690949810 -2.833890152614591 16.000000000000000
3.345804919085704 -4.650164046098650 -2.950711742578957 16.000000000000000
3.313995442755707 -4.562686163096043 -3.026438365882630 24.000000000000000
2.855877125258135 -4.650633181061165 -0.928909500780484 131.000000000000000
2.878028791586542 -4.649368563017229 -1.028794556763411 87.000000000000000
2.892995686245533 -4.636673366779200 -1.126159868386892 43.000000000000000
2.909544133272176 -4.625311676022560 -1.225171349726573 22.000000000000000
2.935367017049307 -4.628965833658657 -1.328870116316817 7.000000000000000
2.964901597443744 -4.637257264311177 -1.434763946462538 10.000000000000000
3.006043995637883 -4.662997115409797 -1.548469372628770 6.000000000000000
3.250819994118465 -5.001727242632550 -1.775688586477654 22.000000000000000
3.025035610139510 -4.615365247752431 -1.745997476294575 13.000000000000000
3.195262011421482 -4.834333405195058 -1.943210026163382 8.000000000000000
2.983980407630292 -4.476808439169742 -1.906649187936033 3.000000000000000
3.150140254219496 -4.686252359806284 -2.110080377368584 24.000000000000000
3.108291583856006 -4.585017399235818 -2.177715059054956 35.000000000000000
3.098779566015015 -4.532341485360296 -2.266946373721668 28.000000000000000
3.142631621046573 -4.557132026669804 -2.396129834941868 7.000000000000000
3.297273888865280 -4.740877352660264 -2.616804698260886 0.000000000000000
3.322250137515670 -4.734410353449059 -2.740075296215684 5.000000000000000
3.324621681192725 -4.696764797224541 -2.846698283361896 15.000000000000000
3.334786007079955 -4.668670441600144 -2.960178135638606 16.000000000000000
3.288672289091564 -4.561007889359421 -3.022796322639416 22.000000000000000
2.843598045354348 -4.662117534641200 -0.932850604141941 111.000000000000000
2.861498879159329 -4.654217177356593 -1.031351846155679 137.000000000000000
2.876357525942602 -4.641598953545046 -1.128672909838312 79.000000000000000
2.898995293491123 -4.640249436607970 -1.230274544309414 32.000000000000000
2.916381814125223 -4.630795938509509 -1.330364645547795 10.000000000000000
2.943661230430885 -4.635964385208102 -1.435154618687547 15.000000000000000
2.967946365915242 -4.635953352733703 -1.540093140146934 10.000000000000000
3.007729933613767 -4.660056605673437 -1.654804241704467 6.000000000000000
3.001315867840622 -4.611311663090113 -1.744675272736213 12.000000000000000
2.962598455454457 -4.513903365006466 -1.814415278573835 5.000000000000000
2.966658054327020 -4.482307114790668 -1.908789909181618 5.000000000000000
3.125703572747090 -4.682929223595759 -2.108149677349520 23.000000000000000
3.084047238188012 -4.581702437542359 -2.175488774147849 36.000000000000000
3.080791937704229 -4.538306667415555 -2.269050380460545 28.000000000000000
3.122319735898005 -4.560243513611155 -2.396638179490011 8.000000000000000
3.321847461781592 -4.727043292262946 -2.863056959567358 9.000000000000000
3.323669818114094 -4.687165790059582 -2.969632939717056 19.000000000000000
3.263401928280558 -4.559233987959654 -3.019108692566110 21.000000000000000
2.829228179184991 -4.670202050329830 -0.936098669585976 65.000000000000000
2.847010486188818 -4.662368376462600 -1.034626702580401 105.000000000000000
2.859712569160757 -4.646472568214699 -1.131159005008701 117.000000000000000
2.878090233789060 -4.638592109733382 -1.230965412059672 63.000000000000000
2.901532047480235 -4.639151077650419 -1.333721506229887 13.000000000000000
2.924519645608098 -4.637867385918327 -1.436521824786314 23.000000000000000
2.944517448960241 -4.631487302517702 -1.539201857907526 16.000000000000000
2.973723536839812 -4.639683307640054 -1.647971823561062 11.000000000000000
2.979721356471265 -4.610369229058699 -1.744521771012831 12.000000000000000
2.943244961404323 -4.516118064212699 -1.815304582503943 5.000000000000000
2.945188663798296 -4.481453105002151 -1.908220585336137 22.000000000000000
3.105459767844344 -4.685756868392176 -2.108985111520632 24.000000000000000
3.061925829226494 -4.581388646434504 -2.174687169833091 36.000000000000000
3.058664926070813 -4.538087466069675 -2.268062393393432 28.000000000000000
3.097894986295303 -4.557218022029740 -2.393924508745788 8.000000000000000
3.310411612736278 -4.702745007119812 -2.977237033269347 17.000000000000000
3.244302251308162 -4.565974348143977 -3.021072186202766 23.000000000000000
2.820928270821134 -4.688380319283748 -0.941359481088336 38.000000000000000
2.836570251845110 -4.677199729621412 -1.039372837617355 57.000000000000000
2.849188306029203 -4.661318557305468 -1.136061311772438 87.000000000000000
2.863360666325570 -4.646823440909425 -1.234266423246732 98.000000000000000
2.882553861405079 -4.640863746482729 -1.335156516173643 13.000000000000000
2.901285527861729 -4.633147389653621 -1.435824345651633 35.000000000000000
2.923200618304636 -4.630187994108255 -1.539350929567121 22.000000000000000
2.950166399931379 -4.635322500865058 -1.646814964010838 16.000000000000000
2.960220420653512 -4.612556133970020 -1.745544319724218 12.000000000000000
2.923905514752546 -4.518266857167755 -1.816161101945271 6.000000000000000
2.927872706514659 -4.486831617128445 -1.910300357007522 6.000000000000000
3.085228443117492 -4.688516068858394 -2.109786369715059 23.000000000000000
3.043952240369058 -4.587193785132913 -2.176788445391552 36.000000000000000
3.036572311926950 -4.537788222673044 -2.267035650493491 29.000000000000000
3.073525722556276 -4.554099758908603 -2.391166873870062 8.000000000000000
3.284873737259675 -4.700836021369361 -2.973776257632361 13.000000000000000
3.239390730140916 -4.592786828927116 -3.036313692870143 15.000000000000000
2.812538868400145 -4.706553554678922 -0.946612249380721 21.000000000000000
2.819979026878021 -4.681916677010542 -1.041859163946188 35.000000000000000
2.832498844906346 -4.666105738474037 -1.138500562575125 55.000000000000000
2.850639636688486 -4.658341528633998 -1.238429596038625 80.000000000000000
2.865629703786805 -4.645818505243280 -1.337511426909634 42.000000000000000
2.886278828768813 -4.641478150829825 -1.439159163529276 50.000000000000000
2.906009354556173 -4.635335460680181 -1.541632510747252 33.000000000000000
2.926665929393288 -4.630871977191836 -1.645615771858029 23.000000000000000
2.936637689787675 -4.608249700938019 -1.744101422716915 13.000000000000000
2.906628750687901 -4.523537671758183 -1.818266272540702 6.000000000000000
