# This PCD file was generated using the MATLAB® pcwrite function
# from Computer Vision Toolbox®.
# .PCD v.7 - Point Cloud Data file format
VERSION .7
FIELDS x y z intensity
SIZE 8 8 8 8
TYPE F F F F
COUNT 1 1 1 1
WIDTH 637
HEIGHT 1
VIEWPOINT 0 0 0 1 0 0 0
POINTS 637
DATA ascii
7.270993882158300 -8.327904677320602 -1.434069611657057 46.000000000000000
7.293460815714608 -8.273448919179819 -1.622768101534492 45.000000000000000
6.791148492479833 -7.630250749634405 -1.680321293917474 14.000000000000000
6.810774670445466 -7.577547969892207 -1.854953140217009 13.000000000000000
5.354176648418913 -5.899291811629628 -1.590762250861280 65.000000000000000
5.351074532348083 -5.837866174445787 -1.720504541847377 76.000000000000000
5.354132623725076 -5.783440614251143 -1.852105425993133 79.000000000000000
5.357846002809387 -5.730567819165333 -1.983568168762079 86.000000000000000
5.357785763572642 -5.672755898409184 -2.113061340501532 49.000000000000000
5.358520539493986 -5.616259143999489 -2.242830991239242 89.000000000000000
5.362916890981480 -5.563878768537670 -2.373485089365690 84.000000000000000
5.365581874481592 -5.509782031480295 -2.503712665984549 89.000000000000000
5.401009730641900 -5.489384430380358 -2.649620437913559 87.000000000000000
5.392138666712019 -5.423902721893510 -2.774998353582444 69.000000000000000
5.355285935294898 -5.330640503849938 -2.884601943067209 2.000000000000000
5.414224977798649 -5.333277182665762 -3.047239141032088 27.000000000000000
7.276843268147157 -8.384375840609536 -1.449210065595918 45.000000000000000
7.301897106957406 -8.332756862586564 -1.639347952212576 44.000000000000000
7.358371308750102 -8.317479015602016 -1.836151003480750 38.000000000000000
6.844596512781742 -7.661415641683205 -1.879187309074838 11.000000000000000
5.332772486911891 -5.911585233102842 -1.596589375699333 0.000000000000000
5.355971246633441 -5.879086064578613 -1.734796544414758 77.000000000000000
5.356394476654950 -5.821610342354266 -1.866085537228727 78.000000000000000
5.354814696638278 -5.762892180987313 -1.996118552336507 84.000000000000000
5.352104966156803 -5.702133006614856 -2.124962965821543 50.000000000000000
5.358107492522543 -5.651103456474189 -2.257294358917166 87.000000000000000
5.362469720587558 -5.598566673576806 -2.388412380075251 83.000000000000000
5.365100011850965 -5.544302856205349 -2.519099779982911 84.000000000000000
5.371293669686345 -5.494086127547905 -2.651151813282871 69.000000000000000
5.394132900722806 -5.460810162145307 -2.792688063918038 84.000000000000000
5.412785597016001 -5.422744476904648 -2.932782027177659 63.000000000000000
7.272041090196725 -8.428942442379416 -1.462303554514367 45.000000000000000
7.299630265954909 -8.380253370180007 -1.653616470630863 43.000000000000000
7.366352491761226 -8.376837397308229 -1.853728725078579 37.000000000000000
7.042515244318898 -7.930873412807683 -1.949072072437579 56.000000000000000
6.808665573174761 -7.593807715891647 -2.054111361813002 6.000000000000000
5.347535552092509 -5.905906905782116 -1.744839000980254 14.000000000000000
5.355828424730384 -5.856976199979526 -1.879166750909416 77.000000000000000
5.354248872360447 -5.798103031331468 -2.009665706253582 82.000000000000000
5.359439972229545 -5.745644001234558 -2.142128426389399 53.000000000000000
5.360144710618956 -5.688797339440650 -2.272891003105212 86.000000000000000
5.361838506255401 -5.633308748035526 -2.403356066450257 83.000000000000000
5.364433828590084 -5.578877907831631 -2.534503302066598 80.000000000000000
5.367939398162580 -5.525788434387596 -2.665706809842787 82.000000000000000
5.380130348974711 -5.481695744647594 -2.802175082173438 90.000000000000000
5.359239612268792 -5.403872058088086 -2.920928201463342 68.000000000000000
6.200848400561173 -7.230366589003418 -1.258944836710905 5.000000000000000
7.304896108394570 -8.436784025635548 -1.669677858253711 44.000000000000000
7.376619262752629 -8.439287285416139 -1.872008110719714 37.000000000000000
6.999322111509476 -7.930204952770437 -1.952658543214806 49.000000000000000
7.736557369111841 -8.681506880260383 -2.351938426581984 31.000000000000000
6.812874934026970 -7.570553960138341 -2.239337372961189 12.000000000000000
5.357696780346463 -5.895274890280254 -1.893188627130513 61.000000000000000
5.356120123209412 -5.836222269103288 -2.024219071981600 81.000000000000000
5.353420213612038 -5.775105699340249 -2.154052501202750 37.000000000000000
5.359354468010181 -5.723756683760752 -2.287390021689219 87.000000000000000
5.363648271943016 -5.670880061125095 -2.419500061421066 83.000000000000000
5.366208316256179 -5.616254171560045 -2.551170983485312 79.000000000000000
5.367043557179305 -5.560248068946395 -2.681582530357399 80.000000000000000
5.366037059789518 -5.502558874390710 -2.811645089058981 85.000000000000000
5.402833640728316 -5.483137587745765 -2.962109863672163 88.000000000000000
6.158242666625412 -7.223737057839307 -1.262317780177985 25.000000000000000
7.315031041177439 -8.499415827071097 -1.686965164176143 42.000000000000000
7.381381436799382 -8.495915887305701 -1.889011731117644 37.000000000000000
6.922473404033219 -7.890930074967780 -1.946679357886579 37.000000000000000
7.776486031849215 -8.779781515331290 -2.382168243323934 33.000000000000000
7.082742451181828 -7.918922861472633 -2.345169521436121 17.000000000000000
5.831404324843339 -6.456263049520940 -2.075217346590231 21.000000000000000
5.357788883547482 -5.874408865510366 -2.038794437933418 79.000000000000000
5.360321626320213 -5.818775170479034 -2.171272340776375 83.000000000000000
5.360994901661504 -5.761579238384760 -2.303028081499013 85.000000000000000
5.360022530736710 -5.702952635821908 -2.433291125937621 83.000000000000000
5.367778836646895 -5.653698345589510 -2.567860856418066 77.000000000000000
5.368577432927887 -5.597487044759402 -2.698788456031350 78.000000000000000
5.367532326029513 -5.539581076963527 -2.829362864811755 83.000000000000000
5.375430574306091 -5.490712246598287 -2.964544006398094 84.000000000000000
5.365489701166545 -5.424439650498045 -3.090760221172190 23.000000000000000
6.133666605176471 -7.238103852228980 -1.269318951600001 32.000000000000000
6.180732903480513 -7.224809628586829 -1.438096869655297 18.000000000000000
7.388427755780522 -8.555633611688464 -1.906715710366541 41.000000000000000
6.851098284945249 -7.857220191106597 -1.941998753472056 0.000000000000000
7.813264049780106 -8.875422641643173 -2.411721754394877 14.000000000000000
7.085778403365067 -7.971184203604820 -2.363417612400771 16.000000000000000
5.797384848178490 -6.458407387954620 -2.077758150825949 20.000000000000000
5.424294230202307 -5.984417659629558 -2.078311184425433 45.000000000000000
5.359169742982198 -5.854007823261494 -2.185341179563807 83.000000000000000
5.362431609329144 -5.799468754051333 -2.318687863005693 83.000000000000000
5.366656384631382 -5.746225414220465 -2.451854142942043 80.000000000000000
5.369144964042143 -5.691209656003464 -2.584572499759640 79.000000000000000
5.364695702147380 -5.629325190348291 -2.713380534438842 78.000000000000000
5.366219078332688 -5.573965997620211 -2.845721676607179 80.000000000000000
5.374043385705374 -5.524930299198329 -2.981358562393423 85.000000000000000
5.348497009960563 -5.442575302088333 -3.098975607445310 25.000000000000000
6.116711610606170 -7.261491680190167 -1.277880139608037 25.000000000000000
6.150780884174758 -7.233255840669277 -1.443856107198412 30.000000000000000
6.203304571727788 -7.226938860022329 -1.614300809601571 4.000000000000000
7.547344438488620 -8.708596804384229 -2.156411283935338 14.000000000000000
7.862400095785524 -8.986100948106074 -2.445403542207083 13.000000000000000
7.083368538331743 -8.017685805992334 -2.379958921191939 14.000000000000000
5.763403068613978 -6.460420061508167 -2.080234048743988 19.000000000000000
5.728599185451359 -6.359607417965676 -2.210010149705639 22.000000000000000
5.365616816340727 -5.897847476393980 -2.202620104646904 46.000000000000000
5.363664170017838 -5.837424457462205 -2.334368945708648 82.000000000000000
5.365256954984592 -5.781199649449280 -2.466869356126698 79.000000000000000
5.367709416335084 -5.726017120397012 -2.600047607007991 78.000000000000000
5.368434903344363 -5.669424283874362 -2.731944175485594 78.000000000000000
5.367313825790660 -5.611114353254941 -2.863479353893235 79.000000000000000
5.367286540236031 -5.553836255389430 -2.995295318215394 63.000000000000000
5.295199434289861 -5.423560927971961 -3.086050195909368 23.000000000000000
6.114928893462424 -7.303082830681770 -1.289639405453924 6.000000000000000
6.125930002521703 -7.247637259336737 -1.450770747319599 30.000000000000000
6.162865107924218 -7.223517098177520 -1.617194606059287 24.000000000000000
7.563516786927275 -8.780649423231415 -2.178227150729488 20.000000000000000
7.903183794978481 -9.088272320514889 -2.476814109082951 12.000000000000000
7.083296072753082 -8.067183033271704 -2.397389132663675 10.000000000000000
5.729459572486499 -6.462301294229913 -2.082645190577891 25.000000000000000
5.715398710268448 -6.384617050551006 -2.220087092993231 27.000000000000000
5.658766970639851 -6.259172740589085 -2.338514266679167 13.000000000000000
5.364692166244243 -5.875445573485843 -2.350070908386223 81.000000000000000
5.366259059535371 -5.819030204602623 -2.483096289690932 78.000000000000000
5.363500414728988 -5.758097588908633 -2.614276086760263 77.000000000000000
5.366776769431169 -5.704106060680707 -2.747886670807144 76.000000000000000
5.368202939509431 -5.648328392487706 -2.881257984086040 78.000000000000000
5.375873679559644 -5.598898101064628 -3.017930787031526 30.000000000000000
6.967381392528017 -8.371345276507853 -1.483320192185095 45.000000000000000
6.113754307161969 -7.277078486780383 -1.460682364135534 20.000000000000000
6.135246624862823 -7.234967339580327 -1.623383025448794 30.000000000000000
6.181025373077036 -7.219645986051268 -1.794218819841017 15.000000000000000
7.361909615667313 -8.517976090439038 -2.324733561820374 10.000000000000000
7.088098520381926 -8.122637841033331 -2.416592201587385 7.000000000000000
5.718686711295719 -6.490304228174305 -2.093459654206999 23.000000000000000
5.699512397036115 -6.406721101808932 -2.229144041929043 31.000000000000000
5.673974122800049 -6.315488947629073 -2.360500160171660 15.000000000000000
5.605185170652253 -6.177680418944771 -2.471469976367591 22.000000000000000
5.367055845298354 -5.856925516884470 -2.499343722483234 76.000000000000000
5.372012783824256 -5.804138638699619 -2.634833830279040 76.000000000000000
5.367508749634757 -5.741594243902850 -2.765170765246876 75.000000000000000
5.368886003639111 -5.685607334395076 -2.899057143107215 78.000000000000000
5.371334671073313 -5.630586318148826 -3.033342309268936 22.000000000000000
7.280346301151671 -8.800199998635492 -1.564551603279053 43.000000000000000
6.101444933514563 -7.306516039231013 -1.470583928835547 0.000000000000000
6.117768618725778 -7.258384075562612 -1.632235197314770 26.000000000000000
6.145530836074322 -7.222225744227247 -1.798057296717989 28.000000000000000
6.204175392770723 -7.222713382105713 -1.974030165850891 3.000000000000000
7.097718526348362 -8.184093093858227 -2.437586501397090 3.000000000000000
5.794845747625491 -6.617734955831667 -2.136363923958277 12.000000000000000
5.683532428900610 -6.428796904957470 -2.238180842658696 27.000000000000000
5.691424810268900 -6.374828395798177 -2.383617115474051 8.000000000000000
5.602345357862937 -6.213668802603533 -2.486368939393984 21.000000000000000
5.370215153191460 -5.897705325294350 -2.516814872895400 28.000000000000000
5.372557152454130 -5.841910718652295 -2.651628329707875 74.000000000000000
5.368034476795674 -5.779146550441308 -2.782474978226279 75.000000000000000
5.369362605875710 -5.722950396235291 -2.916876406167036 77.000000000000000
5.371753173952195 -5.667716993521193 -3.051672970599176 20.000000000000000
7.291244772182253 -8.866681240433243 -1.581599649934879 42.000000000000000
7.230058532624579 -8.710679599370978 -1.757910842996516 48.000000000000000
6.105256248519059 -7.287810743430788 -1.642426469542477 7.000000000000000
6.125295407903485 -7.242672486647008 -1.806318747365181 31.000000000000000
6.165894064953370 -7.222483360054261 -1.976735817835080 24.000000000000000
7.122287694651527 -8.263413106532798 -2.463915141679477 0.000000000000000
5.786036707709650 -6.648919195930220 -2.148217107982128 31.000000000000000
5.682783223233606 -6.468286713700806 -2.253273580170929 20.000000000000000
5.695750813577816 -6.419923005061672 -2.401406937340604 5.000000000000000
5.558389664498386 -6.204022322860429 -2.482997252323693 51.000000000000000
5.472936158903198 -6.048850664976401 -2.581377816861461 1.000000000000000
5.370336530918986 -5.876946158818970 -2.667171796307841 56.000000000000000
5.370911119010827 -5.819533402877720 -2.801132757381613 71.000000000000000
5.372188088224791 -5.763098514922986 -2.936112166118340 78.000000000000000
5.371964635741811 -5.704910957714096 -3.070023276278695 20.000000000000000
7.289255582685915 -8.917963464049700 -1.595952600849063 41.000000000000000
7.349053579803082 -8.907961558353467 -1.802491707631519 39.000000000000000
6.970187344371008 -8.371205027130575 -1.890648242829425 23.000000000000000
6.112565535709780 -7.272093657976551 -1.816804998141028 19.000000000000000
6.135266107640290 -7.231060174926403 -1.981823033228171 31.000000000000000
6.176972567192802 -7.211201251617368 -2.152506077301457 15.000000000000000
5.777075908348293 -6.680117085801454 -2.160067977903763 19.000000000000000
5.679281050021548 -6.504920799513362 -2.267367669109843 18.000000000000000
5.605596322463536 -6.358220540865086 -2.379230426693590 8.000000000000000
5.524745777560121 -6.205636049162309 -2.484119425202589 84.000000000000000
5.482627654686538 -6.038354762169146 -2.740051416717502 12.000000000000000
5.373561379240046 -5.859997530212026 -2.819816137525417 71.000000000000000
5.372240878956247 -5.800574827322691 -2.953973529180945 77.000000000000000
5.374512197099385 -5.744886253080876 -3.089855107022384 18.000000000000000
7.294503344705001 -8.978537746050090 -1.611980426941129 41.000000000000000
7.354132507161951 -8.968489042952083 -1.819488761589985 37.000000000000000
7.464119744841160 -9.019378547204704 -2.041367937657457 27.000000000000000
6.094663711024048 -7.295480307829430 -1.825771433558854 0.000000000000000
6.122300981378134 -7.260480073557553 -1.992605278245051 24.000000000000000
6.148668291879149 -7.222855624806480 -2.158290726394685 27.000000000000000
5.864180312559735 -6.823281742808667 -2.208146625575563 8.000000000000000
5.670519458312802 -6.535754902901572 -2.279434342571411 19.000000000000000
5.718883407755176 -6.527751875176641 -2.443580165378330 4.000000000000000
5.501298848830947 -6.218598165615935 -2.489773449623361 53.000000000000000
5.370908308000455 -5.894966263871940 -2.835844264917134 22.000000000000000
5.372085967185688 -5.838112874140379 -2.971853702651419 74.000000000000000
7.296948180941535 -9.036139052126565 -1.627489562266755 40.000000000000000
7.361391653943621 -9.032188367816948 -1.837145123696374 36.000000000000000
7.481023731451071 -9.095316030693905 -2.062873295010709 32.000000000000000
6.984902918380127 -8.412729208279522 -2.108936814834758 0.000000000000000
6.106686088190685 -7.286894208707106 -2.002551824899713 5.000000000000000
6.125379814359704 -7.240371693409998 -2.165807902631696 27.000000000000000
5.761220828357264 -6.745504965683742 -2.184718133956512 14.000000000000000
5.835848532239439 -6.768697032017405 -2.362022099286444 10.000000000000000
5.702187216095192 -6.549924669674613 -2.452778786231741 10.000000000000000
5.462643415455656 -6.214226656959346 -2.488476234870415 24.000000000000000
6.372222092798961 -7.178729855018194 -3.063723105751444 9.000000000000000
5.355424091693332 -5.916015265207930 -2.845167864983960 42.000000000000000
5.376776316168053 -5.881239345995857 -2.992564819850111 40.000000000000000
7.299096980625440 -9.093834007390292 -1.643028397032868 39.000000000000000
7.373288753366997 -9.102149387881378 -1.856095223894079 37.000000000000000
7.502500539601685 -9.177531894614244 -2.085830764135640 30.000000000000000
7.550716505664833 -9.150427547606530 -2.297697096460756 21.000000000000000
7.002594160247265 -8.407875222392725 -2.313690833180908 16.000000000000000
6.112068027795319 -7.269761103569608 -2.176863321531385 15.000000000000000
5.857331693342304 -6.901091660533452 -2.236867302073020 40.000000000000000
5.818571005808570 -6.791247488252878 -2.371221837716333 8.000000000000000
5.692950359637430 -6.580798458970742 -2.465226935824044 12.000000000000000
5.451782479004707 -6.241422462882362 -2.499809881059908 31.000000000000000
6.252005952272646 -7.088454013834400 -3.025230117941834 11.000000000000000
5.435562642703523 -6.043455645118470 -2.905637042497142 85.000000000000000
5.486930720020497 -6.040838238278246 -3.072501367396071 11.000000000000000
7.303419028819722 -9.154717427195521 -1.659157411964453 38.000000000000000
7.377379712108499 -9.163028526348784 -1.873211362523826 35.000000000000000
7.516072855519996 -9.250781459651645 -2.106776498891336 31.000000000000000
7.556694856314371 -9.214381599216356 -2.317570838739343 21.000000000000000
7.098019661115659 -8.575496303925402 -2.362917694668476 17.000000000000000
6.983419704782619 -8.358117793277913 -2.505332748467758 32.000000000000000
6.115183780055201 -7.250195427123343 -2.351845574154388 24.000000000000000
5.713490984812148 -6.710749622674729 -2.344410430842109 8.000000000000000
5.701118376154152 -6.632108905350281 -2.485325879769277 14.000000000000000
5.450828934199584 -6.280184338929803 -2.515768788890080 38.000000000000000
6.252957981664177 -7.135049074539189 -3.045141570347714 8.000000000000000
7.309885354884406 -9.218809127551619 -1.675884950770026 38.000000000000000
7.388555935441164 -9.233264722874978 -1.892257843468901 34.000000000000000
7.529248290011323 -9.324191972980520 -2.127780119835516 28.000000000000000
7.554891179901337 -9.269325153530406 -2.335184459090430 22.000000000000000
7.093023190908748 -8.622886195762062 -2.379056886282195 15.000000000000000
7.078459819799754 -8.524950593174060 -2.557930406289759 17.000000000000000
5.959389162250942 -7.109981475166734 -2.308125697537271 4.000000000000000
5.633956946933764 -6.659222286360088 -2.327675162247064 16.000000000000000
5.669022166589014 -6.636732197521377 -2.487920700726910 24.000000000000000
5.442166851553595 -6.310307787834296 -2.528260188874758 23.000000000000000
5.334417976328686 -5.949869309163109 -3.023735447703765 48.000000000000000
7.313564997788748 -9.279908988001630 -1.692085162610277 38.000000000000000
7.394439715561107 -9.297465100620041 -1.910085860814893 33.000000000000000
7.546955334593960 -9.403904217596232 -2.150245252039762 25.000000000000000
7.560215173994757 -9.333494436255796 -2.355128049869369 21.000000000000000
7.092735840644818 -8.676385137980530 -2.396881146878794 11.000000000000000
7.031117953788242 -8.521081584802554 -2.559325877072989 18.000000000000000
7.076252301504518 -8.495735203474615 -2.760063897429586 12.000000000000000
5.679139257517066 -6.755186561373280 -2.362483399893072 11.000000000000000
5.631971051834609 -6.635373384568584 -2.488257647161121 33.000000000000000
5.448294475132486 -6.357879644175243 -2.547735807030026 1.000000000000000
5.964667184233504 -6.827636032334919 -3.095566441104086 33.000000000000000
3.955737634367781 -4.484430093122876 -2.154242908295240 0.000000000000000
3.947778008611877 -4.432055210614504 -2.251452732078838 0.000000000000000
7.319368604552078 -9.344228558729808 -1.708888490486036 37.000000000000000
7.404882331393365 -9.367977921955848 -1.929228683170086 33.000000000000000
7.564225253826390 -9.483802289174291 -2.172778509012729 25.000000000000000
7.555352463228691 -9.385551277702463 -2.372019470831084 19.000000000000000
7.097099233745301 -8.736034497090115 -2.416408022669879 8.000000000000000
6.986333132872967 -8.520036730817385 -2.561536152788785 19.000000000000000
7.018856125499007 -8.480070486951886 -2.757021440952665 19.000000000000000
5.656868400270385 -6.771427049192289 -2.369411661043594 13.000000000000000
5.592503123962477 -6.630929101280289 -2.487421167045119 36.000000000000000
6.143673781125480 -7.215347012291350 -2.891799433454817 31.000000000000000
6.209619378832213 -7.223352116932623 -3.082848579615361 15.000000000000000
5.881611275103756 -6.776206959635235 -3.071794922966601 41.000000000000000
3.932677561251314 -4.487340957363614 -2.155030007122273 23.000000000000000
3.924731289737880 -4.435048779315617 -2.252048540427914 20.000000000000000
7.322403168781891 -9.405539882760612 -1.725157195044104 36.000000000000000
7.414947354943795 -9.438633877249659 -1.948421477670348 33.000000000000000
7.576165977835276 -9.557714228803334 -2.193962578719505 26.000000000000000
7.373724951987866 -9.217046339358253 -2.333079748005662 9.000000000000000
7.106054710613121 -8.801875319494604 -2.437654879150208 4.000000000000000
6.934234267368793 -8.509758456517959 -2.560935402732651 19.000000000000000
6.973946791097021 -8.479140982164802 -2.758737820004092 25.000000000000000
5.639476321353319 -6.793550030383430 -2.378386176711539 29.000000000000000
5.555586727094092 -6.629271052965255 -2.487613600230730 31.000000000000000
6.121830435773664 -7.235893093537705 -2.900480521315147 28.000000000000000
6.157828914354760 -7.209371568266771 -3.076869943985802 28.000000000000000
3.950810595118397 -4.581281941480329 -2.076479572296933 9.000000000000000
3.909637911954556 -4.490166071590596 -2.155774581663001 25.000000000000000
3.904172930740657 -4.440763642906250 -2.254026618013620 26.000000000000000
3.927217396903841 -4.423484427037509 -2.368994099024408 0.000000000000000
7.327541311367664 -9.470082230941122 -1.742033544284811 37.000000000000000
7.419774886447379 -9.503208048833383 -1.966375705462511 30.000000000000000
7.592577741332593 -9.637964936405982 -2.216623361428292 24.000000000000000
7.349493062374581 -9.244149309027934 -2.343556118062092 14.000000000000000
7.117096752089369 -8.870898863340184 -2.459793320136624 0.000000000000000
5.904334332011787 -7.291569764172698 -2.196438587811968 1.000000000000000
6.936469796477924 -8.487046626209109 -2.763302793235324 29.000000000000000
5.865249307935606 -7.110547458022211 -2.490636344987915 19.000000000000000
5.523652452462772 -6.633374285106063 -2.489952846560677 29.000000000000000
6.122053263187730 -7.282730901246099 -2.919691501293866 12.000000000000000
6.133267720255271 -7.227068426859869 -3.084401566780807 30.000000000000000
3.927646952467850 -4.584036949862599 -2.077414416784580 13.000000000000000
3.884159173914988 -4.490061956054443 -2.155111863102373 26.000000000000000
3.883615658905203 -4.446407126455751 -2.255968324181396 26.000000000000000
3.913915661242428 -4.437624101826376 -2.375317353022729 13.000000000000000
7.329928169277406 -9.531600018363463 -1.758368028362432 35.000000000000000
7.433941247405329 -9.580369315188859 -1.986953777699282 26.000000000000000
7.610975449840166 -9.721495356479808 -2.240063556212585 23.000000000000000
7.327583209665102 -9.274278207334632 -2.354780677343859 14.000000000000000
5.861271229868523 -7.284138968303297 -2.196277546295303 8.000000000000000
6.901448298081605 -8.497830463448322 -2.768781826615492 32.000000000000000
5.841801907482790 -7.127328203376779 -2.497768435039640 20.000000000000000
5.494192397731320 -6.640320944684315 -2.493345473114018 21.000000000000000
6.116000369429115 -7.253419408706658 -3.095617282956746 20.000000000000000
3.904504073218277 -4.586706130522786 -2.078306718087243 16.000000000000000
3.863621375703020 -4.495559576747068 -2.157136517962742 31.000000000000000
3.853267480430215 -4.440694162836221 -2.252150322782942 34.000000000000000
3.890773593916404 -4.440570499461437 -2.375649485971284 13.000000000000000
7.336801294275412 -9.599504313283616 -1.775896311040679 33.000000000000000
7.440458189018583 -9.648320383416968 -2.005641971142144 26.000000000000000
7.628912488910068 -9.805218561510781 -2.263573987647956 21.000000000000000
7.286165997445632 -9.279688388555941 -2.359701775429928 17.000000000000000
5.828033217598211 -7.288695174280634 -2.199703496153518 33.000000000000000
5.894893321900729 -7.304634655840694 -2.381680345491658 5.000000000000000
5.801235109754057 -7.123094296394078 -2.497518537675942 18.000000000000000
5.462298231874810 -6.644197291571325 -2.495571352763453 19.000000000000000
3.878941208901971 -4.586403270441521 -2.077848921063661 17.000000000000000
3.838205178060546 -4.495270465323244 -2.156383188281192 28.000000000000000
3.832753022768977 -4.446166758818880 -2.254007413303979 26.000000000000000
3.867652754271221 -4.443431058550680 -2.375939098606153 13.000000000000000
7.340921756627656 -9.664381427802669 -1.792881307006581 34.000000000000000
7.449014120452226 -9.719527329540627 -2.025023734087138 27.000000000000000
7.651201344738608 -9.895358196793673 -2.288593484963713 19.000000000000000
7.182050273789899 -9.204560044240948 -2.344075992095282 14.000000000000000
5.802081728133958 -7.302274406753182 -2.205831387148962 73.000000000000000
5.856508621179950 -7.303334136992252 -2.382901016301048 21.000000000000000
5.765605037260265 -7.124697930363860 -2.499295491811241 13.000000000000000
5.447437845829678 -6.668778253687754 -2.505562116365072 30.000000000000000
3.853419734817940 -4.586000788762051 -2.077342800981459 17.000000000000000
3.815260896970336 -4.497746867814453 -2.156955586263746 29.000000000000000
3.812240646008069 -4.451568241204503 -2.255828329200480 29.000000000000000
3.842127928859442 -4.443400736207263 -2.374687111126644 14.000000000000000
7.351853232479362 -9.738841087316793 -1.811663413571371 32.000000000000000
7.459579210641983 -9.794009167389067 -2.045106948121995 27.000000000000000
7.670591331182126 -9.982594771979306 -2.312970005954477 18.000000000000000
7.143344184212959 -9.212592063356357 -2.349562797640089 12.000000000000000
5.783328717039454 -7.324939011230852 -2.214687660239061 21.000000000000000
5.823015585904360 -7.307947167127692 -2.386028853301074 51.000000000000000
5.727599867189695 -7.123160738575084 -2.499951370285245 12.000000000000000
5.442144081806212 -6.705265956755119 -2.520018301926097 38.000000000000000
3.920438857523940 -4.740824336791999 -2.023195435961906 0.000000000000000
3.830361307878533 -4.588399281376836 -2.078102087426791 21.000000000000000
3.789918793271157 -4.497266399487506 -2.156109104950575 29.000000000000000
3.784476061498445 -4.448371435088719 -2.253293703766097 25.000000000000000
3.821476246685834 -4.448895199738129 -2.376391128952260 12.000000000000000
7.350514420437500 -9.797625839943027 -1.827545254000856 32.000000000000000
7.474504670351163 -9.874930632054962 -2.066557752641138 26.000000000000000
7.128576632487153 -9.251545366536837 -2.362913355514521 13.000000000000000
5.769283850447507 -7.353689362480379 -2.225372016789212 8.000000000000000
5.799166113112929 -7.324591467426131 -2.393066699411235 58.000000000000000
5.694473372220848 -7.127503430699060 -2.502652164892441 11.000000000000000
5.439068068303822 -6.744778120033072 -2.535604594545627 20.000000000000000
3.897053804352054 -4.743295847204964 -2.024206548718125 1.000000000000000
3.802502725876047 -4.584897830463428 -2.076186143850541 20.000000000000000
3.767029488981768 -4.499565850033385 -2.156594535455168 29.000000000000000
3.759182384037225 -4.447911092289895 -2.252148023249963 26.000000000000000
3.800826907715965 -4.454318243077958 -2.378058831687138 12.000000000000000
7.360694893922665 -9.872346599753575 -1.846414713144047 33.000000000000000
7.484245450045754 -9.949720121755810 -2.086747599063425 26.000000000000000
7.120771730761285 -9.299837543724067 -2.378641549021463 12.000000000000000
5.767063841550690 -7.397771292463919 -2.240689749134254 8.000000000000000
5.780050976072655 -7.347259984539409 -2.402058582463698 23.000000000000000
5.651779340284755 -7.119643873742135 -2.501048859941867 12.000000000000000
5.438179640896037 -6.787334750735908 -2.552329362522903 0.000000000000000
3.876092060444600 -4.748623510738342 -2.026430628524304 2.000000000000000
3.779509285294562 -4.587112095079791 -2.076855360766579 23.000000000000000
3.744163249526978 -4.501780551597384 -2.157038114209189 34.000000000000000
3.738728189964388 -4.453064760047647 -2.253845993937341 37.000000000000000
3.775389107755642 -4.454017615303514 -2.376674182046426 12.000000000000000
7.370474438877773 -9.947212502703435 -1.865333742768259 32.000000000000000
7.107974365265733 -9.341933055934314 -2.392778134547151 10.000000000000000
5.762227576065793 -7.438835718982883 -2.255090354644658 15.000000000000000
5.772767101681884 -7.385148792395920 -2.416016826082225 14.000000000000000
5.611577386049547 -7.114637353995264 -2.500426875857922 13.000000000000000
6.015418220203740 -7.556480436325692 -2.842353083532716 0.000000000000000
3.845566322435468 -4.742082912937712 -2.023584272170137 4.000000000000000
3.763712455975301 -4.598005126055844 -2.081449833529636 18.000000000000000
3.745221022866685 -4.532837495135161 -2.171296325372061 12.000000000000000
3.730217902693791 -4.472464143122721 -2.262751176533620 14.000000000000000
3.752379975881986 -4.456451022082820 -2.376752575338226 11.000000000000000
7.106787301062663 -9.399671961604387 -2.410917931345402 9.000000000000000
5.754804463429988 -7.476861341706348 -2.268564758736996 10.000000000000000
5.781916117547973 -7.444476962879427 -2.436986819577919 16.000000000000000
5.566704584726815 -7.103401852508190 -2.497594480327957 15.000000000000000
5.971183253642335 -7.549666149000080 -2.840564660426448 1.000000000000000
3.822267770577917 -4.744283089174989 -2.024462165556456 10.000000000000000
3.769308773309773 -4.635207797757888 -2.097947578719361 9.000000000000000
3.741341217575652 -4.558148813963756 -2.182793916848390 47.000000000000000
3.738256703502283 -4.511953288848368 -2.281810320331346 34.000000000000000
3.724643472991189 -4.453119416035015 -2.373761248659204 14.000000000000000
7.110001441261447 -9.463756422472036 -2.430689178274227 6.000000000000000
5.888160798097765 -7.768665636010168 -2.176589224364442 0.000000000000000
5.770808045768715 -7.545803213613699 -2.291421471556089 10.000000000000000
5.757612714645092 -7.461014499714629 -2.443942401777353 14.000000000000000
5.536164972132151 -7.110226172037413 -2.501092797920787 15.000000000000000
5.874913173125385 -7.476324372029180 -2.813720862566210 1.000000000000000
3.794249330706091 -4.740472150531089 -2.022769340897654 17.000000000000000
3.765202707285754 -4.660750609095293 -2.109160101288161 40.000000000000000
3.715994795785295 -4.557327371096093 -2.181773111566594 36.000000000000000
3.717641842637492 -4.517011811738110 -2.283449894893539 26.000000000000000
3.722989561566414 -4.480991105640978 -2.387400979231173 9.000000000000000
7.386263905052137 -9.982446216785139 -2.337171164873472 2.000000000000000
7.122244018099356 -9.540504171415447 -2.453722947248203 4.000000000000000
5.846885570494710 -7.763629315165792 -2.177518996986962 9.000000000000000
5.767599073601043 -7.590144151511844 -2.306810934053098 18.000000000000000
5.818050807805770 -7.588080749865962 -2.487109834990057 5.000000000000000
5.491484322756871 -7.098657717012268 -2.498102189586665 13.000000000000000
5.595122841880571 -7.166737488561111 -2.697912184323100 17.000000000000000
3.718457273680158 -4.719542513772290 -1.894464030936208 8.000000000000000
3.792268998967415 -4.769214368102231 -2.034960970278771 17.000000000000000
3.739710419160581 -4.659841557302433 -2.108397173603451 39.000000000000000
3.693052494551167 -4.559320862150830 -2.182099115174560 36.000000000000000
3.694673060302233 -4.519115363055448 -2.283596136113637 21.000000000000000
3.725887909823062 -4.514608961958074 -2.404090098985930 10.000000000000000
7.120058361277729 -9.598533645713493 -2.471949996279282 0.000000000000000
5.817383964336700 -7.774054069303139 -2.182757691322960 17.000000000000000
5.761812066241335 -7.631436809634098 -2.321269896818869 12.000000000000000
6.163856455294133 -8.091183383413004 -2.653633180096702 40.000000000000000
5.458670068957719 -7.102176643656248 -2.500401567862406 17.000000000000000
3.684386082498767 -4.750159292836995 -1.788650297784262 0.000000000000000
3.690796805779466 -4.715217022620068 -1.892920327969994 24.000000000000000
3.771320710710763 -4.774182415684982 -2.037002297182890 10.000000000000000
3.718963999711754 -4.664731171374632 -2.110254455664959 33.000000000000000
3.672484329359880 -4.564149967042911 -2.183780650374091 35.000000000000000
3.671728748321335 -4.521134286203305 -2.283700673220458 21.000000000000000
3.726242273158400 -4.545431650457185 -2.419277915566833 16.000000000000000
6.207365486374455 -8.644262539860042 -1.641695118022732 16.000000000000000
5.780881338107625 -7.774990033375769 -2.185306599913718 15.000000000000000
5.772134127905677 -7.694531421752461 -2.342360734201852 37.000000000000000
6.515770395482116 -8.608681046440841 -2.825056954117752 40.000000000000000
5.437571860723405 -7.120884487150267 -2.508033568382147 27.000000000000000
3.390128930632886 -4.399431277438697 -1.656999175853760 2.000000000000000
3.670223483196430 -4.719810450580191 -1.894949311719836 13.000000000000000
3.773786598072109 -4.808910664983168 -2.051735101913128 11.000000000000000
3.693540383638406 -4.663638726595404 -2.109402110132597 30.000000000000000
3.647241750561968 -4.563054466525332 -2.182626296112295 34.000000000000000
3.648809271785059 -4.523068726531529 -2.283763602741719 20.000000000000000
3.712408540012066 -4.559101204710319 -2.425328645205512 6.000000000000000
6.167066442780881 -8.642544037451453 -1.645375352628786 28.000000000000000
6.221677049874075 -8.644096976349678 -1.839343945686225 5.000000000000000
5.749059054578384 -7.782067086225711 -2.189555172278788 5.000000000000000
5.779776940052829 -7.754642582936838 -2.362547974991458 42.000000000000000
5.827264866024445 -7.749135843306244 -2.544494814925651 5.000000000000000
5.437349191239044 -7.167154479062155 -2.525364616405199 27.000000000000000
3.370798270038248 -4.403080369036386 -1.658778552584270 1.000000000000000
3.407276726301717 -4.410584430877890 -1.770964225640995 8.000000000000000
3.664170082773793 -4.700185011762375 -2.005258701442239 18.000000000000000
3.668161861856721 -4.662448090092203 -2.108502398010350 26.000000000000000
3.622044746954717 -4.561861199029886 -2.181424821497027 35.000000000000000
3.621260418563478 -4.519110205683945 -2.280853333695238 20.000000000000000
3.684569955977802 -4.555495068685317 -2.422190933574291 5.000000000000000
6.138257042931939 -8.656795189816664 -1.652058569319964 26.000000000000000
6.176530886404259 -8.636112130727646 -1.841252148618705 26.000000000000000
6.233393791859381 -8.641573281816173 -2.036447163716701 0.000000000000000
5.733398127064867 -7.811047882807682 -2.199948383270537 6.000000000000000
5.759337299919932 -7.777404759065572 -2.371350897571937 0.000000000000000
5.795011036783102 -7.756520383319881 -2.548407861137080 4.000000000000000
5.789132329993940 -7.680863748322628 -2.707460608304801 20.000000000000000
3.383129704633561 -4.408292363996240 -1.770202201772013 3.000000000000000
3.655122183588894 -4.719733209115765 -2.013504471762144 30.000000000000000
3.645149140609464 -4.664128383562325 -2.108897855364829 28.000000000000000
3.596893750178681 -4.560570396357728 -2.180176371257849 35.000000000000000
3.600729209605428 -4.523773695026639 -2.282296368852935 20.000000000000000
3.661426023080719 -4.557538666229794 -2.422062093202334 5.000000000000000
6.127618193507209 -8.696805330086731 -1.663639481731093 9.000000000000000
6.149746122696412 -8.653646967189450 -1.848565063402763 30.000000000000000
6.188007333174053 -8.633756285591062 -2.037810993591146 22.000000000000000
6.495784782820573 -8.751350343334277 -2.876913489053808 36.000000000000000
3.428735388671585 -4.579037140696027 -1.614722421531783 0.000000000000000
4.865281568937463 -6.381594251275837 -2.562823846275938 4.000000000000000
3.648287835659186 -4.742280851717267 -2.023023527203025 1.000000000000000
3.624471988996550 -4.668699933131547 -2.110597009226743 25.000000000000000
3.578715737203339 -4.568023627859334 -2.183106458149029 36.000000000000000
3.575589828720966 -4.522531098635223 -2.280760802588570 20.000000000000000
3.633699041366444 -4.553722255264725 -2.418823866816124 5.000000000000000
6.129720446059268 -8.680764153814247 -1.857903377201462 18.000000000000000
6.156391790964906 -8.644957462531945 -2.043627800543227 31.000000000000000
6.200171593975500 -8.630928751649444 -2.237083165465751 16.000000000000000
6.501623541838353 -8.816633450674091 -2.900015502832348 6.000000000000000
3.411324884650963 -4.585783993364248 -1.617729179302070 17.000000000000000
3.312853359822939 -4.413625295071067 -1.663914171770499 3.000000000000000
4.873672518040001 -6.435075046793997 -2.584511816384455 3.000000000000000
4.602851164715363 -6.023019555489513 -2.569243583171775 5.000000000000000
3.596900804171810 -4.664253859741726 -2.108216435006754 26.000000000000000
3.551328686618700 -4.563604699058841 -2.180361600819269 35.000000000000000
3.550497282031906 -4.521191276221535 -2.279178469120472 20.000000000000000
3.608332729275048 -4.552688683283022 -2.417069437965980 5.000000000000000
6.109575827195910 -8.707846220391934 -1.867216488184842 0.000000000000000
6.133830584152719 -8.668882069053792 -2.052428327067807 21.000000000000000
6.166015732750198 -8.639040055235279 -2.241950246441138 28.000000000000000
6.214068710536086 -8.631992767219247 -2.438400075338543 6.000000000000000
3.461463506507807 -4.724818537888550 -1.554979156496762 0.000000000000000
3.389327529184824 -4.586286769866976 -1.618522957653993 15.000000000000000
3.343908184106082 -4.484535333746045 -1.691022441202842 14.000000000000000
3.573975988161112 -4.665674959275846 -2.108484956179228 26.000000000000000
3.528586051726936 -4.564996433715345 -2.180392633386083 35.000000000000000
3.527738283357388 -4.522685562916934 -2.279026525321153 21.000000000000000
3.585296718119278 -4.554458242209087 -2.416807307796147 5.000000000000000
6.129237012974124 -8.718457148526195 -2.067291606934185 1.000000000000000
6.143178277926440 -8.662997108253292 -2.250905983822468 25.000000000000000
6.175104656333035 -8.633879740650480 -2.441283905513501 23.000000000000000
6.230877110710020 -8.636251776998289 -2.641232605342403 1.000000000000000
3.434654934752782 -4.719108058450597 -1.553951290049018 14.000000000000000
3.367358390299056 -4.586708529084969 -1.619277104297393 19.000000000000000
3.290215245881255 -4.441853213823478 -1.675290918800848 6.000000000000000
3.371370765025397 -4.511035702118086 -1.812035336009776 2.000000000000000
4.723638543579167 -6.264155317446852 -2.671804833537742 2.000000000000000
3.553357051285126 -4.670007719091078 -2.110065773788108 25.000000000000000
3.505870494056948 -4.566304760663436 -2.180382744300490 34.000000000000000
3.507282338337153 -4.527034074546763 -2.280313374753744 21.000000000000000
3.560013869241264 -4.553235939734327 -2.414961641086978 5.000000000000000
6.124747809000131 -8.693301511419246 -2.261494441227732 7.000000000000000
6.145212588179705 -8.648334743428782 -2.447695326563400 28.000000000000000
6.184859528867166 -8.628833838212227 -2.640897423359087 21.000000000000000
3.423765735503229 -4.735212216450727 -1.560095334769589 21.000000000000000
3.343151274015006 -4.583941670738213 -1.618894165262696 21.000000000000000
3.250448376327919 -4.417402982371485 -1.666421388533736 8.000000000000000
3.272205364887463 -4.407648920985674 -1.770628995395572 5.000000000000000
4.731805868937002 -6.317167847099891 -2.694253813259002 5.000000000000000
3.532744477627872 -4.674269947518048 -2.111610975894799 24.000000000000000
3.485450068843332 -4.570503486225444 -2.181751521140998 35.000000000000000
3.484567519840184 -4.528368113113650 -2.280082330050900 22.000000000000000
3.534778529427326 -4.551916284605368 -2.413069183808050 6.000000000000000
6.128765940362817 -8.681802680444878 -2.459470322258178 14.000000000000000
6.154703201225318 -8.643365592771772 -2.647254376616631 29.000000000000000
3.417310693352447 -4.757576387574473 -1.568295425451735 25.000000000000000
3.318993590648704 -4.581081097686664 -1.618466410417829 22.000000000000000
3.289905764768834 -4.500888675122392 -1.698265348258567 24.000000000000000
3.266384893154778 -4.429326120966055 -1.779453804935110 3.000000000000000
3.415807537907611 -4.590982530003292 -1.957917841273763 0.000000000000000
3.507621339490067 -4.672444399244370 -2.110402775472926 24.000000000000000
3.460522043012315 -4.568671808993929 -2.180240604045801 35.000000000000000
3.461880471183477 -4.529618932780246 -2.279810502440326 21.000000000000000
3.514096378127654 -4.556340978590562 -2.414225244679230 6.000000000000000
6.133471366538779 -8.670479171628855 -2.657446881914884 19.000000000000000
3.395033128330439 -4.757936736967927 -1.569232954200818 23.000000000000000
3.303869763820118 -4.590610017810028 -1.622405697751771 19.000000000000000
3.286130770190617 -4.525828322352293 -1.708018313075201 30.000000000000000
3.354890621798197 -4.579940430309268 -1.840075696972566 20.000000000000000
3.373185860973890 -4.564324650639994 -1.946421750517071 0.000000000000000
3.487043079297064 -4.676552715309371 -2.111871507468910 23.000000000000000
3.437889863744491 -4.569730842185182 -2.180108555724781 36.000000000000000
3.436976626772742 -4.527829257480882 -2.278010070679666 22.000000000000000
3.486694333595028 -4.551913149101582 -2.410694776845967 6.000000000000000
3.848163308174383 -4.978891989627806 -2.771578919901156 0.000000000000000
6.489106943716895 -9.234009271533692 -2.832147567877589 44.000000000000000
3.375017789645731 -4.761366836812783 -1.571170507893483 26.000000000000000
3.282006671745800 -4.590715737132197 -1.623004999210671 16.000000000000000
3.286695311364122 -4.556995512999372 -1.720116805557312 20.000000000000000
3.328262483174790 -4.574226361420918 -1.837886296149228 25.000000000000000
4.631305817939467 -6.309154037868055 -2.690308113799101 13.000000000000000
3.459758469698105 -4.671525709862184 -2.109211908142198 24.000000000000000
3.417522788586013 -4.573700350671086 -2.181363585413138 36.000000000000000
3.414356584291680 -4.528907597856072 -2.277654294528824 23.000000000000000
3.466057373782814 -4.556176972564103 -2.411771480949713 6.000000000000000
3.823595949601883 -4.981383931118370 -2.771357816122590 27.000000000000000
5.560978689983452 -8.308649549517067 -1.618098474401282 0.000000000000000
6.505865788068529 -9.319376649314430 -2.860302294487846 43.000000000000000
3.352787464615020 -4.761570977229482 -1.572031184781734 27.000000000000000
3.260173511853441 -4.590741206556564 -1.623565165625570 18.000000000000000
3.287083078689073 -4.588211261197277 -1.732229273629344 22.000000000000000
3.312844761539098 -4.583818264891464 -1.841839759694194 25.000000000000000
3.346518880485138 -4.589865113306155 -1.957042059898449 0.000000000000000
3.439226263574652 -4.675474153247824 -2.110601845505180 24.000000000000000
3.394937564876567 -4.574600453197323 -2.181153278473751 36.000000000000000
3.391765402214548 -4.529903221069517 -2.277258058298267 22.000000000000000
3.440985065718795 -4.554489771556499 -2.409701371184291 6.000000000000000
3.648244451038517 -4.785949095731430 -2.661090693406402 36.000000000000000
5.533243967920012 -8.321140391462672 -1.623948822175518 51.000000000000000
6.506658804819869 -9.382619541479970 -2.881669262337071 40.000000000000000
3.328373395565551 -4.758530105130240 -1.571807169553772 28.000000000000000
3.233940573438006 -4.584406579688143 -1.621864568816868 41.000000000000000
3.262910601949667 -4.585210395902045 -1.731416769295095 13.000000000000000
3.290742234150033 -4.584100670341194 -1.842045762883932 13.000000000000000
3.337540306786691 -4.608714896956021 -1.964935545800382 0.000000000000000
3.414267872514475 -4.673283362700891 -2.109217273449686 26.000000000000000
3.367950020296140 -4.569405686100581 -2.178036807911864 36.000000000000000
3.366989766352946 -4.527839404061592 -2.275325524908842 23.000000000000000
3.418173305371265 -4.555653076918475 -2.409143477921253 6.000000000000000
3.567046748406234 -4.712013607018384 -2.618473078333652 27.000000000000000
3.595975528995804 -4.706314746080468 -2.744876227753973 7.000000000000000
3.629519624552340 -4.707233592417998 -2.877734386874679 25.000000000000000
5.503300173248490 -8.330254583099901 -1.629110734071272 0.000000000000000
5.540449986835868 -8.317171344106150 -1.808980590318745 44.000000000000000
6.504900460142636 -9.442763245040080 -2.902081374075551 10.000000000000000
3.304009626445376 -4.755395602583474 -1.571538434555787 28.000000000000000
3.223212346026018 -4.599991153689382 -1.627908952738105 77.000000000000000
3.243201872428537 -4.588359010942453 -1.732917540271095 20.000000000000000
3.268669967946658 -4.584302173287544 -1.842212318011874 13.000000000000000
3.365989068828677 -4.679727521688747 -1.995060879089846 1.000000000000000
3.391566085555881 -4.674037968672971 -2.109159205633986 28.000000000000000
3.347649744656754 -4.573140729165143 -2.179176233889879 35.000000000000000
3.346671035554309 -4.531646957920105 -2.276344619901675 23.000000000000000
3.390989577667284 -4.550826928292169 -2.405423029922742 6.000000000000000
3.686334858155202 -4.903585328846183 -2.723367444226785 38.000000000000000
3.567928898005122 -4.702356324106064 -2.740764926059814 30.000000000000000
3.603493833596561 -4.706412067153729 -2.875110718803944 29.000000000000000
3.561331246854074 -4.562997133781029 -3.052853240378076 18.000000000000000
5.523293293255670 -8.346052605955917 -1.818301706343966 0.000000000000000
5.545315035030487 -8.310939435336616 -1.993266380700667 30.000000000000000
3.255581152056732 -4.717225307175662 -1.559672005171105 31.000000000000000
3.210216959216270 -4.612406678949794 -1.632824455579832 34.000000000000000
3.225698975079124 -4.594567780764891 -1.735565910627043 60.000000000000000
3.246628309754019 -4.584422937954955 -1.842339530123646 15.000000000000000
3.343461934514495 -4.680225819032821 -1.995117183353185 14.000000000000000
3.368893778232020 -4.674709975473125 -2.109060775843509 32.000000000000000
3.322968804241815 -4.570768441431259 -2.177404459638074 32.000000000000000
3.321975833520272 -4.529405688777903 -2.274326420717495 23.000000000000000
3.368257263556257 -4.551811344996028 -2.404778677148060 6.000000000000000
3.714645881636518 -4.975828266694466 -2.761911482000319 32.000000000000000
3.570506225757411 -4.738839270888460 -2.760221668002933 27.000000000000000
3.573161288164196 -4.699763869911492 -2.868943006725533 56.000000000000000
3.526879510100570 -4.551081455925415 -3.042190411983536 20.000000000000000
4.913050794998598 -7.534868101688039 -1.479577837062903 22.000000000000000
5.527892813483125 -8.339814488691061 -2.002875766706538 1.000000000000000
5.550941927358928 -8.304514138375339 -2.179968954965384 34.000000000000000
3.229251509302958 -4.710652219193194 -1.558233088942346 31.000000000000000
3.210272680338468 -4.643747052373708 -1.644433833099695 7.000000000000000
3.212556298980392 -4.606989759761996 -1.740553756518168 33.000000000000000
3.226803786905339 -4.587571240338896 -1.843676608201342 48.000000000000000
3.323151137900196 -4.683723536732560 -1.996446930456721 35.000000000000000
3.344065639499377 -4.672245790021289 -2.107544608388625 38.000000000000000
3.304892119823307 -4.577377544585180 -2.179909835442088 31.000000000000000
3.299514131927378 -4.530065688618835 -2.273766775641222 23.000000000000000
3.347734273843619 -4.555678955299881 -2.405660094022120 7.000000000000000
3.507486318412210 -4.731304672963572 -2.624690423220275 20.000000000000000
3.570687316980703 -4.772486933606988 -2.778009458749865 37.000000000000000
3.560254685430577 -4.715954348373527 -2.876724727694055 20.000000000000000
3.547182671445650 -4.654937510285464 -2.972397663626634 26.000000000000000
3.501183941150314 -4.550224350609383 -3.038944778924518 22.000000000000000
4.892010482008654 -7.552128246021795 -1.485931492215308 79.000000000000000
4.927024147830452 -7.543938048334280 -1.648948686160367 11.000000000000000
