# This PCD file was generated using the MATLAB® pcwrite function
# from Computer Vision Toolbox®.
# .PCD v.7 - Point Cloud Data file format
VERSION .7
FIELDS x y z intensity
SIZE 8 8 8 8
TYPE F F F F
COUNT 1 1 1 1
WIDTH 635
HEIGHT 1
VIEWPOINT 0 0 0 1 0 0 0
POINTS 635
DATA ascii
1.201063402719529 -4.593321351566305 -1.630719370061223 54.000000000000000
1.182316744466739 -4.498083849375718 -1.688808100329611 11.000000000000000
1.213664447076570 -4.593789131871227 -1.819852747285921 38.000000000000000
1.220725729331623 -4.596840639873079 -1.917099065087414 47.000000000000000
1.282380237528725 -4.804365881492215 -2.105604284558070 50.000000000000000
1.255142183057546 -4.678544039212444 -2.150777481158670 47.000000000000000
1.246365417996829 -4.622738175760331 -2.226042453141817 77.000000000000000
1.244874561524795 -4.593706610783148 -2.313743914117474 30.000000000000000
1.265024421670690 -4.645770173765562 -2.444694808176891 4.000000000000000
1.397219114021671 -5.103599512714479 -2.803068811362474 8.000000000000000
1.330066619596492 -4.834802296857599 -2.768680829878312 6.000000000000000
1.322844765002173 -4.782714051133164 -2.853051705244710 8.000000000000000
1.325823791565439 -4.765414446903804 -2.959174280599159 12.000000000000000
1.297855509770311 -4.634592363891379 -2.993718205896904 32.000000000000000
1.296241451236047 -4.604895460740062 -3.091781346692070 26.000000000000000
1.237806964816212 -4.844946311338944 -1.525225608916801 32.000000000000000
1.181857321626964 -4.603087916745449 -1.541042148037743 46.000000000000000
1.185898320591920 -4.596934635726412 -1.631636334504763 51.000000000000000
1.156954464212988 -4.461624053196052 -1.674688978789813 18.000000000000000
1.195402189350874 -4.586626477195016 -1.816493095056730 22.000000000000000
1.204202151987079 -4.596968637658689 -1.916547030868824 49.000000000000000
1.266885452990303 -4.811847442173911 -2.108160677521035 49.000000000000000
1.238061787505349 -4.678862040215471 -2.150132325916196 45.000000000000000
1.227472639884453 -4.616063516834311 -2.221956913823116 79.000000000000000
1.228733860081885 -4.597557663262952 -2.314722582526977 30.000000000000000
1.247626511284850 -4.646255217407572 -2.443881450286022 4.000000000000000
1.425933520956987 -5.281975444247216 -2.899709123374385 7.000000000000000
1.443679926458464 -5.322188167507064 -3.046325882040312 2.000000000000000
1.322808651169672 -4.822558792479344 -2.993106741409475 35.000000000000000
1.279726581759598 -4.635432521404451 -2.992651201768070 32.000000000000000
1.278959374986998 -4.609021397520172 -3.092830527903859 24.000000000000000
1.221154155966620 -4.844933706678671 -1.524983903277120 31.000000000000000
1.163056244588185 -4.591879327581101 -1.536992001559466 42.000000000000000
1.170721910130149 -4.600505688210987 -1.632531047753626 36.000000000000000
1.145821064418688 -4.479690133749076 -1.681032538032983 24.000000000000000
1.156744364792643 -4.499824783259817 -1.781599111607661 6.000000000000000
1.186763366747914 -4.593456065020373 -1.914473841574417 50.000000000000000
1.248577341343878 -4.808595292840399 -2.106010905089480 52.000000000000000
1.221916599842436 -4.682666090806978 -2.151086726525920 46.000000000000000
1.211400495822606 -4.619850357247798 -2.222906996560614 75.000000000000000
1.211664543810967 -4.597885790454190 -2.313927244148098 30.000000000000000
1.231153344478586 -4.650135732505521 -2.444854824249190 4.000000000000000
1.430665487555034 -5.375218803652189 -2.949548283310998 3.000000000000000
1.442546326361129 -5.394356403960161 -3.086159277055545 5.000000000000000
1.299684788102454 -4.806864675425820 -2.981826192741372 15.000000000000000
1.262500679468371 -4.639495452355377 -2.993671655662269 31.000000000000000
1.259892359443107 -4.606620135983606 -3.089509049245082 25.000000000000000
1.204513843754107 -4.844871736801495 -1.524717762127398 31.000000000000000
1.148029079352198 -4.595370592604858 -1.537855113326425 45.000000000000000
1.153692832161297 -4.596697367044073 -1.630800467509661 35.000000000000000
1.125385354547448 -4.461288945889059 -1.673685975641247 20.000000000000000
1.163650415042969 -4.590221244713670 -1.816857351623846 50.000000000000000
1.170277495720431 -4.593483042758873 -1.913872545102471 42.000000000000000
1.224825648776585 -4.783881575511200 -2.094462986443899 14.000000000000000
1.203027418831575 -4.675806388644184 -2.147141272821532 41.000000000000000
1.193501284680225 -4.616571035684753 -2.220456384607285 80.000000000000000
1.195512068323368 -4.601644066218126 -2.314857831991565 30.000000000000000
1.213767607634323 -4.650520428549731 -2.443990985723820 4.000000000000000
1.466133262961842 -5.588182040198992 -3.065008114317856 9.000000000000000
1.287296428802749 -4.830874658428865 -2.995179784076657 18.000000000000000
1.250538589250232 -4.663186300824794 -3.007356108045072 27.000000000000000
1.186064298263517 -4.837329851998522 -1.522089150920087 30.000000000000000
1.131170936956732 -4.591432340031104 -1.536224390608654 46.000000000000000
1.136701167347989 -4.592835631830076 -1.629044908878124 49.000000000000000
1.121415761386470 -4.508470108323602 -1.690934644646732 14.000000000000000
1.148228654278340 -4.593761443716529 -1.817721308594246 54.000000000000000
1.152901143185758 -4.589863986565619 -1.911748816887023 52.000000000000000
1.202158353758700 -4.762647426438639 -2.084442559516952 9.000000000000000
1.187793689595418 -4.683054458612105 -2.149672321222604 42.000000000000000
1.177430030331023 -4.620262702139987 -2.221357937588803 77.000000000000000
1.178455751164038 -4.601873724327318 -2.314013022412411 29.000000000000000
1.197282534885758 -4.654306341094885 -2.444915339004909 4.000000000000000
1.270392174985098 -4.838276835526141 -2.998233644089097 20.000000000000000
1.248824622557159 -4.726248155077337 -3.046410254500046 9.000000000000000
1.168574723773750 -4.833445854132973 -1.520603265195065 26.000000000000000
1.117942163425510 -4.602227523780307 -1.539515228438642 51.000000000000000
1.121540147516096 -4.596268802124905 -1.629870177689882 52.000000000000000
1.121619741267435 -4.573927836318482 -1.715021079797591 54.000000000000000
1.132795846244724 -4.597258685198024 -1.818562661032617 33.000000000000000
1.138236408004066 -4.596990014765083 -1.914096309918630 43.000000000000000
1.181428164995425 -4.748474895727063 -2.077515260017457 12.000000000000000
1.170751431048360 -4.683172789774914 -2.148927571559839 42.000000000000000
1.159580947491197 -4.616877039963398 -2.218856107113351 78.000000000000000
1.160532459458714 -4.598566403787754 -2.311390802200544 29.000000000000000
1.179909693718414 -4.654590810395367 -2.444001125706025 3.000000000000000
1.256887224141591 -4.858919848108464 -3.009491055884245 21.000000000000000
1.250079507898020 -4.802500923108230 -3.093927941545835 12.000000000000000
1.153782856529027 -4.840669553740704 -1.522602834447477 26.000000000000000
1.101996860114515 -4.601893850672713 -1.539075016832650 54.000000000000000
1.106368433340809 -4.599659737313440 -1.630673232332171 51.000000000000000
1.107271968731595 -4.580986562154692 -1.717197398268293 44.000000000000000
1.112946180547694 -4.582571322123489 -1.812207183755674 18.000000000000000
1.122657151112227 -4.600475601577194 -1.914922755713538 37.000000000000000
1.164315613158176 -4.748532468282025 -2.076813075514387 20.000000000000000
1.153722217641855 -4.683240640190625 -2.148157850481773 41.000000000000000
1.145253117728227 -4.627511699558951 -2.223090364060533 79.000000000000000
1.145249565546991 -4.605670525916862 -2.314001391381414 29.000000000000000
1.161685987022498 -4.651365578388098 -2.441246387348461 4.000000000000000
1.258491699977400 -4.939371501062836 -3.057767783134662 22.000000000000000
1.140705507293775 -4.855301675866187 -1.526922585451096 30.000000000000000
1.086939045007467 -4.605214823721944 -1.539849323735905 60.000000000000000
1.090313923422082 -4.599328940775899 -1.630149944923228 53.000000000000000
1.091147621289292 -4.580696656361622 -1.716612656061983 19.000000000000000
1.071482540468370 -4.477038711955433 -1.769936026280015 7.000000000000000
1.105333197816328 -4.596707263492764 -1.912726027312325 36.000000000000000
1.148945248635493 -4.755696212376153 -2.079214840084842 29.000000000000000
1.137568028441938 -4.686808689003047 -2.148991226913752 41.000000000000000
1.127430442025642 -4.624025508089826 -2.220538830763493 79.000000000000000
1.128220201546322 -4.605751364302423 -2.313082261193740 29.000000000000000
1.146054176299839 -4.658466474718560 -2.443912013332095 3.000000000000000
1.251174606664330 -4.986631208485356 -3.085463870181961 28.000000000000000
1.124094161166719 -4.855001740351779 -1.526536739817320 31.000000000000000
1.071870921206128 -4.608493841859143 -1.540601583089894 56.000000000000000
1.074273307556031 -4.598950556659688 -1.629603214918331 59.000000000000000
1.053570772327934 -4.488898108420445 -1.681739099835548 8.000000000000000
1.082148621755740 -4.589323976356397 -1.813770603045615 26.000000000000000
1.088902136215305 -4.596492763811937 -1.912004814316703 39.000000000000000
1.133539285903334 -4.762820053827013 -2.081594057970240 17.000000000000000
1.119703666298835 -4.683225165334509 -2.146543675412757 41.000000000000000
1.111338568605450 -4.627532552323784 -2.221344877121453 84.000000000000000
1.110361169213026 -4.602287269996189 -2.310383941758363 29.000000000000000
1.131225725897401 -4.668990431844055 -2.448371030790997 3.000000000000000
1.233657696862568 -4.993957967894060 -3.088441759509021 21.000000000000000
1.106645758818765 -4.850924121844173 -1.524954533289035 30.000000000000000
1.056792637426800 -4.611730872721725 -1.541331787470120 23.000000000000000
1.060790622660383 -4.609578799655855 -1.632949033080665 31.000000000000000
1.064019641299161 -4.601939812067507 -1.723599770549321 36.000000000000000
1.068423378951082 -4.599908517994137 -1.817391842557824 48.000000000000000
1.072485008530536 -4.596229606066123 -1.911259614704007 43.000000000000000
1.119777947462395 -4.777071254161624 -2.087082073383695 14.000000000000000
1.103551990314993 -4.686697891174020 -2.147328545317836 42.000000000000000
1.095235826451098 -4.630994757040020 -2.222127369150073 83.000000000000000
1.094201949647357 -4.605761880771347 -2.311169312495625 29.000000000000000
1.117163958076806 -4.682945225615558 -2.454625165816281 4.000000000000000
1.214483521308007 -4.994575014689821 -3.087274882336764 23.000000000000000
1.090912314806184 -4.854254723790628 -1.525692432294458 29.000000000000000
1.044216491221948 -4.626055126847905 -1.545758675480863 17.000000000000000
1.047249216469461 -4.620175044998374 -1.636274925609502 18.000000000000000
1.051201522766128 -4.616176735656190 -1.728435044692380 16.000000000000000
1.055471431819153 -4.614099336570408 -1.822430072423670 15.000000000000000
1.058572752397231 -4.606757288308467 -1.914996348429672 17.000000000000000
1.105104489508514 -4.787706371047661 -2.090983446108016 18.000000000000000
1.087389571979047 -4.690125606960808 -2.148089781569135 40.000000000000000
1.077478623729308 -4.627352816037407 -2.219500333705106 84.000000000000000
1.077213430547062 -4.605691694768139 -2.310175585922597 28.000000000000000
1.103832146735083 -4.700338427043864 -2.462676036974625 4.000000000000000
1.196119576518613 -4.998470225859524 -3.088140113379698 29.000000000000000
1.075168590457511 -4.857541476879923 -1.526407318668525 28.000000000000000
1.031557662077238 -4.640352537424635 -1.550166803355849 14.000000000000000
1.033649191193295 -4.630739057592543 -1.639580778745699 15.000000000000000
1.038300204760703 -4.630386250491748 -1.733251238583389 13.000000000000000
1.041615882482117 -4.624620990644607 -1.826011239354863 13.000000000000000
1.046237363497239 -4.624483211680757 -1.921717566164492 17.000000000000000
1.093633453057715 -4.812661674470042 -2.101130523656320 40.000000000000000
1.071216570807548 -4.693508278864702 -2.148827376653559 39.000000000000000
1.061379181547556 -4.630720102675124 -2.220234574016431 83.000000000000000
1.060238894582101 -4.605571304129531 -2.309157086253323 28.000000000000000
1.087984125913658 -4.707291586156250 -2.465253022442620 5.000000000000000
1.176957919080220 -4.998977156741375 -3.086917790141530 32.000000000000000
1.059414741156942 -4.860784348673128 -1.527099185355595 28.000000000000000
1.026947244125707 -4.691770596247992 -1.566962676634443 6.000000000000000
1.027293685781594 -4.674501656994414 -1.654629246057783 3.000000000000000
1.028555312221852 -4.659242799481607 -1.743539648295675 4.000000000000000
1.028509381263543 -4.638753489287263 -1.831010245268473 6.000000000000000
1.032988165239406 -4.638567608048088 -1.926917226048482 19.000000000000000
1.077988332859015 -4.819644770642714 -2.103423266733585 58.000000000000000
1.054232666037243 -4.693282257511100 -2.147910411816917 39.000000000000000
1.044472056645236 -4.630507778305348 -2.219251188563598 86.000000000000000
1.043278525204309 -4.605400778181355 -2.308113860097481 28.000000000000000
1.074470941541970 -4.724625375707390 -2.473262471919169 6.000000000000000
1.093876075064093 -4.769069444594342 -2.715626587923861 0.000000000000000
1.158582369466899 -5.002767440977943 -3.087728748554748 28.000000000000000
1.043650922388608 -4.863983307164412 -1.527768025527226 30.000000000000000
1.029219800023786 -4.776665723898562 -1.594920426031227 4.000000000000000
1.029452360924421 -4.758919019441871 -1.684049168813536 2.000000000000000
1.032190144242355 -4.750501091161088 -1.777160344202587 3.000000000000000
1.032029426287176 -4.729432857475573 -1.866205805882029 2.000000000000000
1.020449001360798 -4.656243999796871 -1.933600695587738 0.000000000000000
1.061517239470620 -4.822993123488777 -2.104125110606937 57.000000000000000
1.036474877076097 -4.689440015685174 -2.145337308788693 42.000000000000000
1.027579306900885 -4.630245548884978 -2.218243206922981 87.000000000000000
1.027114175327371 -4.608687559366459 -2.308803034254418 28.000000000000000
1.060848755330334 -4.741932697231037 -2.481251743222617 7.000000000000000
1.078981706166218 -4.782800020899819 -2.722184130039575 1.000000000000000
1.140195164023561 -5.006506504652403 -3.088512847117599 27.000000000000000
1.027087222640703 -4.863397245976746 -1.527239033325828 2.000000000000000
1.030947763942186 -4.861625116016949 -1.622877672326474 0.000000000000000
1.034213282017424 -4.858189731561436 -1.718700503127225 0.000000000000000
1.039941491647923 -4.863875302619060 -1.819025765216493 4.000000000000000
1.042786659962267 -4.856675418949788 -1.915796402745773 5.000000000000000
1.044257155960491 -4.822699214845473 -2.103234479404086 55.000000000000000
1.020307968215602 -4.692679965885286 -2.146002420262989 41.000000000000000
1.011473821702119 -4.633473189397020 -2.218905791409431 87.000000000000000
1.010939739167813 -4.611929279653147 -2.309468588928917 29.000000000000000
1.027981718067133 -4.672239181952675 -2.443730470806046 3.000000000000000
1.061122838423788 -4.801485110694718 -2.620485270623053 1.000000000000000
1.058701700583906 -4.772600289395472 -2.715124525108009 6.000000000000000
1.115986792739355 -5.008880513696867 -2.967637693172659 17.000000000000000
1.117303307385149 -4.990126776906321 -3.076896499674427 27.000000000000000
1.027011537714489 -4.822354504357551 -2.102318799731324 54.000000000000000
1.003367540424395 -4.692303836670387 -2.145011487892565 43.000000000000000
0.994598057022050 -4.633113793296306 -2.217849247206735 85.000000000000000
0.993998332695377 -4.611613634667155 -2.308352442576913 30.000000000000000
1.019721548679818 -4.713801148148130 -2.464407169863660 6.000000000000000
1.039468360767832 -4.784177944417822 -2.609875652805841 11.000000000000000
1.037019638752181 -4.755500403787931 -2.704150546551562 16.000000000000000
1.044421847186451 -4.768958947637857 -2.824148289460818 31.000000000000000
1.054772686711077 -4.792927729529276 -2.953858892851456 21.000000000000000
1.062379255145598 -4.800497353990983 -3.076780049428600 32.000000000000000
1.009780569738525 -4.821959062673463 -2.101378118968548 50.000000000000000
0.986441969574997 -4.691877813462335 -2.143995994446094 42.000000000000000
0.976989127817298 -4.629160137861700 -2.215072157325589 62.000000000000000
0.976327088542087 -4.607733397646845 -2.305453177227590 40.000000000000000
1.000068346029092 -4.703112932108263 -2.457761593626742 7.000000000000000
1.023111208022897 -4.790956042240216 -2.612410315654853 11.000000000000000
1.018405692379830 -4.751998588945870 -2.700918224675603 44.000000000000000
1.027792834364330 -4.775720072294645 -2.826813697559741 31.000000000000000
1.033541832967765 -4.779607904058826 -2.944215271165482 35.000000000000000
1.038089691796438 -4.774148838657977 -3.058360452616183 43.000000000000000
0.985146167319073 -4.785477737066218 -2.084714334641592 27.000000000000000
0.961402743874334 -4.652068567495140 -2.124989131123877 37.000000000000000
0.952798181054778 -4.593230040636364 -2.197001005911097 82.000000000000000
0.949906918001333 -4.561594165412800 -2.281420504248418 50.000000000000000
0.951365612512609 -4.552913227709134 -2.378247382481418 18.000000000000000
0.979902395772781 -4.669890932765078 -2.545265009942437 4.000000000000000
1.007034277916054 -4.782650168602062 -2.717094648309614 8.000000000000000
1.013277185056588 -4.792598504486629 -2.835466261664267 20.000000000000000
1.018831319787882 -4.796381306464093 -2.953114475400689 23.000000000000000
1.021091802795897 -4.780862610920044 -3.061135120469171 34.000000000000000
0.960043479917638 -4.745293502395229 -2.066446731177278 32.000000000000000
0.944642991941935 -4.651517379916945 -2.123919885990427 42.000000000000000
0.935379943959291 -4.589146846039036 -2.194169452418996 111.000000000000000
0.933183444690373 -4.561096358075098 -2.280224697460733 65.000000000000000
0.936680544775306 -4.562932208512466 -2.382457390502291 21.000000000000000
0.953958159703722 -4.628107355658057 -2.521373065224281 4.000000000000000
0.990499499860159 -4.789327453698141 -2.719645065450646 0.000000000000000
0.943833438441214 -4.748306354588175 -2.066993276103673 30.000000000000000
0.929327353838839 -4.658077658705382 -2.126094822644720 39.000000000000000
0.920135154405330 -4.595664487816534 -2.196405065794896 120.000000000000000
0.916475496126669 -4.560549328832781 -2.279004713527871 64.000000000000000
0.919825550567512 -4.562443094220640 -2.381179952990022 21.000000000000000
0.936026409804368 -4.624263126106764 -2.518163835154108 4.000000000000000
0.926204531532283 -4.744053214053272 -2.064374062034275 28.000000000000000
0.911872082433782 -4.653849822838120 -2.123343385264728 37.000000000000000
0.902061770296545 -4.587927035233876 -2.191827110412581 125.000000000000000
0.900478601457395 -4.563477072125599 -2.279520848884979 65.000000000000000
0.903677596636755 -4.565397447092959 -2.381700432760997 20.000000000000000
0.919510255292514 -4.627285638847438 -2.518696588898345 3.000000000000000
0.910693621026041 -4.750583783701908 -2.066444009077173 30.000000000000000
0.895146958207385 -4.653153184418498 -2.122202008657061 36.000000000000000
0.886799192859982 -4.594355677377577 -2.194016203516127 120.000000000000000
0.883789878978308 -4.562834047715683 -2.278253037487722 65.000000000000000
0.887520725732370 -4.568306757689414 -2.382197374073930 20.000000000000000
0.902984977682735 -4.630262082337880 -2.519205267330036 4.000000000000000
0.893788841488404 -4.749843929952334 -2.065347464211723 30.000000000000000
0.879792410666333 -4.659581541235939 -2.124307222297948 32.000000000000000
0.871503246601028 -4.600744209925376 -2.196182780645087 119.000000000000000
0.867787834265910 -4.565670329013411 -2.278722168555583 63.000000000000000
0.870688413997628 -4.567673544352676 -2.380847764547529 20.000000000000000
0.887113754837303 -4.636657791769635 -2.521574450219625 3.000000000000000
0.878235840915438 -4.756288407538010 -2.067370888846773 28.000000000000000
0.863074764847855 -4.658791066597773 -2.123118401802313 34.000000000000000
0.854850770878895 -4.599971802128509 -2.194929060163533 131.000000000000000
0.852435526354231 -4.571992463617716 -2.280929325084840 66.000000000000000
0.853872254454410 -4.566990917847215 -2.379473918616044 20.000000000000000
0.870558347164181 -4.639544166316305 -2.522035307640066 3.000000000000000
0.862649674600239 -4.762691862762019 -2.069371343981682 28.000000000000000
0.847026032206251 -4.661542891196746 -2.123541564061795 33.000000000000000
0.838214697169915 -4.599150535658193 -2.193651401614054 89.000000000000000
0.835758359145911 -4.571208935643554 -2.279590496516920 57.000000000000000
0.837072426104584 -4.566258953930928 -2.378075885900409 19.000000000000000
0.853994299492869 -4.642384350326994 -2.522472057381948 3.000000000000000
0.845101029357240 -4.758190715652400 -2.066630437126734 29.000000000000000
0.830969086755238 -4.664249935108847 -2.123941364467080 35.000000000000000
0.822868993387300 -4.605409604051689 -2.195748846892613 140.000000000000000
0.819097758577429 -4.570376499042985 -2.278227714450209 64.000000000000000
0.820918646383740 -4.568981549097248 -2.378477702234856 19.000000000000000
0.837421775303839 -4.645178315770229 -2.522884695134726 3.000000000000000
0.828855258717855 -4.760882390426960 -2.067010842888408 28.000000000000000
0.814276271803222 -4.663316707693981 -2.122681190598441 34.000000000000000
0.806865990833056 -4.608061566591672 -2.196123828780540 134.000000000000000
0.803696090294836 -4.576568752842310 -2.280365550729132 62.000000000000000
0.805991056001343 -4.578670813611155 -2.382504564157477 18.000000000000000
0.820840938161210 -4.647926035070702 -2.523273216825832 3.000000000000000
0.811983087085980 -4.759903514868920 -2.065794277130427 29.000000000000000
0.799446623757595 -4.673127054856682 -2.126307744643068 38.000000000000000
0.790855122971023 -4.610668868472009 -2.196475531339591 135.000000000000000
0.787653053722028 -4.579181549005095 -2.280718090473626 62.000000000000000
0.789191690501619 -4.577799372181969 -2.381035359605890 18.000000000000000
0.803650866545452 -4.647151675817221 -2.521751491850445 3.000000000000000
0.795733886893578 -4.762502507671083 -2.066127161061459 35.000000000000000
0.782147515123586 -4.668502655420679 -2.123363421771239 36.000000000000000
0.773637110441467 -4.606090258752315 -2.193403325787307 123.000000000000000
0.771006001131899 -4.578208804276786 -2.279284512881427 60.000000000000000
0.773594021168699 -4.583898515919378 -2.383191701513786 17.000000000000000
0.789421022235606 -4.663715996343870 -2.529637040189518 3.000000000000000
0.781258013960068 -4.775943554334599 -2.071157908377092 23.000000000000000
0.766662347551439 -4.674629776174926 -2.125306872088284 26.000000000000000
0.759397738052101 -4.619321949208349 -2.198809633643468 54.000000000000000
0.757295615501839 -4.594900931542048 -2.286642250124777 35.000000000000000
0.757383974142608 -4.586444542531108 -2.383499942101649 9.000000000000000
0.771626456565945 -4.659371186707661 -2.526180665749370 1.000000000000000
0.800414210734664 -4.999951394624651 -2.167460989878482 2.000000000000000
0.804343838985985 -5.012221511489141 -2.277885534536537 2.000000000000000
0.765198192503330 -4.757627105840149 -2.263720841438875 2.000000000000000
0.740049702649881 -4.590295809595489 -2.283398961639844 0.000000000000000
0.741166454000384 -4.588945319128128 -2.383784626495552 0.000000000000000
0.735595510561072 -4.686760740090177 -2.129124939967537 0.000000000000000
0.726173670704713 -4.617074606120354 -2.195948515219292 0.000000000000000
0.726200484178672 -4.606917273885316 -2.290712135637245 0.000000000000000
-0.122982895684976 -9.507806689048573 -3.083261774655564 4.000000000000000
-0.153943746554605 -9.507946558417602 -3.081439528073139 4.000000000000000
-0.184976226937253 -9.511804334243831 -3.080805430813236 4.000000000000000
-0.216117193137909 -9.519379975473376 -3.081357207690581 3.000000000000000
-0.213596364402393 -8.938083090937145 -3.066814512261474 13.000000000000000
-0.231206219671960 -8.906708997824436 -2.881245305776348 21.000000000000000
-0.239446033009159 -8.809365359719978 -3.020861393086724 48.000000000000000
-0.235941903430083 -7.992072728599975 -3.056911009331862 24.000000000000000
-0.250484878894771 -8.936750389527425 -2.716999411248830 15.000000000000000
-0.259976700364007 -8.898905564790434 -2.876912905217969 35.000000000000000
-0.272975088857403 -8.960467374112048 -3.070844352671891 27.000000000000000
-0.249149874955183 -7.875177172128591 -2.853753466470880 27.000000000000000
-0.264102594343603 -8.036712853611302 -3.072321651171936 19.000000000000000
-0.267397410140862 -8.890595651949738 -2.532056788182759 15.000000000000000
-0.279088047584323 -8.928823295650249 -2.712769879062545 19.000000000000000
-0.265243949806156 -7.859548789244799 -2.691929136617794 14.000000000000000
-0.274958679948445 -7.867414320186385 -2.849311081445342 42.000000000000000
-0.279066181310463 -8.725087313593967 -2.317756983941673 0.000000000000000
-0.295718916849611 -8.886396079456009 -2.529041526200422 31.000000000000000
-0.325315528461213 -9.433418533812896 -2.864136968243209 3.000000000000000
-0.281749300640202 -7.886327973411764 -2.546313497464887 13.000000000000000
-0.290760796652400 -7.851667307752337 -2.687600165110733 40.000000000000000
-0.326169471546015 -8.524880457524612 -3.085645906572291 8.000000000000000
-0.325305640754223 -9.982588069742521 -2.276323278870500 2.000000000000000
-0.330389777509375 -9.746621402892453 -2.403362191513395 4.000000000000000
-0.304166358320408 -8.651250932048219 -2.296361499677459 20.000000000000000
-0.296239494044750 -8.120792749250249 -2.309474244474857 0.000000000000000
-0.300357607934525 -7.964077505043112 -2.416368928997006 17.000000000000000
-0.307264986087951 -7.882135783435837 -2.543318249807661 51.000000000000000
-0.319578856122730 -7.926916573617123 -2.711700387143368 7.000000000000000
-0.341573673680348 -8.216253394895645 -2.972211899632037 4.000000000000000
-0.343154792990338 -8.002128787011156 -3.054073290563789 5.000000000000000
-0.335734169356165 -9.762862161487321 -2.043087120835980 2.000000000000000
-0.338069060550254 -9.467527325446026 -2.156917163970711 2.000000000000000
-0.339191456232252 -9.156101029075343 -2.255849973155233 3.000000000000000
-0.319614102887605 -8.337797821316581 -2.211424499295378 21.000000000000000
-0.321152642554540 -8.093409322842447 -2.299997068064910 33.000000000000000
-0.325896744460959 -7.959790207012309 -2.413401577090036 42.000000000000000
-0.334680249441509 -7.923518804984965 -2.555007412451758 10.000000000000000
-0.350373538047701 -8.036119980357979 -2.747364927549157 4.000000000000000
-0.351559793268747 -7.832416376415328 -2.831705390434860 4.000000000000000
-0.352261849475697 -7.620801086950974 -2.906922493382103 3.000000000000000
-0.353891508262610 -7.438934605977042 -2.986902865574440 5.000000000000000
-0.356372727453634 -7.278670289109328 -3.070899103123445 6.000000000000000
-0.342896756121227 -9.147934215579346 -1.912491935165811 4.000000000000000
-0.348223903367277 -8.968036127774655 -2.041245728483528 4.000000000000000
-0.350673079186988 -8.724697104096123 -2.147732020832733 3.000000000000000
-0.346382235499647 -8.344972450980043 -2.211572775043680 13.000000000000000
-0.347208477054262 -8.096713337329895 -2.299229307086587 22.000000000000000
-0.354617174163542 -8.028101128367174 -2.432417507850577 3.000000000000000
-0.357691497170397 -7.862125908451487 -2.533546327286691 3.000000000000000
-0.357772379753827 -7.630958776328964 -2.607230537994907 4.000000000000000
-0.359547810347738 -7.459829702191294 -2.695415772451201 3.000000000000000
-0.361413175104088 -7.291721128959039 -2.779843070094697 4.000000000000000
-0.362121574158054 -7.108401448805163 -2.852669067409320 3.000000000000000
-0.362389220353644 -6.921067084507396 -2.918544922511859 3.000000000000000
-0.363729967849285 -6.759478600719889 -2.989506574152039 3.000000000000000
-0.366803984512550 -6.630059393322677 -3.071094801200291 6.000000000000000
-0.355146245075311 -8.752107789045255 -1.827890695184568 4.000000000000000
-0.355099055391976 -8.464638714728386 -1.924874045225066 4.000000000000000
-0.359608565763338 -8.297157488599177 -2.040726167032763 3.000000000000000
-0.361457136528878 -8.089379347795044 -2.142117295088988 3.000000000000000
-0.363363430895427 -7.884663209170812 -2.237335266569618 3.000000000000000
-0.362748614718548 -7.652695009794950 -2.317043057342533 3.000000000000000
-0.364726977374059 -7.481188630025902 -2.409193830713245 4.000000000000000
-0.366685141960828 -7.308971456562898 -2.495656677873380 4.000000000000000
-0.367392116804677 -7.132321716364570 -2.575553138023777 3.000000000000000
-0.367577190567624 -6.947687825728917 -2.647197930868149 2.000000000000000
-0.368931328051732 -6.792681000223681 -2.724510690818114 4.000000000000000
-0.369876804639058 -6.633392377065858 -2.795811281412709 2.000000000000000
-0.371193302222264 -6.484929626081663 -2.866688556009121 3.000000000000000
-0.372447609141353 -6.335928700580986 -2.933488414771571 3.000000000000000
-0.373238202481369 -6.186759197746503 -2.995690216512302 3.000000000000000
-0.376076727291739 -6.065813656806842 -3.068115867447828 5.000000000000000
-0.372901558205083 -5.866447017876132 -3.096527056936603 7.000000000000000
-0.363068061521571 -8.313233601347628 -1.734453421723311 3.000000000000000
-0.364454738750224 -8.085944907895088 -1.837026861504204 2.000000000000000
-0.366576160349312 -7.885134061540046 -1.937696248178369 2.000000000000000
-0.366591199892571 -7.659928902030220 -2.026752108177868 2.000000000000000
-0.370582943071173 -7.518817198048882 -2.131908118242682 2.000000000000000
-0.371168383079334 -7.330817628685117 -2.218010578505386 2.000000000000000
-0.372843855214365 -7.168699218792356 -2.307019499292271 3.000000000000000
-0.371463703109612 -6.949161152113517 -2.371303017167656 3.000000000000000
-0.372862687321303 -6.801043764435404 -2.454460659826890 4.000000000000000
-0.374594230762961 -6.659640999722098 -2.536012010440712 2.000000000000000
-0.375326301129163 -6.506608583084833 -2.608366330523280 3.000000000000000
-0.376064087528986 -6.356744972375731 -2.677841137604478 2.000000000000000
-0.375224675256818 -6.184792480176198 -2.732678616345939 2.000000000000000
-0.377187023351040 -6.059908300135554 -2.804386803449874 3.000000000000000
-0.378507174754171 -5.930985933472781 -2.870564086657465 3.000000000000000
-0.371948069599287 -5.676824243332419 -2.870140265533146 6.000000000000000
-0.367633459808434 -5.477434565192678 -2.890012495346996 7.000000000000000
-0.376041263415448 -5.457575880354025 -3.001842513921559 8.000000000000000
-0.369922505432711 -7.909568757607357 -1.648521582708575 2.000000000000000
-0.369570689049585 -7.668281343385162 -1.740477734556371 2.000000000000000
-0.373456171715641 -7.523554924259807 -1.847210813484347 3.000000000000000
-0.374717577270767 -7.342496900003821 -1.941170268348091 2.000000000000000
-0.377681337500963 -7.195248647937300 -2.038601898767864 2.000000000000000
-0.376275843342313 -6.985989051146619 -2.112164166672799 2.000000000000000
-0.377246248087613 -6.825779384772383 -2.195181327070769 3.000000000000000
-0.380102005544079 -6.698985769701623 -2.284481587300832 3.000000000000000
-0.379199073641614 -6.522362866305587 -2.352472465893555 2.000000000000000
-0.380800909433550 -6.390247838626379 -2.432041781776264 3.000000000000000
-0.379342911564325 -6.213113387211645 -2.489364777025927 2.000000000000000
-0.379912574167727 -6.072727629823567 -2.556882001572752 2.000000000000000
-0.381883513582652 -5.957708104924057 -2.631055894232572 2.000000000000000
-0.375971952332204 -5.722273629272479 -2.646901132039556 2.000000000000000
-0.368446302227553 -5.473929621910949 -2.648170277142444 7.000000000000000
-0.377139708672304 -5.462452866293825 -2.760579345655715 11.000000000000000
-0.386059042592795 -5.462749257987083 -2.881088849722256 9.000000000000000
-0.395822630696493 -5.460508885750746 -3.002282990270182 8.000000000000000
-0.376036558367377 -7.541114173092629 -1.570075646315394 2.000000000000000
-0.378080404160214 -7.367513423002048 -1.670597848039646 2.000000000000000
-0.380520038738581 -7.208535940162270 -1.768286769590059 3.000000000000000
-0.380202666353387 -7.013475105410648 -1.852649151426921 3.000000000000000
-0.381211861637182 -6.844776394190456 -1.937805364343954 3.000000000000000
-0.384397916155405 -6.732925729760496 -2.034179284031882 3.000000000000000
-0.384536197592579 -6.570317447994357 -2.111588157127699 3.000000000000000
-0.385283833124646 -6.418558174331126 -2.187448589260981 2.000000000000000
-0.382537322116040 -6.224893820438201 -2.243823995205196 2.000000000000000
-0.383330868535425 -6.090991554640125 -2.316821815878500 4.000000000000000
-0.385682903878841 -5.986340128401752 -2.397202654082980 3.000000000000000
-0.380619410030654 -5.770310487680058 -2.428297704252394 2.000000000000000
-0.369969016917035 -5.478597903232592 -2.418282022679918 7.000000000000000
-0.377938752358708 -5.464372908532090 -2.526423364356436 11.000000000000000
-0.386497548411570 -5.458950850042887 -2.639744544816389 11.000000000000000
-0.396595503552270 -5.465406798587868 -2.760894154528863 9.000000000000000
-0.405428990376196 -5.462135774374059 -2.879590963325457 9.000000000000000
-0.415093068097916 -5.456390913080837 -2.998849103984047 8.000000000000000
-0.382151377510065 -7.215690816418376 -1.500721948437709 2.000000000000000
-0.383018341933409 -7.035578450317606 -1.593771884294959 1.000000000000000
-0.383650336293933 -6.858605967293930 -1.680928494868730 3.000000000000000
-0.387811999455278 -6.757831428026079 -1.783624468171906 3.000000000000000
-0.388838481056365 -6.601915858765868 -1.867590862428254 3.000000000000000
-0.389734944265870 -6.460741281798074 -1.950520126245370 3.000000000000000
-0.387345927544669 -6.269228813012688 -2.013442132892347 2.000000000000000
-0.386711925121677 -6.107895614320984 -2.080231009173542 3.000000000000000
-0.388773571542411 -6.002558200930255 -2.162363094976213 3.000000000000000
-0.384606298654394 -5.802939787844660 -2.205984545205321 2.000000000000000
-0.371901932739767 -5.485295975708197 -2.195362614991858 8.000000000000000
-0.379018555074769 -5.464226574618961 -2.298297821462000 13.000000000000000
-0.387686538173890 -5.463343279669974 -2.410360005601583 12.000000000000000
-0.396807349677383 -5.463722206711869 -2.524937142806845 11.000000000000000
-0.406046527266368 -5.465482090418990 -2.641720601616336 11.000000000000000
-0.415801367734083 -5.464743564838567 -2.759380907585239 9.000000000000000
-0.424794992166081 -5.461467919079770 -2.878065562750977 7.000000000000000
-0.434613092657928 -5.455716220004475 -2.997310792438848 7.000000000000000
-0.384939650579193 -6.866814918999631 -1.426622000957528 2.000000000000000
-0.389250592625441 -6.762085157727832 -1.530302027633013 2.000000000000000
-0.390769093585118 -6.613424057795170 -1.619358436935666 3.000000000000000
-0.391696030924520 -6.467435934961344 -1.705534123531003 3.000000000000000
-0.392526214546644 -6.320629052006744 -1.786608954926063 3.000000000000000
-0.390401774377317 -6.142692317578717 -1.853132900286014 3.000000000000000
-0.392401243138988 -6.032776985447959 -1.936162985967972 3.000000000000000
-0.392143475652331 -5.887950523279590 -2.004017497407371 2.000000000000000
-0.373082539535268 -5.479753495807158 -1.972817032540818 8.000000000000000
-0.381102693585604 -5.473858147779399 -2.079678271976434 19.000000000000000
-0.389037987742038 -5.466077070558201 -2.186469963848463 16.000000000000000
-0.397829037594892 -5.467213475187055 -2.298356994372152 13.000000000000000
-0.406658296576330 -5.466297244696495 -2.410470381989612 11.000000000000000
-0.415671916127654 -5.463018536137499 -2.523424128433599 10.000000000000000
-0.424803079756242 -5.461179440696711 -2.638458159596465 10.000000000000000
-0.434719551426983 -5.460464468654814 -2.756042579164085 9.000000000000000
-0.444156856827839 -5.460745698695679 -2.876512663053902 7.000000000000000
-0.453837833514973 -5.451489942968275 -2.993824414120873 7.000000000000000
-0.393204913259955 -6.646993622999001 -1.379443972040489 2.000000000000000
-0.393778454435721 -6.488599304811914 -1.466940213647635 2.000000000000000
-0.393933179430784 -6.329460555593097 -1.548395855501648 3.000000000000000
-0.393001163277726 -6.165472801546669 -1.624511994123348 3.000000000000000
-0.395419490646522 -6.054723062171937 -1.710084227989991 3.000000000000000
-0.396420866493049 -5.935504557991676 -1.789295989675529 3.000000000000000
-0.375409476312492 -5.496060996365547 -1.762678997811037 6.000000000000000
-0.382928621203537 -5.479073717058225 -1.863630026079458 18.000000000000000
-0.390668154085643 -5.471512147096703 -1.968633337510199 20.000000000000000
-0.399088268897498 -5.469392289407854 -2.076769736440297 20.000000000000000
-0.407702572859012 -5.469043248027525 -2.186449304989414 16.000000000000000
-0.416660340789210 -5.470147314917729 -2.298387807466743 14.000000000000000
-0.425366723138227 -5.465546707095886 -2.408942992974298 11.000000000000000
-0.434820416893579 -5.465884093345271 -2.523556673262489 9.000000000000000
-0.443822340950222 -5.460416730808866 -2.636905545440730 10.000000000000000
-0.454496677350615 -5.466816801732557 -2.758069402058595 9.000000000000000
-0.463814014724221 -5.463498512153526 -2.876790671467356 7.000000000000000
-0.473640422943606 -5.454202448266888 -2.994151032107982 7.000000000000000
-0.395244653961466 -6.348982065936234 -1.316139958338385 2.000000000000000
-0.394862826670725 -6.187868724205750 -1.397533541676163 2.000000000000000
-0.397595090545597 -6.080416334337627 -1.486081876981958 3.000000000000000
-0.399625723289655 -5.971618524470520 -1.572073624066550 3.000000000000000
-0.381085707491835 -5.562197375167892 -1.569712726335891 4.000000000000000
-0.383444346294448 -5.476104654103517 -1.649567291928596 21.000000000000000
-0.391917264404128 -5.476286557972835 -1.755101818364972 23.000000000000000
-0.400892797759563 -5.478297074352812 -1.862134831273483 20.000000000000000
-0.409041502663902 -5.474486435302159 -1.968478427311589 20.000000000000000
-0.417329359241355 -5.468606531177030 -2.075252951590030 19.000000000000000
-0.426387787448017 -5.471956724009521 -2.186400481449400 17.000000000000000
-0.434926906983059 -5.465671775578581 -2.295300988372944 14.000000000000000
-0.444367422439345 -5.468394105063100 -2.408997199165196 9.000000000000000
-0.453688867034802 -5.465073969758922 -2.521989079475194 9.000000000000000
-0.463141661027897 -5.463192462939585 -2.637059710112841 9.000000000000000
-0.473084964959374 -5.458869492335139 -2.752881850276557 9.000000000000000
-0.483491673408597 -5.466195901068934 -2.877039133011879 8.000000000000000
-0.495044064037149 -5.474337859101925 -3.004039343794441 6.000000000000000
-0.397998159799398 -6.090086860738297 -1.261056498916307 2.000000000000000
-0.400068254559982 -5.976721247337583 -1.348461539428107 2.000000000000000
-0.385341824767966 -5.622016745734105 -1.372748844024205 2.000000000000000
-0.384459957498650 -5.484439111447244 -1.442558204686352 22.000000000000000
-0.393078243432792 -5.480720601755381 -1.545462772128115 27.000000000000000
-0.401374765707345 -5.479111286974766 -1.649222181029315 25.000000000000000
-0.410003125010926 -5.479266250121882 -1.754811328250577 26.000000000000000
-0.418563719388663 -5.473692423381699 -1.859330972964552 25.000000000000000
-0.426849335257809 -5.469900336137131 -1.965597608290384 21.000000000000000
-0.435863112750742 -5.471499272883693 -2.075124828480555 19.000000000000000
-0.445093440954861 -5.474817401315935 -2.186323455270787 17.000000000000000
-0.453774320001822 -5.468500343372305 -2.295277077183465 14.000000000000000
-0.462461156682201 -5.460238164639239 -2.404201502365653 8.000000000000000
-0.472865881046675 -5.467831945469595 -2.522064962415550 9.000000000000000
-0.482798372442409 -5.469504929019556 -2.638917498331037 8.000000000000000
-0.494508525217232 -5.482913547931100 -2.763823500949560 6.000000000000000
-0.504488186631098 -5.482950897985159 -2.884683192281852 7.000000000000000
-0.514621239798721 -5.473440583168848 -3.002383913171047 7.000000000000000
-0.387114076128239 -5.655340329412815 -1.169706138558029 2.000000000000000
-0.384592709557448 -5.489178460976522 -1.237177542354641 24.000000000000000
-0.392999467222890 -5.481590310330878 -1.337181770908186 30.000000000000000
-0.401555676270952 -5.479728089484538 -1.440046215983610 29.000000000000000
-0.410305377211168 -5.476021730090674 -1.542871190024084 25.000000000000000
-0.419033105908377 -5.478246892191351 -1.647700896506579 23.000000000000000
-0.427812477519746 -5.478395579719757 -1.753277603856687 24.000000000000000
-0.436807800386539 -5.476592468836624 -1.859068012689005 24.000000000000000
-0.445238498724161 -5.472771848996202 -1.965389266300328 19.000000000000000
-0.454417110709539 -5.474339591046911 -2.074968706123232 18.000000000000000
-0.463192135694224 -5.470217982231319 -2.183261842359761 16.000000000000000
-0.472959619263641 -5.474952561138627 -2.296767217596852 12.000000000000000
-0.481786678029913 -5.466629245006267 -2.405807617935214 8.000000000000000
-0.492714419895617 -5.477776681449561 -2.525450282344588 6.000000000000000
-0.502829788687797 -5.479352210780670 -2.642475648671369 6.000000000000000
-0.513433382314124 -5.478417438508117 -2.760373983969498 8.000000000000000
-0.524256261291679 -5.485534717343749 -2.884868149034352 5.000000000000000
-0.535899049446269 -5.489961154582145 -3.010281503444762 5.000000000000000
-0.392278427867586 -5.482495539812273 -1.132653650048538 38.000000000000000
-0.401691480932623 -5.488291325594155 -1.235678873961231 33.000000000000000
-0.410219652208261 -5.480696605582552 -1.335672323026131 28.000000000000000
-0.419212363705887 -5.482686187907887 -1.439537828276912 27.000000000000000
-0.428103335523963 -5.478953923844545 -1.542418696237088 24.000000000000000
-0.436686774156496 -5.477332905119180 -1.646154581980525 23.000000000000000
-0.445617122054270 -5.477474893012621 -1.751718635211844 22.000000000000000
-0.454758271990913 -5.475664522849615 -1.857496419178764 22.000000000000000
-0.463647705422004 -5.475591294420421 -1.965153119154896 18.000000000000000
-0.472669181603498 -5.473398916275400 -2.073372168250927 17.000000000000000
-0.482239242633328 -5.476677014369004 -2.184607560443441 17.000000000000000
-0.491859811985779 -5.477673826187774 -2.296685302615640 7.000000000000000
-0.502159535183196 -5.483911221842550 -2.412197651970904 6.000000000000000
-0.512294809072135 -5.484044733872321 -2.527134223875932 9.000000000000000
-0.522589185807902 -5.485552137750743 -2.644269707668809 5.000000000000000
-0.534058747717355 -5.491663941122278 -2.765861965421248 4.000000000000000
-0.545093150259757 -5.498643779547030 -2.890585761258202 7.000000000000000
-0.555882192058804 -5.492444641301533 -3.010480169472967 8.000000000000000
-0.408626053386072 -5.473755233911798 -1.129532818344525 35.000000000000000
-0.418785551836327 -5.487356165309539 -1.234155977424463 31.000000000000000
-0.427737390302589 -5.483629891712235 -1.335081995855382 28.000000000000000
-0.436581491267514 -5.481736525278567 -1.437990705432237 25.000000000000000
-0.445608750509086 -5.477996809656563 -1.540859433842767 24.000000000000000
-0.454335596217117 -5.476369334778938 -1.644583252712651 23.000000000000000
-0.463416882889840 -5.476504199087282 -1.750134437702439 21.000000000000000
-0.473029823523487 -5.478461805716353 -1.857179320734657 23.000000000000000
-0.481746577156285 -5.474606276669280 -1.963543315247089 20.000000000000000
-0.491250668780986 -5.476134775544506 -2.073161040656117 12.000000000000000
-0.502008139782643 -5.490486244037925 -2.188874740962189 7.000000000000000
-0.511465016453526 -5.487692811240521 -2.299655440800490 11.000000000000000
-0.521265752558487 -5.486542036040808 -2.412134843238829 8.000000000000000
-0.532270637398223 -5.493876136759456 -2.530453904442581 5.000000000000000
-0.543102371066754 -5.498874466704127 -2.649491161331000 6.000000000000000
-0.554061611990197 -5.497734168798158 -2.767730973080307 10.000000000000000
-0.564214006147591 -5.494061050948884 -2.887001857241063 6.000000000000000
-0.574786631295020 -5.484391909393499 -3.004906939102052 5.000000000000000
-0.426135525857143 -5.480595508214062 -1.129612937667724 34.000000000000000
-0.435565622526095 -5.482481944679027 -1.231734677088343 31.000000000000000
-0.444960107311108 -5.482638763946270 -1.333522660840599 26.000000000000000
-0.454265128300259 -5.484595032944974 -1.437429830567626 24.000000000000000
-0.463433714489737 -5.480828639707427 -1.540354054896820 22.000000000000000
-0.472308532769537 -5.479174430702070 -1.644132661257518 21.000000000000000
-0.481211584350007 -5.475483507524097 -1.748525026963860 22.000000000000000
-0.490982645322243 -5.477432326341122 -1.855555752960729 21.000000000000000
-0.501553266643494 -5.492328373367982 -1.968631341774344 7.000000000000000
-0.510892347201816 -5.489999220874889 -2.077152272791702 12.000000000000000
-0.520116617447553 -5.485730198676110 -2.185732575496802 14.000000000000000
-0.530429666542109 -5.490305539327916 -2.299514177750859 6.000000000000000
-0.541109742699482 -5.496413243242666 -2.415248580552803 6.000000000000000
-0.551952905785324 -5.500031668877018 -2.532074175679894 11.000000000000000
-0.562609101000415 -5.501371566510074 -2.649491627966766 7.000000000000000
-0.572624548943804 -5.489516609633098 -2.762407015359837 5.000000000000000
-0.582180458110399 -5.478848095761315 -2.877836940788515 7.000000000000000
-0.593256959342244 -5.472794344143942 -2.997397579050545 6.000000000000000
-0.443372466070112 -5.483479778138401 -1.128860655297255 31.000000000000000
-0.453280164890244 -5.489232120764668 -1.231910636565205 26.000000000000000
-0.461851118778314 -5.477725333390731 -1.330997639371548 27.000000000000000
-0.471304738177083 -5.479690845164485 -1.434822666810212 22.000000000000000
-0.480604454503212 -5.475935078047030 -1.537666537102809 22.000000000000000
-0.490300875378399 -5.481928480707707 -1.643654825080025 21.000000000000000
-0.500385242350016 -5.489598439571352 -1.751736162067252 10.000000000000000
-0.510683908808871 -5.495223374635970 -1.860295140061959 10.000000000000000
-0.519703674111033 -5.491237966483101 -1.966964587014730 16.000000000000000
-0.529191005437427 -5.488901057452318 -2.075472491087982 9.000000000000000
-0.540011790398129 -5.499427922441256 -2.189935111391307 7.000000000000000
-0.550883785685117 -5.507561125620322 -2.305496367862037 11.000000000000000
-0.560651539751262 -5.502580743358774 -2.416727335425273 10.000000000000000
-0.570177110841490 -5.491660184095523 -2.527004251023804 6.000000000000000
-0.580237759749073 -5.485873987866946 -2.640826902961678 6.000000000000000
-0.591515461107875 -5.484804756322845 -2.758849442120507 7.000000000000000
-0.602364026393114 -5.484735810714903 -2.879758091640516 5.000000000000000
-0.614384178778638 -5.485588664052778 -3.003249088850631 5.000000000000000
-0.460300514161990 -5.482410136012907 -1.127279263184215 30.000000000000000
-0.470037874844793 -5.484262629708113 -1.229442070452460 24.000000000000000
-0.479390136920402 -5.480511375510359 -1.330330845889469 26.000000000000000
-0.488658514820596 -5.478594847869760 -1.433201782300127 23.000000000000000
-0.498792498186185 -5.482503684170818 -1.538185748473376 15.000000000000000
-0.509019902106671 -5.492264838229666 -1.645436624730767 7.000000000000000
-0.518577010665750 -5.492270300470695 -1.751282053404452 17.000000000000000
-0.528687819034543 -5.494089147466462 -1.858614976184076 12.000000000000000
-0.539318099860206 -5.505096832601811 -1.970641735790824 6.000000000000000
-0.548970827923775 -5.502653731153948 -2.079398217058539 9.000000000000000
-0.558873370637916 -5.501967453754093 -2.189684610491319 16.000000000000000
-0.569177084643036 -5.502716344630294 -2.302219424133128 7.000000000000000
-0.578317477269596 -5.490463672943566 -2.410172929806402 6.000000000000000
-0.588345645413305 -5.483238521031162 -2.521912116431338 9.000000000000000
-0.599328627579081 -5.484677285022348 -2.639048365476473 6.000000000000000
-0.611563825241036 -5.490708797201988 -2.760630832252887 4.000000000000000
