# This PCD file was generated using the MATLAB® pcwrite function
# from Computer Vision Toolbox®.
# .PCD v.7 - Point Cloud Data file format
VERSION .7
FIELDS x y z intensity
SIZE 8 8 8 8
TYPE F F F F
COUNT 1 1 1 1
WIDTH 631
HEIGHT 1
VIEWPOINT 0 0 0 1 0 0 0
POINTS 631
DATA ascii
-0.435874753556986 -5.486372989352326 -1.232608867774708 29.000000000000000
-0.444645647871312 -5.478764107575991 -1.332580241999017 25.000000000000000
-0.453626218133873 -5.476881115880354 -1.435408128977516 24.000000000000000
-0.462784647662721 -5.473152409119601 -1.538196696276517 22.000000000000000
-0.472637667635579 -5.482992670723466 -1.645278398303690 20.000000000000000
-0.481545295573550 -5.479280652813643 -1.749737596330687 22.000000000000000
-0.490982645322243 -5.477432326341122 -1.855555752960729 21.000000000000000
-0.501210675614366 -5.488576782949015 -1.967286648234881 7.000000000000000
-0.510545509220009 -5.486272133827451 -2.075742121893677 12.000000000000000
-0.520818529211990 -5.493133343343689 -2.188682282076420 14.000000000000000
-0.530429666542109 -5.490305539327916 -2.299514177750859 6.000000000000000
-0.541468806895036 -5.500060498214957 -2.416851267069427 6.000000000000000
-0.552316032697025 -5.503650110764437 -2.533740013953368 11.000000000000000
-0.561875103477910 -5.494194304192383 -2.646035017884618 7.000000000000000
-0.572624548943804 -5.489516609633098 -2.762407015359837 5.000000000000000
-0.582555091609826 -5.482373738036578 -2.879688830711801 7.000000000000000
-0.592878365239281 -5.469301814249786 -2.995484753537430 6.000000000000000
-0.443372466070112 -5.483479778138401 -1.128860655297255 32.000000000000000
-0.452316422512731 -5.477561180748868 -1.229291407713543 26.000000000000000
-0.462504373543206 -5.485473176860872 -1.332880238578580 26.000000000000000
-0.471304738177083 -5.479690845164485 -1.434822666810212 23.000000000000000
-0.480604454503212 -5.475935078047030 -1.537666537102809 22.000000000000000
-0.489618005078429 -5.474293482823715 -1.641365612231725 21.000000000000000
-0.500039194464574 -5.485802036777733 -1.750524726270525 11.000000000000000
-0.511034653251735 -5.498997566514156 -1.861572815295518 10.000000000000000
-0.520058662959469 -5.494988812088622 -1.968308142060505 16.000000000000000
-0.529550266133582 -5.492627398971294 -2.076881501604674 9.000000000000000
-0.540011790398129 -5.499427922441256 -2.189935111391307 7.000000000000000
-0.550516284827421 -5.503886968765338 -2.303958344934844 10.000000000000000
-0.560280001288868 -5.498934235245216 -2.415125793122141 10.000000000000000
-0.570928332331400 -5.498895573007374 -2.530333637388789 6.000000000000000
-0.580237759749073 -5.485873987866946 -2.640826902961678 6.000000000000000
-0.591131858344511 -5.481247814198122 -2.757060304998509 7.000000000000000
-0.602364026393114 -5.484735810714903 -2.879758091640516 5.000000000000000
-0.614775257186517 -5.489080445506663 -3.005160768728958 5.000000000000000
-0.460628363531051 -5.486314986537134 -1.128082168642324 30.000000000000000
-0.469704514649868 -5.480373081743783 -1.228570125721643 24.000000000000000
-0.479390136920402 -5.480511375510359 -1.330330845889469 26.000000000000000
-0.489002398363749 -5.482450298149752 -1.434210369057551 23.000000000000000
-0.498792498186185 -5.482503684170818 -1.538185748473376 15.000000000000000
-0.509373633796807 -5.496081561536288 -1.646580083121824 7.000000000000000
-0.519293772256166 -5.499861551749854 -1.753702622932309 17.000000000000000
-0.528324709268723 -5.490315734590456 -1.857338454909224 12.000000000000000
-0.538215951154769 -5.493846634715023 -1.966614538783077 6.000000000000000
-0.549342507563534 -5.506379292244776 -2.080806069609018 9.000000000000000
-0.559625049683831 -5.509367544478712 -2.192629714204152 16.000000000000000
-0.569177084643036 -5.502716344630294 -2.302219424133128 7.000000000000000
-0.578701486218646 -5.494109399154019 -2.411773310237880 6.000000000000000
-0.587569463823050 -5.476004697124789 -2.518585055591719 9.000000000000000
-0.598936653329520 -5.481090184116514 -2.637322369161577 6.000000000000000
-0.611959915801425 -5.494264955749397 -2.762418805589838 4.000000000000000
-0.622991266945248 -5.494089978480760 -2.883496694929133 7.000000000000000
-0.635605308636876 -5.498321757013023 -3.009063599857909 8.000000000000000
-0.477563137313509 -5.485196987537898 -1.126475680067907 29.000000000000000
-0.487456926354333 -5.487024215407560 -1.228693210073299 23.000000000000000
-0.496597109710690 -5.479375135836876 -1.328698397455045 21.000000000000000
-0.507787292224257 -5.496723316756325 -1.436593486301152 10.000000000000000
-0.517385352406123 -5.492855709562515 -1.539750808099178 14.000000000000000
-0.526709061428901 -5.491098983891393 -1.643759566881846 16.000000000000000
-0.536787835459656 -5.494890433222875 -1.750800373137457 6.000000000000000
-0.548563431128037 -5.511767332344544 -1.863286085422349 7.000000000000000
-0.558266408388067 -5.511399700423415 -1.971601369303179 18.000000000000000
-0.567691951888426 -5.505174249089113 -2.079068621986110 11.000000000000000
-0.576589205121113 -5.493355727870278 -2.184991472663591 7.000000000000000
-0.586654807836070 -5.490475614881650 -2.295847046044834 8.000000000000000
-0.596299200799094 -5.481943543127284 -2.405198173351094 9.000000000000000
-0.607660046532379 -5.485615184964789 -2.521784945298073 5.000000000000000
-0.619626889609048 -5.494185794619142 -2.642417259230390 5.000000000000000
-0.632473243431331 -5.503666141610861 -2.765953831507257 9.000000000000000
-0.642863136205120 -5.496338065794085 -2.883503919645586 6.000000000000000
-0.653175789168755 -5.479581600095134 -2.997656897702376 5.000000000000000
-0.494492412632860 -5.484031404552485 -1.124845237235167 30.000000000000000
-0.504894644315923 -5.489736160230186 -1.227917867449704 11.000000000000000
-0.516340254043509 -5.505291136599605 -1.333606479937805 10.000000000000000
-0.524822704652303 -5.491671812011524 -1.433911377261338 22.000000000000000
-0.534925361646043 -5.491648629602315 -1.538061827903831 12.000000000000000
-0.545527423371144 -5.501328631222112 -1.645480817769045 5.000000000000000
-0.556549668278046 -5.512634615038977 -1.755122807046183 12.000000000000000
-0.566617642570836 -5.510527707254788 -1.861549041713583 18.000000000000000
-0.576081896392541 -5.506402857406545 -1.968510406524133 8.000000000000000
-0.584845943617813 -5.492745960773624 -2.073088766222716 8.000000000000000
-0.594650041553612 -5.488393824007065 -2.181747134908491 13.000000000000000
-0.604456669165936 -5.481859284591159 -2.290989943025184 7.000000000000000
-0.616678639027885 -5.495238411940803 -2.409789669680121 5.000000000000000
-0.629058478594790 -5.506013208412911 -2.529934382408082 8.000000000000000
-0.639159988163997 -5.496464701931629 -2.642304730713293 6.000000000000000
-0.649686783308925 -5.484572121512238 -2.755169636796335 5.000000000000000
-0.659781687379501 -5.473872684808994 -2.870550810471860 7.000000000000000
-0.672329224419904 -5.474752067915280 -2.993866932388327 6.000000000000000
-0.513964002586786 -5.510134781286573 -1.128786824914671 8.000000000000000
-0.523459873276991 -5.504059516770425 -1.229721349297372 21.000000000000000
-0.532119904725941 -5.488569545936063 -1.328170450814822 19.000000000000000
-0.542588887957451 -5.494279011197211 -1.433217166302058 6.000000000000000
-0.554002685863273 -5.505728552230768 -1.540639520850729 7.000000000000000
-0.564804179363163 -5.515317500629013 -1.648309772533438 18.000000000000000
-0.574847325472539 -5.515147490675689 -1.754581063527906 12.000000000000000
-0.584265642057643 -5.505466481358844 -1.858513514114235 8.000000000000000
-0.592652921423186 -5.490114063788233 -1.961379637225599 12.000000000000000
-0.603146115367291 -5.491440468339065 -2.071303055133502 11.000000000000000
-0.613919276855792 -5.494474292467525 -2.182886018764689 7.000000000000000
-0.625958301383409 -5.506231590380521 -2.299910841320766 7.000000000000000
-0.635887314477424 -5.497544003550639 -2.409554575499608 10.000000000000000
-0.646770663743453 -5.493818226609930 -2.523103050112970 5.000000000000000
-0.656564631392209 -5.480765404223932 -2.633550734021823 6.000000000000000
-0.668936780960328 -5.483200689631555 -2.753292171256524 7.000000000000000
-0.680914508865858 -5.486578785979183 -2.876044620109215 4.000000000000000
-0.693656080411099 -5.487311472317278 -2.999586312791130 5.000000000000000
-0.530213991055341 -5.501064855289860 -1.125503701275087 30.000000000000000
-0.540588900387238 -5.502783058409688 -1.228022089726990 8.000000000000000
-0.551670503839241 -5.510503994557363 -1.332074089966883 5.000000000000000
-0.562336940891907 -5.516095644866023 -1.437515217866724 15.000000000000000
-0.573171891381427 -5.519751904510599 -1.543182716201115 17.000000000000000
-0.582158690012253 -5.510182900370383 -1.645410484988183 8.000000000000000
-0.590717422209805 -5.494855200618691 -1.746778535284750 10.000000000000000
-0.601470204287107 -5.496586421147800 -1.854183191652984 15.000000000000000
-0.611620187792443 -5.496261099976481 -1.962258562669576 6.000000000000000
-0.623125263475003 -5.504971909520358 -2.075103655582294 6.000000000000000
-0.634508554151245 -5.511588964541045 -2.188397125902492 13.000000000000000
-0.644189760428814 -5.501179583097819 -2.296531895503823 7.000000000000000
-0.652945202464039 -5.481583712357907 -2.401312675807065 5.000000000000000
-0.665277496533852 -5.488802280530691 -2.519569681085785 8.000000000000000
-0.676514226479649 -5.486521468453033 -2.635106578029552 5.000000000000000
-0.689072176980630 -5.488880507015133 -2.754953777220316 4.000000000000000
-0.700791899786986 -5.488661137893581 -2.875966902898863 7.000000000000000
-0.712808732187159 -5.482370943123354 -2.995739733907887 6.000000000000000
-0.548738253537865 -5.515354068653320 -1.126983507640415 5.000000000000000
-0.559287310244869 -5.516999301359086 -1.229762746794029 8.000000000000000
-0.569362955006878 -5.513034771311585 -1.331267604869607 28.000000000000000
-0.578986048734029 -5.507043450156806 -1.433752975047084 12.000000000000000
-0.589150577214634 -5.503060567467747 -1.537127837282643 7.000000000000000
-0.598236896294720 -5.493563307823683 -1.639076202879225 18.000000000000000
-0.608557979782700 -5.493478183018852 -1.744984423408616 10.000000000000000
-0.619893633009413 -5.498966489491178 -1.853643825336319 6.000000000000000
-0.631059827582762 -5.506099002787351 -1.964443245684474 10.000000000000000
-0.641895991856943 -5.507280889904894 -2.074663041394035 12.000000000000000
-0.651273698803907 -5.495381646214049 -2.180671257136217 6.000000000000000
-0.661505393369999 -5.488739154648106 -2.290067489567764 9.000000000000000
-0.672574662443044 -5.487426006539669 -2.402620058642587 7.000000000000000
-0.684653584934094 -5.490959952890086 -2.519326946705050 4.000000000000000
-0.696961296886595 -5.495802777776079 -2.638350389624336 6.000000000000000
-0.709709115094042 -5.498054119666365 -2.758365071772071 9.000000000000000
-0.720687365139785 -5.490686971384966 -2.875859228820366 5.000000000000000
-0.732395440284132 -5.480863782986388 -2.993772388041408 6.000000000000000
-0.566552372107181 -5.521788721233344 -1.126837933209546 24.000000000000000
-0.576452371715164 -5.515622694721880 -1.228010159816646 22.000000000000000
-0.586249993884472 -5.507779348984572 -1.328568247238182 8.000000000000000
-0.596414188244780 -5.505646295297032 -1.431973808120243 11.000000000000000
-0.605869995406980 -5.493990018404635 -1.533196408271223 16.000000000000000
-0.616347596800014 -5.495958439395505 -1.638407907804456 7.000000000000000
-0.628121213720164 -5.507211961324631 -1.747977160582374 5.000000000000000
-0.639646839042781 -5.512598022389100 -1.856884208790189 17.000000000000000
-0.649242096402912 -5.504645983466988 -1.962589436677757 8.000000000000000
-0.658900414983371 -5.494655766000941 -2.068591853480855 7.000000000000000
-0.669283979694572 -5.490214083314439 -2.177325027160617 13.000000000000000
-0.680103511487971 -5.487256131807608 -2.288172930003662 6.000000000000000
-0.692247103642630 -5.493211668451897 -2.403895903129398 4.000000000000000
-0.704973484195805 -5.500285406579488 -2.522367307263067 7.000000000000000
-0.716542600061601 -5.497861151861775 -2.638122335515560 7.000000000000000
-0.727117318494092 -5.482312585364938 -2.749277199828198 6.000000000000000
-0.738228500124932 -5.475062806595801 -2.866510412580881 7.000000000000000
-0.752931746100195 -5.486272691326103 -2.995583706412484 5.000000000000000
-0.583171821927732 -5.516475843907602 -1.124279720395859 9.000000000000000
-0.593192966757757 -5.510314599082001 -1.225369790444049 6.000000000000000
-0.602682454065925 -5.498610500857575 -1.324915249900863 23.000000000000000
-0.613406544821868 -5.500351058865410 -1.429169912924234 12.000000000000000
-0.624707579759730 -5.504025252356294 -1.534584784629045 5.000000000000000
-0.636234983236539 -5.513543136660614 -1.642251846182140 10.000000000000000
-0.647331607452453 -5.517098236190849 -1.749732791660728 15.000000000000000
-0.657244239471926 -5.507335831295104 -1.853749187731186 7.000000000000000
-0.665601469595221 -5.488167318449134 -1.955374687465176 11.000000000000000
-0.676740646872850 -5.489423471188741 -2.065300958899760 11.000000000000000
-0.689113763488054 -5.499771080683622 -2.179811065447517 6.000000000000000
-0.700562859839509 -5.500388533002329 -2.292365081183617 7.000000000000000
-0.712433499536315 -5.502579775269020 -2.406731876536891 9.000000000000000
-0.723459685125651 -5.495109666068685 -2.518753628657715 5.000000000000000
-0.734224652595792 -5.485541177852206 -2.630995276622221 6.000000000000000
-0.746352216907439 -5.480723820361217 -2.747289714107798 6.000000000000000
-0.759557905536259 -5.487533422911770 -2.871871988888711 3.000000000000000
-0.774001353596353 -5.495106978837971 -2.999264109036956 7.000000000000000
-0.598912356311834 -5.503322078182648 -1.120113428740334 12.000000000000000
-0.609472689338450 -5.501078140674236 -1.221845461237490 21.000000000000000
-0.620803575993793 -5.504860332954153 -1.324964767343343 6.000000000000000
-0.632575016131971 -5.514249164599266 -1.431338184945099 6.000000000000000
-0.644058707932573 -5.517834069972464 -1.537007337974461 18.000000000000000
-0.653978421574305 -5.512021212495717 -1.640389702818336 10.000000000000000
-0.662953772002477 -5.496622637541618 -1.741851852670805 8.000000000000000
-0.673886284111387 -5.494493157787731 -1.848057957724908 15.000000000000000
-0.685119689399222 -5.497844053612766 -1.957472291847898 7.000000000000000
-0.696432617003384 -5.499014102519294 -2.067578658786104 6.000000000000000
-0.708535704247026 -5.505577333455443 -2.180800628473137 12.000000000000000
-0.719676074090726 -5.502462587531222 -2.291939750778925 7.000000000000000
-0.730269211992435 -5.493697684252848 -2.401581277419284 5.000000000000000
-0.741913734720361 -5.489882746428771 -2.515115790713616 8.000000000000000
-0.754283228367154 -5.491071719553591 -2.632429330888635 5.000000000000000
-0.768058955835635 -5.496824120040866 -2.754165215396059 4.000000000000000
-0.779980805683677 -5.492907874103526 -2.873516491927012 7.000000000000000
-0.793628370442877 -5.493429387226045 -2.997207296332613 6.000000000000000
-0.616318774819935 -5.505712761194904 -1.119098815574407 11.000000000000000
-0.628350484674825 -5.515084554174191 -1.223468033386317 5.000000000000000
-0.640310640361460 -5.522651454776317 -1.327772266955799 13.000000000000000
-0.650473186379364 -5.516548807727962 -1.430478900842887 17.000000000000000
-0.659827285738934 -5.500960148269987 -1.530872104435844 7.000000000000000
-0.670322228074288 -5.499024836444002 -1.635105488560765 12.000000000000000
-0.680791884218729 -5.495042947099136 -1.739954430414189 13.000000000000000
-0.692818311612554 -5.500430545948559 -1.848675903529434 6.000000000000000
-0.704226164789288 -5.503721808364824 -1.958205240764000 8.000000000000000
-0.715225151986674 -5.501112841423114 -2.067029387283922 13.000000000000000
-0.726537157139451 -5.500252939051087 -2.177374879471975 7.000000000000000
-0.738314917725342 -5.500817293848100 -2.289959864706342 8.000000000000000
-0.748047812483956 -5.484767117628529 -2.396409425707303 7.000000000000000
-0.761836122672595 -5.495429646435229 -2.516410682554012 3.000000000000000
-0.774384095023083 -5.496544240471175 -2.633831180223676 6.000000000000000
-0.788357748248353 -5.502216786807378 -2.755670243652509 7.000000000000000
-0.799422271513232 -5.491192346160156 -2.871451662361871 4.000000000000000
-0.811184898274459 -5.477767137650779 -2.987525773359059 6.000000000000000
-0.635086926829785 -5.519739639152334 -1.120429788670560 7.000000000000000
-0.646409393880686 -5.521273971908395 -1.223336675911291 24.000000000000000
-0.656710496765943 -5.513337820963069 -1.324047353902273 12.000000000000000
-0.666991307993075 -5.507259618802148 -1.426603689246911 7.000000000000000
-0.677376571198718 -5.499353543450735 -1.528978608394149 20.000000000000000
-0.687061813792077 -5.489792383387559 -1.630935207581433 8.000000000000000
-0.700067218925438 -5.504770950625656 -1.741625295559846 5.000000000000000
-0.712278886826000 -5.510076579176888 -1.850527189475538 13.000000000000000
-0.722883623103398 -5.505803668263536 -1.957577389015489 11.000000000000000
-0.733043779523736 -5.495726164242021 -2.063661005341537 7.000000000000000
-0.744006359484699 -5.491188504712052 -2.172465728789418 14.000000000000000
-0.755433364783943 -5.488128681966862 -2.283380827094746 6.000000000000000
-0.769328497498936 -5.501240172730212 -2.402330998192235 4.000000000000000
-0.782313283912106 -5.504525973157998 -2.519324460374973 8.000000000000000
-0.794527034286024 -5.501958547239703 -2.635200739269141 6.000000000000000
-0.806094874583943 -5.489818729579721 -2.748265884066750 6.000000000000000
-0.817807432265076 -5.482393445727566 -2.865685452029834 6.000000000000000
-0.832859058001544 -5.489908680559007 -2.993010602825796 3.000000000000000
-0.652103309067290 -5.518132766324188 -1.118568749573691 26.000000000000000
-0.662644157842888 -5.511895068228506 -1.219742381371973 6.000000000000000
-0.673054707159306 -5.503980060627957 -1.320303318703914 13.000000000000000
-0.683453540979382 -5.497925955336177 -1.422709192689610 18.000000000000000
-0.694434990849613 -5.493871775094370 -1.525997694069402 7.000000000000000
-0.708143486394760 -5.514768018345384 -1.636912492014040 7.000000000000000
-0.719408871508731 -5.514441868056926 -1.743262963357906 17.000000000000000
-0.729810523446584 -5.504614819581309 -1.847294315455028 9.000000000000000
-0.739041085017720 -5.489136153600468 -1.950278585713359 10.000000000000000
-0.750830095571608 -5.490290316412769 -2.060269499140368 11.000000000000000
-0.763467946255705 -5.496833396058966 -2.173370495569257 6.000000000000000
-0.777119989469118 -5.508356918448630 -2.290490030745958 6.000000000000000
-0.788642053217008 -5.503109610324104 -2.401866842407413 9.000000000000000
-0.800756859569554 -5.499138069811102 -2.515605084469050 5.000000000000000
-0.811537625048673 -5.485857377838053 -2.626265697363875 7.000000000000000
-0.825348912687068 -5.488009095087992 -2.746164478788144 5.000000000000000
-0.839354853140106 -5.494623691921813 -2.870910990379478 3.000000000000000
-0.853543460535342 -5.495025734177342 -2.994663877917873 7.000000000000000
-0.668168056348319 -5.508691903447089 -1.115107600804603 8.000000000000000
-0.678345011865016 -5.498594867935275 -1.215272201275791 25.000000000000000
-0.689827561016334 -5.498439658140316 -1.317465468941048 13.000000000000000
-0.703290429199863 -5.515452686065043 -1.425750412931299 5.000000000000000
-0.714436309141645 -5.511290824752165 -1.529362679413443 12.000000000000000
-0.725381422488004 -5.509239546350764 -1.633819271778282 15.000000000000000
-0.735780386486174 -5.501353807526931 -1.737696609673621 8.000000000000000
-0.747821048105012 -5.502866103501845 -1.845300064201362 15.000000000000000
-0.759218318714233 -5.502331087255798 -1.953582389034862 7.000000000000000
-0.771185776518282 -5.503372803916363 -2.063817889061348 5.000000000000000
-0.784545607955431 -5.513485491899988 -2.178615597035461 11.000000000000000
-0.796302054583677 -5.510212124687436 -2.289948772093685 7.000000000000000
-0.806372544700868 -5.494022957726438 -2.396618254776401 5.000000000000000
-0.818092537829475 -5.486489650262667 -2.508565310512837 8.000000000000000
-0.832772395008221 -5.498311847191901 -2.630999994135587 5.000000000000000
-0.847868425874827 -5.507409444661382 -2.754671730217442 5.000000000000000
-0.859346206831170 -5.496253804878872 -2.870595445053065 7.000000000000000
-0.872610311864738 -5.489646255981543 -2.990598473184783 5.000000000000000
-0.684661616264641 -5.503099876880196 -1.112414588314569 28.000000000000000
-0.695927833440007 -5.500759734200392 -1.214208712389729 6.000000000000000
-0.709547907572017 -5.516013454257958 -1.320148983753490 6.000000000000000
-0.720730035529809 -5.513706830823616 -1.423792540932211 18.000000000000000
-0.732520023831136 -5.513354751066928 -1.528449476945236 13.000000000000000
-0.741560797130284 -5.496056634731706 -1.628449892376518 9.000000000000000
-0.753625431064589 -5.499569913677337 -1.735694522151803 15.000000000000000
-0.765300292537995 -5.497306607049049 -1.842020502148692 6.000000000000000
-0.778958259029894 -5.511728459007572 -1.955523823648061 6.000000000000000
-0.791099677410752 -5.512681787330685 -2.065938240130418 13.000000000000000
-0.801978954076757 -5.504266333847662 -2.173629656424750 7.000000000000000
-0.813334828346497 -5.497372261201662 -2.283297763930298 8.000000000000000
-0.825136705660376 -5.492153140074993 -2.394516089512935 6.000000000000000
-0.839195010436774 -5.499020230341617 -2.513034866600870 4.000000000000000
-0.853544421491561 -5.507129046655242 -2.633987012881187 7.000000000000000
-0.866622510583750 -5.501941322125494 -2.750736467209734 6.000000000000000
-0.878230934562448 -5.490805272477944 -2.866584009811326 4.000000000000000
-0.891078415581729 -5.480736451990085 -2.984614414143223 6.000000000000000
-0.702612222428382 -5.509134463456849 -1.112056441214323 5.000000000000000
-0.715034599949210 -5.514499833883016 -1.215681332825205 11.000000000000000
-0.726838410465998 -5.514232277598310 -1.318182200518659 23.000000000000000
-0.738161885543072 -5.511911924169132 -1.421810103682497 10.000000000000000
-0.748539583040223 -5.500078120601847 -1.523274486065733 18.000000000000000
-0.759235174551102 -5.494238159712928 -1.626440590393222 11.000000000000000
-0.772523706923105 -5.505298050868165 -1.736051984633226 5.000000000000000
-0.786497268112412 -5.518011046449875 -1.847528115755989 10.000000000000000
-0.797142804453115 -5.509860671778098 -1.953458145674393 12.000000000000000
-0.808354170835547 -5.503376769417327 -2.061075366969991 7.000000000000000
-0.819354596811571 -5.495000198570613 -2.168623264283742 13.000000000000000
-0.831392769355845 -5.491805074025224 -2.279666443138912 6.000000000000000
-0.846683201595439 -5.508386070513046 -2.400298826045195 4.000000000000000
-0.860388420019582 -5.511487464171282 -2.517466523904346 9.000000000000000
-0.871550950812373 -5.498022537230946 -2.628399345654812 5.000000000000000
-0.883631831281045 -5.485796903990252 -2.741467328807307 6.000000000000000
-0.897656153552556 -5.488814063617697 -2.864379445014543 5.000000000000000
-0.912377268939099 -5.489158373536091 -2.988070291904433 4.000000000000000
-0.721619429642972 -5.522894997881036 -1.113236830662003 21.000000000000000
-0.733200878894355 -5.520433666129054 -1.215412937670767 15.000000000000000
-0.743079589355191 -5.504687415829248 -1.314348955907384 9.000000000000000
-0.754006185297760 -5.498548677927084 -1.416834891227286 24.000000000000000
-0.766075129857277 -5.498222367171195 -1.521254645531952 10.000000000000000
-0.780127406905404 -5.515175657363435 -1.631151341053570 4.000000000000000
-0.793091451799591 -5.522310277102230 -1.739951479925089 15.000000000000000
-0.803449163454886 -5.508588802344280 -1.842936474334060 9.000000000000000
-0.813660819326463 -5.496739140632027 -1.947397979596589 10.000000000000000
-0.826108378529721 -5.497735034666146 -2.057580723939505 11.000000000000000
-0.839481898284703 -5.504108023222411 -2.170861813002152 6.000000000000000
-0.853381450281505 -5.511790356887366 -2.286633149860041 7.000000000000000
-0.865492542640145 -5.506404187184061 -2.398136690431998 8.000000000000000
-0.877074481228785 -5.495083176339263 -2.508708281066264 4.000000000000000
-0.888341701607205 -5.481725111034159 -2.619377565041579 7.000000000000000
-0.904030292123534 -5.490849892496186 -2.742792862940556 5.000000000000000
-0.920590750286150 -5.507817197609455 -2.873127631729075 4.000000000000000
-0.933151474954783 -5.494042367097309 -2.989599102443253 8.000000000000000
-0.737593611491754 -5.513268999592967 -1.109686713633054 9.000000000000000
-0.747721388071586 -5.499205295833684 -1.209154183756172 12.000000000000000
-0.760330010538057 -5.502811613896887 -1.312336320093565 20.000000000000000
-0.772462951423475 -5.504336578468115 -1.416783617782213 6.000000000000000
-0.785780710759460 -5.511595442070561 -1.523433082726435 7.000000000000000
-0.797858863497669 -5.513249805667663 -1.629083734570964 15.000000000000000
-0.809332686208713 -5.509031095594555 -1.734295531565038 8.000000000000000
-0.820903868084843 -5.502877352471132 -1.839580844383755 15.000000000000000
-0.832921876736225 -5.502238802434824 -1.947928465892628 7.000000000000000
-0.846108489874598 -5.506877803621538 -2.059610953394488 5.000000000000000
-0.859100563268221 -5.509473133105753 -2.171614150298826 11.000000000000000
-0.872038126469355 -5.509770547458793 -2.284460991205461 6.000000000000000
-0.881378558191808 -5.486227106320896 -2.388051083002535 5.000000000000000
-0.896001151649938 -5.493034739197256 -2.506504995050700 7.000000000000000
-0.909753396226827 -5.493943190592083 -2.623980368943454 4.000000000000000
-0.926255320899482 -5.506459970742291 -2.749386417206246 6.000000000000000
-0.938276306612585 -5.495188208310683 -2.865373994384095 6.000000000000000
-0.950953051837751 -5.481497372137569 -2.981647003327087 5.000000000000000
-0.753511804401539 -5.503600479233758 -1.106118314469786 23.000000000000000
-0.765345007109340 -5.501170116338723 -1.207986080712276 11.000000000000000
-0.779751834984090 -5.516306726184470 -1.313972289848958 5.000000000000000
-0.792061600990356 -5.517744363956075 -1.418675281474785 12.000000000000000
-0.804461920145253 -5.517271978371080 -1.523466749134183 13.000000000000000
-0.814457737652964 -5.503677550920103 -1.624748598730066 8.000000000000000
-0.826059269547462 -5.499486846375937 -1.729811119669647 16.000000000000000
-0.838898087168507 -5.500872818738197 -1.837457001241746 6.000000000000000
-0.852800971198230 -5.511413466700667 -1.949747702292247 6.000000000000000
-0.865591844495890 -5.512253918074749 -2.060221226327840 13.000000000000000
-0.878173286078148 -5.511099356300844 -2.170884512036310 6.000000000000000
-0.888321839314414 -5.493079277453854 -2.276204815345949 9.000000000000000
-0.900703658580475 -5.487773380675245 -2.387421253522708 6.000000000000000
-0.917317077576107 -5.505326064728671 -2.510839361688907 4.000000000000000
-0.931255297420903 -5.506096662990804 -2.628544675067752 7.000000000000000
-0.944949174694704 -5.500777245583913 -2.745345288248830 5.000000000000000
-0.955878223276111 -5.482512677930074 -2.857601714480611 5.000000000000000
-0.968055927757500 -5.465433158224869 -2.971788033105609 6.000000000000000
-0.929894703461717 -5.171102707140007 -2.930400763152223 6.000000000000000
-0.935240171810154 -5.125034833116281 -3.024552823208300 20.000000000000000
-0.771550321997113 -5.509431071171597 -1.105650655783799 7.000000000000000
-0.785737498059581 -5.522433917158714 -1.211034357381379 5.000000000000000
-0.797590977763597 -5.518181829012265 -1.312822125860521 22.000000000000000
-0.810060013111562 -5.519584980226102 -1.417575543390937 10.000000000000000
-0.819769944340346 -5.499992783264138 -1.517152801269088 14.000000000000000
-0.830999185958934 -5.494061014994621 -1.620394370655450 14.000000000000000
-0.845046591387024 -5.505000823453532 -1.730053811926412 5.000000000000000
-0.859808105110640 -5.517584952701672 -1.841571696162311 9.000000000000000
-0.871565726331103 -5.513068469945805 -1.948895387232049 11.000000000000000
-0.882143472558083 -5.499045082695209 -2.053879760918053 7.000000000000000
-0.894266902944842 -5.494270648054023 -2.162882510038276 14.000000000000000
-0.908117993384529 -5.498266820832617 -2.277012006341303 6.000000000000000
-0.922475231684327 -5.503766815110163 -2.393067966402351 5.000000000000000
-0.936887151449692 -5.506762346719316 -2.510216509029220 8.000000000000000
-0.947303755359904 -5.486081920159059 -2.617751852331483 4.000000000000000
-0.960508481990346 -5.477362723053645 -2.732459891037187 7.000000000000000
-0.957183482226305 -5.378686160022364 -2.802344549361658 3.000000000000000
-0.932346886422436 -5.157768954886835 -2.803441579805784 15.000000000000000
-0.942841537790864 -5.138047785153290 -2.910655388756550 20.000000000000000
-0.953868549993246 -5.122912448947841 -3.022330033227515 21.000000000000000
-0.790740455198717 -5.522976251744470 -1.106709923683134 8.000000000000000
-0.802889912901489 -5.520421407148592 -1.208957929481669 22.000000000000000
-0.813738557971382 -5.508449282520837 -1.308898797144507 8.000000000000000
-0.825198772047279 -5.502202256660203 -1.411530131954335 21.000000000000000
-0.837877221917101 -5.501752335459781 -1.516082781465225 13.000000000000000
-0.852175017624517 -5.514763886551944 -1.624968004275519 4.000000000000000
-0.865849542832061 -5.521781761033129 -1.733820853692620 14.000000000000000
-0.877846063272151 -5.515471996203336 -1.839389830431378 9.000000000000000
-0.887938128622429 -5.499754863592180 -1.942746077111640 10.000000000000000
-0.899825618424569 -5.493201535168903 -2.050286504478056 11.000000000000000
-0.915754492271912 -5.510508655613716 -2.167891156467532 5.000000000000000
-0.928570181467523 -5.507048167506619 -2.279298554128302 7.000000000000000
-0.941260979647418 -5.501571959959870 -2.390798556461102 6.000000000000000
-0.953350991099905 -5.490165424596217 -2.501373522354680 5.000000000000000
-0.963847190521132 -5.469593405539006 -2.608647651832026 7.000000000000000
-0.929738855720773 -5.195884419650941 -2.590901533789277 9.000000000000000
-0.938681608065017 -5.169811581445250 -2.692422896024143 18.000000000000000
-0.949471708124993 -5.148678262879950 -2.797447340133090 19.000000000000000
-0.961986800376057 -5.139320249218998 -2.910365058179097 20.000000000000000
-0.973779220526693 -5.127538096984493 -3.024091779963543 21.000000000000000
-0.807745542897518 -5.520932141291464 -1.104626375379492 14.000000000000000
-0.819459003049994 -5.514493522924284 -1.206011661612950 8.000000000000000
-0.829829141239163 -5.498673894900855 -1.304957085074494 25.000000000000000
-0.843167638100206 -5.503946262132946 -1.410382883338172 10.000000000000000
-0.857779582010463 -5.514901350101891 -1.518134805387949 5.000000000000000
-0.870494838554397 -5.516429653787096 -1.623914594696573 16.000000000000000
-0.883141427086754 -5.515860890817769 -1.730446142736082 7.000000000000000
-0.894656039590847 -5.505807180358018 -1.834683041710943 14.000000000000000
-0.906070458305984 -5.497580467183909 -1.940527075673808 8.000000000000000
-0.919950220652327 -5.502120026639640 -2.052194631113903 5.000000000000000
-0.934237896495754 -5.508294521497165 -2.165630397181269 11.000000000000000
-0.946574657554974 -5.501166645693313 -2.275510042602768 6.000000000000000
-0.956875087752109 -5.481210525107350 -2.380635471022768 6.000000000000000
-0.955698676442752 -5.394460950240648 -2.456511163454040 7.000000000000000
-0.933510331072667 -5.192884294848887 -2.475498972347269 15.000000000000000
-0.946656880494278 -5.186637624505892 -2.585152781301857 20.000000000000000
-0.957609635900874 -5.171124411573683 -2.692010420718417 19.000000000000000
-0.969146477867634 -5.153413619271239 -2.798967519130307 20.000000000000000
-0.981147479493004 -5.140537684360764 -2.910045693653523 21.000000000000000
-0.993071844415988 -5.128706689440278 -3.023817455720297 21.000000000000000
-0.822421914882487 -5.503316009807617 -1.099417614064916 11.000000000000000
-0.834821913045915 -5.500789090342119 -1.201355799532964 21.000000000000000
-0.849421623522772 -5.511950655694767 -1.306471153404452 5.000000000000000
-0.862949569707642 -5.517132396747199 -1.412150189216397 8.000000000000000
-0.876559390648337 -5.520364258217285 -1.518053388805332 14.000000000000000
-0.887608151169527 -5.510457612382677 -1.620602564514579 7.000000000000000
-0.899167064352364 -5.502350029694346 -1.724685113609606 16.000000000000000
-0.912029397650892 -5.499846695366629 -1.831205260282236 7.000000000000000
-0.927326317675387 -5.513983363591264 -1.944853044984472 6.000000000000000
-0.940139297090138 -5.510978042738167 -2.054067943015681 13.000000000000000
-0.951439820539424 -5.498677197472251 -2.160455356143844 6.000000000000000
-0.959421115045503 -5.466044556308927 -2.259630950498418 9.000000000000000
-0.933023221630942 -5.239916513133746 -2.274573938847824 9.000000000000000
-0.941166289585722 -5.208972281105703 -2.370825550313620 19.000000000000000
-0.952198143308353 -5.194236323120283 -2.474964992774239 20.000000000000000
-0.964830510769876 -5.184408888212667 -2.582903514517921 20.000000000000000
-0.975231576285884 -5.165383598361957 -2.687927018054661 19.000000000000000
-0.987532179698149 -5.151158287333724 -2.796691705013927 21.000000000000000
-0.999655600936853 -5.138267631496272 -2.907754877329463 21.000000000000000
-1.011709147611683 -5.126422580612148 -3.021511563047332 21.000000000000000
-0.840545383621766 -5.508941296606219 -1.098839955871065 13.000000000000000
-0.854893131298563 -5.517958467783426 -1.203426807859836 5.000000000000000
-0.869101471615034 -5.525166803877879 -1.307948936832967 15.000000000000000
-0.880985053348060 -5.518767956354624 -1.410943506909726 13.000000000000000
-0.891673526035954 -5.502906338596905 -1.511660064828271 8.000000000000000
-0.904687786576136 -5.504438752430555 -1.617268694299354 16.000000000000000
-0.918881056393256 -5.511416756339262 -1.725991582292458 5.000000000000000
-0.932538548377462 -5.512576157238007 -1.833938921131540 9.000000000000000
-0.945501211168467 -5.511699213707130 -1.942575413542332 11.000000000000000
-0.955886745981154 -5.493878224650691 -2.046260633831021 6.000000000000000
-0.957561400118782 -5.426555407851275 -2.130736156947320 8.000000000000000
-0.938742282370825 -5.244883331775992 -2.166902342826640 17.000000000000000
-0.948274115290029 -5.223194497337746 -2.266053716320864 18.000000000000000
-0.959096610590471 -5.206722600049102 -2.368580473129799 20.000000000000000
-0.970235794073638 -5.191973464392451 -2.472706624115150 20.000000000000000
-0.983664231218340 -5.185659062893319 -2.582386641007506 20.000000000000000
-0.994838487686103 -5.170088523577726 -2.689279651094011 19.000000000000000
-1.006585167071493 -5.152316115419193 -2.796270542744983 20.000000000000000
-1.018834150951753 -5.139376312837140 -2.907378903394422 19.000000000000000
-1.030336688359800 -5.124086017245578 -3.019179490604709 21.000000000000000
-0.858707534716735 -5.514512748637347 -1.098232450320461 6.000000000000000
-0.872632509695859 -5.519614035417493 -1.202093758008969 23.000000000000000
-0.885164819658183 -5.515245612280261 -1.303934460877084 9.000000000000000
-0.897164997377565 -5.508866574490608 -1.406776468363266 13.000000000000000
-0.908570062637773 -5.496839371912544 -1.508390321060999 15.000000000000000
-0.923004069987279 -5.505951935134149 -1.616137610099908 4.000000000000000
-0.938658785330562 -5.520423871281940 -1.727263722221446 12.000000000000000
-0.951197460810523 -5.514004643937220 -1.832899390906765 10.000000000000000
-0.958457377203958 -5.479583560627405 -1.929784303538921 7.000000000000000
-0.936758369837343 -5.280745423743094 -1.965491166644113 10.000000000000000
-0.945367862585981 -5.255285508485676 -2.062142048620820 20.000000000000000
-0.955151755488723 -5.235314317549147 -2.161644078115479 19.000000000000000
-0.966094679875327 -5.220907205519484 -2.263796152676147 17.000000000000000
-0.978364965709816 -5.211600963676392 -2.369574094490176 19.000000000000000
-0.989619455593331 -5.196778709488243 -2.473811710240063 21.000000000000000
-1.001830999603317 -5.183326461909321 -2.580084773317424 20.000000000000000
-1.013799644296743 -5.171239258408160 -2.688782403528041 20.000000000000000
-1.026342337179160 -5.156882364247129 -2.797699356298057 21.000000000000000
-1.038719998141716 -5.143858993361805 -2.908913099745566 20.000000000000000
-1.049649414876862 -5.125091122482621 -3.018820480270150 21.000000000000000
-0.878139774544282 -5.527783037153102 -1.099136584108517 26.000000000000000
-0.889141217138017 -5.513496243434436 -1.199054239649182 6.000000000000000
-0.899911947196666 -5.497593130264641 -1.298086384398098 23.000000000000000
-0.913922631977792 -5.502749171838478 -1.403567231944990 12.000000000000000
-0.929283392941834 -5.513572559329334 -1.511361640578815 4.000000000000000
-0.943924690257922 -5.522563206933730 -1.619421441300358 15.000000000000000
-0.953929511194207 -5.503004876823999 -1.720259228524603 7.000000000000000
-0.958677676066541 -5.451725813117871 -1.810690136935623 6.000000000000000
-0.941354685172151 -5.280000689872894 -1.858068909283563 19.000000000000000
-0.952306174251623 -5.267350161148971 -1.959115930803010 21.000000000000000
-0.962987220493745 -5.252971771961522 -2.059883291873879 21.000000000000000
-0.973534684878385 -5.236634271076748 -2.160878462182278 19.000000000000000
-0.984587393304947 -5.222186221820049 -2.263080804915681 18.000000000000000
-0.996300662598664 -5.209247125039002 -2.367275518392052 21.000000000000000
-1.009042739518164 -5.201526719663637 -2.474885155810452 20.000000000000000
-1.020682219764589 -5.184469572015564 -2.579512175412472 20.000000000000000
-1.032077750345850 -5.168840482798640 -2.686439945471138 19.000000000000000
-1.045437275419909 -5.157928692079503 -2.797218709823315 20.000000000000000
-1.057235499863550 -5.141427874217958 -2.906539611297751 23.000000000000000
-1.069684136385717 -5.129433066218305 -3.020429815034778 24.000000000000000
-0.893263859702418 -5.513868968233886 -1.094619878358203 7.000000000000000
-0.904981804148208 -5.503474069791667 -1.195155679102684 29.000000000000000
-0.918401261427921 -5.502962109266240 -1.297663726466779 8.000000000000000
-0.933884592308449 -5.515711267393534 -1.405209159875100 5.000000000000000
-0.947492652279033 -5.515015813198900 -1.510123920095076 15.000000000000000
-0.959020950951624 -5.505033162780983 -1.612682452411960 7.000000000000000
-0.941822423641951 -5.331185246319484 -1.665031648873574 10.000000000000000
-0.948319199166905 -5.292139390748559 -1.756213929274818 22.000000000000000
-0.958076351401177 -5.273944319376101 -1.854503982472500 21.000000000000000
-0.969812238949674 -5.264999590790326 -1.956845300518445 21.000000000000000
-0.981967311094484 -5.257946809758518 -2.060475562993188 20.000000000000000
-0.992622242300373 -5.241543563916102 -2.161586952139622 20.000000000000000
-1.003094904767199 -5.223411787643077 -2.262337266797643 18.000000000000000
-1.014924919157021 -5.210428773598740 -2.366580529736616 20.000000000000000
-1.027802895883119 -5.202661150145013 -2.474235672684808 19.000000000000000
-1.039548077198700 -5.185558251706116 -2.578910896745967 21.000000000000000
-1.051766069000369 -5.173376579487533 -2.687701416249468 20.000000000000000
-1.063832721581529 -5.155459884821498 -2.794833325350322 25.000000000000000
-1.075740732590289 -5.138944630017702 -2.904140142255247 24.000000000000000
-1.089038046783077 -5.130325151423523 -3.020010591592372 25.000000000000000
-0.909586099749229 -5.507663212492679 -1.091624049248550 25.000000000000000
-0.923997824373005 -5.512698970512683 -1.195422135089676 6.000000000000000
-0.938889035755756 -5.519799617393768 -1.299924444864873 8.000000000000000
-0.951954189531719 -5.517141026851157 -1.403895334727187 16.000000000000000
-0.958390082703603 -5.474557708816921 -1.497411881283372 6.000000000000000
-0.945125489177750 -5.324734783997740 -1.558307187235903 17.000000000000000
-0.953668803513582 -5.298707755397676 -1.653371082393028 21.000000000000000
-0.966287991871911 -5.293506588491562 -1.755185321941978 22.000000000000000
-0.976827396057397 -5.278995137053641 -1.854836537616115 20.000000000000000
-0.988694107401118 -5.269985837763529 -1.957293343309106 21.000000000000000
-0.999591546930151 -5.255530519717484 -2.058164156626935 21.000000000000000
-1.010344832142294 -5.239114644468542 -2.159263083155598 20.000000000000000
-1.022323530140158 -5.228196950866247 -2.263129524060576 19.000000000000000
-1.033563732604275 -5.211556571932301 -2.365857161409866 20.000000000000000
-1.045862671842415 -5.200186889825796 -2.471868035015333 20.000000000000000
-1.058428371875085 -5.186592420672874 -2.578280908556815 25.000000000000000
-1.070048417546226 -5.170871531865477 -2.685304449229174 26.000000000000000
-1.082944097730690 -5.156397634604066 -2.794296246828503 26.000000000000000
-1.095694494367669 -5.143257830983350 -2.905583669254910 23.000000000000000
-1.108406073472876 -5.131161398730858 -3.019562000764819 25.000000000000000
-0.927177866413509 -5.509156058516687 -1.090139774038987 4.000000000000000
-0.942417235451314 -5.518009654956894 -1.194820154720703 12.000000000000000
-0.955494751738424 -5.513534704776212 -1.296726971505028 14.000000000000000
-0.947197657472667 -5.388580963748912 -1.369529771418326 7.000000000000000
-0.950047798993443 -5.327608061266911 -1.455615857687578 20.000000000000000
-0.960852401276945 -5.314770848267003 -1.553825438513469 21.000000000000000
-0.972205342183632 -5.303824772410915 -1.653438706511349 22.000000000000000
-0.982881052723411 -5.287343126076629 -1.751651650108415 23.000000000000000
-0.994917273645621 -5.280274281045238 -1.853833632107734 22.000000000000000
-1.006204756799083 -5.267533278613810 -1.954970369619689 21.000000000000000
-1.017915491584434 -5.256730386613294 -2.057262670260867 21.000000000000000
-1.028771658580532 -5.240274903586380 -2.158413261945960 18.000000000000000
-1.039434700563549 -5.222090841442480 -2.259203122117825 19.000000000000000
-1.052940077975820 -5.216213003919241 -2.366730886673868 20.000000000000000
-1.063912068865756 -5.197661778939657 -2.469475074073766 26.000000000000000
-1.077322903376926 -5.187571999178791 -2.577622182399060 28.000000000000000
-1.089055113210622 -5.171804753756323 -2.684693380893486 26.000000000000000
-1.102069565494629 -5.157280164950979 -2.793730118141994 26.000000000000000
-1.114945099926143 -5.144089508726642 -2.905061884084256 24.000000000000000
-1.127043596884715 -5.128554308992488 -3.017091220105179 24.000000000000000
-0.948100863747310 -5.529946798065063 -1.092450988709134 20.000000000000000
-0.960203922826704 -5.519410986033472 -1.193354429262832 9.000000000000000
-0.947002579294087 -5.365226475118499 -1.260156730529129 19.000000000000000
-0.956679268647332 -5.344125047076090 -1.356579617329694 24.000000000000000
-0.966313763523311 -5.321377543260931 -1.452301192075410 23.000000000000000
-0.978608790012438 -5.316108778756702 -1.552639136611059 20.000000000000000
-0.990780539400601 -5.308886501865199 -1.653475743111625 21.000000000000000
-1.001561513241035 -5.292347076070583 -1.751808483140058 23.000000000000000
-1.012309052405367 -5.277786819959257 -1.851500112201592 21.000000000000000
-1.023705154305027 -5.265031410656816 -1.952622851921594 20.000000000000000
-1.036253696919717 -5.257877142645230 -2.056333199768226 20.000000000000000
-1.047212725288382 -5.241381771420004 -2.157535314709862 19.000000000000000
-1.057973110240757 -5.223157333049740 -2.258376490361211 22.000000000000000
-1.070148739984132 -5.210069494723385 -2.362701321467271 29.000000000000000
-1.081950908812871 -5.195085842408423 -2.467056813477665 29.000000000000000
-1.096231470903251 -5.188496908059352 -2.576934690142503 28.000000000000000
-1.108822966513590 -5.176170987521666 -2.685863275907951 27.000000000000000
-1.120457944698595 -5.154652536124371 -2.791264091050575 26.000000000000000
-1.133455376907591 -5.141444759524946 -2.902579661837507 24.000000000000000
-1.146426937733117 -5.129280401148399 -3.016585460886992 25.000000000000000
-0.963753570701366 -5.519724451192956 -1.088616111337227 6.000000000000000
-0.975274351564275 -5.505350261217832 -1.188534576901164 17.000000000000000
-0.961716853755337 -5.351264195527326 -1.255178155828971 25.000000000000000
-0.973540296183763 -5.341660192954788 -1.354290099907935 23.000000000000000
-0.986057016029216 -5.334098888391880 -1.454144631732366 23.000000000000000
-0.997087431141057 -5.321174361058025 -1.552528284405550 21.000000000000000
-1.007252610537621 -5.302618590853426 -1.649974017522934 21.000000000000000
-1.018841450858000 -5.289823771834591 -1.749463506606303 23.000000000000000
-1.030415091137163 -5.278962731280357 -1.850443520270160 21.000000000000000
-1.041924766389233 -5.266168051338013 -1.951617492300049 21.000000000000000
-1.053871561979397 -5.255308472984550 -2.053944396673848 21.000000000000000
-1.065667835585073 -5.242435168996530 -2.156629213162928 31.000000000000000
-1.076525536633939 -5.224170089713201 -2.257521570820747 29.000000000000000
-1.088817717038539 -5.211037059470272 -2.361894312599615 28.000000000000000
-1.101482744356710 -5.199557477638672 -2.467982536529823 28.000000000000000
-1.115153873271074 -5.189367068724049 -2.576218403973330 29.000000000000000
-1.127110219346932 -5.173506197207100 -2.683384463863397 26.000000000000000
-1.139598668999403 -5.155426187667590 -2.790641449044648 26.000000000000000
-1.153487506728604 -5.145585870205097 -2.903930547407548 24.000000000000000
-1.167361812034502 -5.136718199881877 -3.020029227475424 24.000000000000000
-0.978661125442944 -5.505595019890509 -1.084002711483497 24.000000000000000
-0.992346009279087 -5.502804437746200 -1.186190843746741 8.000000000000000
-0.979154554068137 -5.352602354409682 -1.253778447260737 24.000000000000000
-0.991806944136898 -5.346780656894562 -1.353909743158674 23.000000000000000
-1.003029063095816 -5.331568467955038 -1.451814853930308 24.000000000000000
-1.014163658234046 -5.318629787759731 -1.550184909961461 21.000000000000000
-1.025867993688693 -5.307574636520312 -1.649954647040766 21.000000000000000
-1.037574342168206 -5.294719669752536 -1.749561974669605 23.000000000000000
-1.048535043270024 -5.280086050481347 -1.849359230259773 21.000000000000000
-1.060158279314396 -5.267251788498750 -1.950584276404857 23.000000000000000
-1.071478756321304 -5.252690184284664 -2.051530916820822 35.000000000000000
-1.083385484860054 -5.239801313804723 -2.154201031251457 33.000000000000000
-1.095847538667855 -5.228735057216539 -2.258195711941363 30.000000000000000
-1.107500463755278 -5.211950492095143 -2.361058828307976 29.000000000000000
-1.120288747214761 -5.200423662127268 -2.467193315743781 28.000000000000000
-1.134089908917518 -5.190182403157830 -2.575473296394718 29.000000000000000
-1.146930048668196 -5.177758622253270 -2.684493083087362 26.000000000000000
-1.159528486574970 -5.159595654392993 -2.791857154653532 26.000000000000000
-1.172778898464865 -5.146250398599960 -2.903320941650318 25.000000000000000
-1.186015236635713 -5.133946440483563 -3.017473414085712 24.000000000000000
-0.996283482994127 -5.506886559642772 -1.082413802914061 7.000000000000000
-1.012232619391929 -5.515606499592296 -1.187136919607076 6.000000000000000
-0.996605900445546 -5.353889726292399 -1.252351978438100 24.000000000000000
-1.008671409618359 -5.344217192058630 -1.351569676902931 23.000000000000000
-1.020717122738398 -5.332785819858509 -1.450493693493583 24.000000000000000
-1.032694163815670 -5.323588305463705 -1.550016231512151 21.000000000000000
-1.043045061521968 -5.304966156068994 -1.647572481743125 21.000000000000000
-1.054113621435422 -5.288363270057623 -1.745933102100348 23.000000000000000
-1.067417779864853 -5.284865377240944 -1.849545140749028 33.000000000000000
-1.079159627643578 -5.271966657967654 -1.950886479357922 40.000000000000000
