# This PCD file was generated using the MATLAB® pcwrite function
# from Computer Vision Toolbox®.
# .PCD v.7 - Point Cloud Data file format
VERSION .7
FIELDS x y z intensity
SIZE 8 8 8 8
TYPE F F F F
COUNT 1 1 1 1
WIDTH 632
HEIGHT 1
VIEWPOINT 0 0 0 1 0 0 0
POINTS 632
DATA ascii
-5.947533971030142 -4.514298373924873 -1.636669134132393 0.000000000000000
-6.474909999762124 -4.843400139113341 -1.907846845901759 7.000000000000000
-6.165732310943215 -4.543689585137698 -1.936137914432250 3.000000000000000
-6.134586305841582 -4.453770310973344 -2.045650232389046 17.000000000000000
-6.202282512309743 -4.434152872103891 -2.187830876532631 27.000000000000000
-5.591775363151463 -3.936674653988293 -2.080515550698547 7.000000000000000
-5.589103085165714 -3.874415223545449 -2.188051502810286 44.000000000000000
-5.756264226870822 -3.929088790464673 -2.365857862825262 2.000000000000000
-6.578290296795140 -5.630588135935998 -0.604130792583604 5.000000000000000
-6.668621763339451 -5.630541155015037 -0.751059304713918 6.000000000000000
-6.751459944644661 -5.622496464392263 -0.899747811197800 14.000000000000000
-6.851282359971416 -5.626803961340967 -1.052706608976182 10.000000000000000
-6.955226568019154 -5.633671080294982 -1.209792356798666 10.000000000000000
-7.039224252333156 -5.622418039145130 -1.366119071845550 16.000000000000000
-7.093448917488111 -5.586711255380914 -1.517885306598281 4.000000000000000
-5.844039023226328 -4.537726804782031 -1.366315973766871 23.000000000000000
-5.885258690912950 -4.504799806951483 -1.491344641698711 57.000000000000000
-6.608305844967404 -4.985157159049216 -1.803686768524392 5.000000000000000
-6.491131312181855 -4.825611997056527 -1.897774259988886 6.000000000000000
-6.193676961877174 -4.535939405643032 -1.930459893457172 2.000000000000000
-6.178113566182915 -4.457300508983705 -2.045465457044001 18.000000000000000
-6.211490127036406 -4.412720319355973 -2.176020630617317 27.000000000000000
-5.621398798620358 -3.932358754997618 -2.077655931299303 8.000000000000000
-5.606158473806213 -3.861313994037463 -2.180629589366622 48.000000000000000
-5.792541314641594 -3.928277431030109 -2.365934391108451 3.000000000000000
-6.603967939261801 -5.620046792206502 -0.594596931216149 25.000000000000000
-6.691496497085951 -5.617138436707815 -0.741251922322054 7.000000000000000
-6.802137994200389 -5.631679601701841 -0.893576841480853 3.000000000000000
-6.893088845072696 -5.627916411431444 -1.045697394027061 36.000000000000000
-6.975745613475748 -5.616906361716183 -1.199429889483386 9.000000000000000
-7.094020370234452 -5.632473760604256 -1.362246058097867 9.000000000000000
-6.803626403345077 -5.326346067137928 -1.441632871708339 7.000000000000000
-5.889783346816455 -4.545649437280415 -1.364411712393218 21.000000000000000
-5.918672753076189 -4.502839670151634 -1.486877179494740 55.000000000000000
-6.615390430567587 -4.959942771793906 -1.790859333304591 6.000000000000000
-6.488490342111737 -4.793888281048719 -1.882228527343712 5.000000000000000
-6.246722681652324 -4.546343440527250 -1.932488825143693 2.000000000000000
-6.212298133276672 -4.453876636689134 -2.042077081905057 14.000000000000000
-6.223748728122348 -4.393496234869695 -2.165304275011084 25.000000000000000
-5.657334218364784 -3.932288369644128 -2.077039652890728 8.000000000000000
-5.620029398644971 -3.846003128222822 -2.171965353330136 47.000000000000000
-5.832014286501566 -3.929423131010027 -2.367201558702802 3.000000000000000
-6.650952127277074 -5.627451734721846 -0.586895880071277 3.000000000000000
-6.747998420869711 -5.631748124626600 -0.735071678616898 10.000000000000000
-6.837551512574981 -5.627979341890770 -0.885289692775382 10.000000000000000
-6.934949595384294 -5.628842629832191 -1.038589792970758 4.000000000000000
-7.036454316616084 -5.632286894281709 -1.195875825776811 14.000000000000000
-7.117875942873151 -5.617762599297913 -1.352334810539599 9.000000000000000
-6.745784781106379 -5.249393805858803 -1.415326237305302 10.000000000000000
-5.938746531163281 -4.555753246623771 -1.363108944462273 18.000000000000000
-5.958380034918316 -4.505466463819080 -1.483891944478567 54.000000000000000
-6.625498593781225 -4.937068859817292 -1.778882642904071 6.000000000000000
-6.457425150816044 -4.741465656619291 -1.858585442939922 5.000000000000000
-6.290457400098689 -4.549671719507126 -1.931484647171887 2.000000000000000
-6.255959956414249 -4.457034324336820 -2.041693918153474 9.000000000000000
-6.235930529395318 -4.374244770951536 -2.154578640096151 8.000000000000000
-5.699627451231644 -3.936411711039848 -2.078637476414539 6.000000000000000
-5.636997803140826 -3.832795724416510 -2.164494560464410 46.000000000000000
-5.862098858814362 -3.924061001905601 -2.364559625556304 14.000000000000000
-6.682750126040064 -5.621792421260140 -0.577758362270551 12.000000000000000
-6.767815862842376 -5.615541367005966 -0.724803147139862 5.000000000000000
-6.882230441150650 -5.631690274060558 -0.878102962044331 39.000000000000000
-6.970678541160332 -5.624591506912051 -1.030469337816345 12.000000000000000
-7.069377896765078 -5.625153109749755 -1.187473218477793 5.000000000000000
-7.182163168315015 -5.634717762252970 -1.349989616052687 8.000000000000000
-6.743703952387047 -5.216274394147469 -1.400906295053593 10.000000000000000
-5.981560395662595 -4.560851990075334 -1.360257460066507 18.000000000000000
-5.995014752574138 -4.505555131445079 -1.480036173182045 54.000000000000000
-6.644940195746312 -4.921165706641822 -1.769416254793497 6.000000000000000
-6.435509633612081 -4.696148106857115 -1.837766229461309 5.000000000000000
-6.346881013887475 -4.561864721611023 -1.934217065707847 3.000000000000000
-6.296543132136127 -4.457757785248066 -2.040181392231985 7.000000000000000
-8.525504418784937 -5.942393161954169 -2.925295525932173 19.000000000000000
-5.802046606815817 -3.981542863103273 -2.101881919045044 6.000000000000000
-5.657086651745899 -3.821666095793719 -2.158202693654883 43.000000000000000
-5.866928128739771 -3.901762505952068 -2.351720153281145 8.000000000000000
-6.732927703356231 -5.631365497734643 -0.570108035640626 4.000000000000000
-6.830637543610777 -5.634787738735244 -0.719036777372263 9.000000000000000
-6.905359710043495 -5.617611740345699 -0.868090784214544 12.000000000000000
-7.018830262352185 -5.630134993929726 -1.024078951261593 8.000000000000000
-7.117862303350049 -5.630186709927160 -1.181582769808321 12.000000000000000
-7.221641966995613 -5.631893024338027 -1.342834413820410 9.000000000000000
-6.747723577237124 -5.188022867510559 -1.387811677204703 17.000000000000000
-6.002489084943307 -4.549106919669086 -1.352351662310990 20.000000000000000
-6.031697772004575 -4.505480281072784 -1.476093975348231 54.000000000000000
-6.658029481584396 -4.900559560123769 -1.758255789136648 6.000000000000000
-6.425970380712263 -4.660147799846460 -1.820621638285924 6.000000000000000
-6.384478440644361 -4.560242680131425 -1.931067512868230 5.000000000000000
-6.340351307659847 -4.460524169131946 -2.039589525381480 8.000000000000000
-8.289755307681590 -5.741405955564574 -2.824712125539970 1.000000000000000
-6.161433856957518 -4.201105610337804 -2.217170376206087 9.000000000000000
-5.673982617534885 -3.808335674281873 -2.150673533548039 38.000000000000000
-5.868486758608416 -3.877381812167672 -2.337630733608073 8.000000000000000
-6.755579564335652 -5.617732121676180 -0.560041569009089 10.000000000000000
-6.878202416485093 -5.641086799517628 -0.711510532716540 19.000000000000000
-6.962504410787569 -5.630991331265983 -0.862255737569193 11.000000000000000
-7.045309521220101 -5.618109392640657 -1.014438072298252 11.000000000000000
-7.169546644644170 -5.637449811097677 -1.176085259505568 6.000000000000000
-7.242384997732731 -5.614345143882025 -1.332136685923848 4.000000000000000
-6.767301908226385 -5.171780956301288 -1.377929832377125 6.000000000000000
-6.073714817684959 -4.575194198596232 -1.355640940133319 34.000000000000000
-6.071580725069539 -4.507581993365159 -1.472829953543254 53.000000000000000
-6.655244385502390 -4.868370859897293 -1.742949035325424 6.000000000000000
-6.447883189506614 -4.647042780256368 -1.812429246328018 6.000000000000000
-6.415783668816367 -4.553956579072633 -1.925928189437572 4.000000000000000
-6.377892039820866 -4.458655679916537 -2.036864908710850 17.000000000000000
-8.258998923964615 -5.683748304276863 -2.794710358441672 1.000000000000000
-6.157250631241238 -4.171340397075584 -2.200845282114277 21.000000000000000
-5.687662464135419 -3.792830450851769 -2.141921769149513 34.000000000000000
-5.882625244024568 -3.861364434705780 -2.328589474500434 9.000000000000000
-6.815115440864480 -5.634542459897274 -0.552931094536485 6.000000000000000
-6.894943785885744 -5.621966649842533 -0.700726178713107 64.000000000000000
-6.988742244223999 -5.619146676559581 -0.852488399398091 5.000000000000000
-7.115378343075236 -5.640556713341491 -1.010943617851213 11.000000000000000
-7.208821937723227 -5.634698563531703 -1.168432440637495 10.000000000000000
-7.278751427027019 -5.608811662420706 -1.324260321479732 0.000000000000000
-6.097860000580719 -4.565516793815382 -1.348278835666941 39.000000000000000
-6.111525609500587 -4.509502205008103 -1.469469491838988 51.000000000000000
-6.661800584538320 -4.843145276576093 -1.730148202271577 5.000000000000000
-6.469762837949641 -4.633857804898764 -1.804198066916328 6.000000000000000
-6.434398320601238 -4.538577995061178 -1.916936106027118 2.000000000000000
-5.957682659928921 -4.138606375509664 -1.888907248165728 11.000000000000000
-5.968898725393934 -4.081577421503964 -2.005739204946578 4.000000000000000
-5.955563641932144 -4.008795469548727 -2.114492040708960 10.000000000000000
-5.704469737982122 -3.779394624704730 -2.134344226969771 33.000000000000000
-5.922163998775654 -3.861907518407373 -2.329544996533477 15.000000000000000
-6.840865373437124 -5.623177563296860 -0.542972406429395 7.000000000000000
-6.948792153782878 -5.632934048609762 -0.693632184618271 6.000000000000000
-7.039842170876488 -5.627093767628807 -0.845660652662781 13.000000000000000
-7.135667032943939 -5.623285406825840 -1.000258580736294 5.000000000000000
-7.244997523788220 -5.629340849888779 -1.160188120985576 10.000000000000000
-6.106187485759597 -4.543984821484759 -1.337408064454902 34.000000000000000
-6.145196276034467 -4.506594577051207 -1.464502662034027 51.000000000000000
-6.661897562476608 -4.813339145786147 -1.715722336134528 6.000000000000000
-6.491608984812193 -4.620592915997793 -1.795928142475806 6.000000000000000
-6.478432721408758 -4.540988772047298 -1.915445234487448 7.000000000000000
-5.962350269230257 -4.115663827950240 -1.876684982172519 15.000000000000000
-5.970376550338854 -4.056554779139556 -1.992262826788659 15.000000000000000
-5.864458308615581 -3.922078425825853 -2.068171551922396 9.000000000000000
-5.730808778500721 -3.772202916222665 -2.130298547880150 27.000000000000000
-5.964955796697976 -3.864337272346786 -2.331651729780976 15.000000000000000
-6.885141472476568 -5.626873287316231 -0.534404259405008 112.000000000000000
-6.974801192403080 -5.621121855280155 -0.683661769111266 12.000000000000000
-7.091036422041549 -5.634801873126890 -0.838705140013993 4.000000000000000
-7.187202760254400 -5.630469966892770 -0.993871437817807 8.000000000000000
-7.271767763330525 -5.616550138153380 -1.150373044623449 1.000000000000000
-6.719530407586303 -4.970003331957511 -1.457818226616153 51.000000000000000
-6.188422410926075 -4.510482414173826 -1.461708745057148 50.000000000000000
-6.668215704032953 -4.788142957524910 -1.702951068819338 6.000000000000000
-6.510234683568187 -4.604994121608354 -1.786744946772858 5.000000000000000
-6.187477601860957 -4.309814114029081 -1.815532767257234 13.000000000000000
-5.989273595438518 -4.108069285796048 -1.871461605826341 16.000000000000000
-5.917388383945814 -3.994870996144758 -1.960799948415067 10.000000000000000
-5.865544408492000 -3.897526017254119 -2.054647350966944 9.000000000000000
-5.773144091957768 -3.775360126883118 -2.132103000756345 18.000000000000000
-6.007825005087072 -3.866569418196982 -2.333652853899737 15.000000000000000
-6.907788562798103 -5.612739998926067 -0.524082890515556 7.000000000000000
-7.031913547813850 -5.634150352053998 -0.676637027158469 8.000000000000000
-7.123569344309866 -5.627454880905932 -0.829437978499126 11.000000000000000
-7.241968950673080 -5.639857526599902 -0.987783780562057 14.000000000000000
-6.738637870254052 -4.953789690122177 -1.448057788769900 29.000000000000000
-6.228540190184009 -4.511864699681317 -1.458063109413364 49.000000000000000
-6.677611551885720 -4.765228998584328 -1.690997502414886 7.000000000000000
-6.535199409035433 -4.593823572125600 -1.779272231089477 5.000000000000000
-6.067736856281170 -4.199830404095488 -1.766844084734767 8.000000000000000
-6.032207280023157 -4.111274631210346 -1.871147305158483 16.000000000000000
-5.857616464991642 -3.929215269366538 -1.927418147687643 9.000000000000000
-5.863306792281492 -3.870887011560862 -2.040030196667476 10.000000000000000
-5.815558207743918 -3.778320634016217 -2.133802221132419 12.000000000000000
-6.041156066492888 -3.862456380504456 -2.331837063127820 15.000000000000000
-6.964566529650672 -5.626128148470639 -0.516254889619396 16.000000000000000
-7.054825482094710 -5.619565726625497 -0.666224032381906 8.000000000000000
-7.178037394963333 -5.637196126456969 -0.822614726568009 6.000000000000000
-7.255954006509154 -5.617332743126854 -0.976057533354812 3.000000000000000
-6.767242758257191 -4.944489481221516 -1.440300392593631 2.000000000000000
-6.265526153660444 -4.510767340035236 -1.453580414654927 50.000000000000000
-6.690107716289417 -4.744571299003802 -1.679846996935782 9.000000000000000
-6.579354430391332 -4.595974595182712 -1.776939166016964 5.000000000000000
-6.200586498789495 -4.264748978815528 -1.791741950929692 10.000000000000000
-6.072007433436017 -4.112107450565078 -1.869738495968066 18.000000000000000
-5.852043380399007 -3.900314713171628 -1.912087187380610 8.000000000000000
-5.860936470162593 -3.844295778587195 -2.025445545911988 8.000000000000000
-5.848409906249695 -3.774861704826530 -2.131881956843428 9.000000000000000
-6.077730054852479 -3.860237695227632 -2.331177023884398 15.000000000000000
-6.993442080034804 -5.616736865451363 -0.506251772814735 5.000000000000000
-7.115227269455982 -5.634619093492572 -0.659248492784693 10.000000000000000
-7.226330080219415 -5.641775794732776 -0.814945061757791 15.000000000000000
-6.741601149562052 -4.895685014512539 -1.421051082438974 2.000000000000000
-6.305752315068719 -4.511792229756574 -1.449745707534149 52.000000000000000
-6.673687791687176 -4.703563042282012 -1.661508340744745 8.000000000000000
-6.594697225063921 -4.577873487406956 -1.766760550564425 5.000000000000000
-6.526742296851881 -4.460754374032656 -1.871545191822295 5.000000000000000
-6.102217119770080 -4.106264525862294 -1.865283320793351 21.000000000000000
-5.849542279825085 -3.873611957075674 -1.897843387252779 9.000000000000000
-5.858433780638062 -3.817752803036800 -2.010893625427133 8.000000000000000
-5.858747706145397 -3.756800764675750 -2.121720841738552 9.000000000000000
-6.117568590355410 -3.859886808299566 -2.331657858565852 15.000000000000000
-7.153819082019880 -5.632104270524204 -0.650121548382506 3.000000000000000
-7.243219209979826 -5.621700416661523 -0.803664047651064 6.000000000000000
-6.738085103196433 -4.863220542566532 -1.406584194579617 13.000000000000000
-6.342830003989908 -4.510354410974578 -1.445083605846923 52.000000000000000
-6.599249267067457 -4.622199568083348 -1.628981357756972 7.000000000000000
-6.606758320327469 -4.557509016841769 -1.755708420606824 5.000000000000000
-6.619146422129931 -4.495316827138087 -1.883461511699588 4.000000000000000
-6.132441149896503 -4.100292311865640 -1.860761269027162 16.000000000000000
-5.859816202998687 -3.855450204378297 -1.887790716322498 15.000000000000000
-5.852570950106706 -3.789168569058986 -1.995274123829243 8.000000000000000
-5.856099962950685 -3.730492102535395 -2.106907187526316 9.000000000000000
-6.160693102454674 -3.861377038577663 -2.333264636365232 15.000000000000000
-7.198726016050168 -5.634337713840837 -0.641465721791337 8.000000000000000
-7.275811905226878 -5.613748069430573 -0.794084210095726 0.000000000000000
-6.734413426551654 -4.830816568233061 -1.392157708151545 9.000000000000000
-6.386373519248968 -4.513290860985699 -1.441784615252396 51.000000000000000
-6.620891596734003 -4.608498576725800 -1.620345436199738 7.000000000000000
-6.625187163723663 -4.541537899602714 -1.746347202621341 5.000000000000000
-6.669872141109766 -4.501088057624042 -1.883270537857488 4.000000000000000
-5.975245569622440 -3.969668857648940 -1.799718184416541 5.000000000000000
-5.892656782589211 -3.852066344211039 -1.884973454031106 10.000000000000000
-5.865974692703151 -3.773138185496825 -1.986271164194833 20.000000000000000
-5.859791999946747 -3.708327936605658 -2.094439694035167 10.000000000000000
-6.203890266963031 -3.862667674819513 -2.334765082269690 16.000000000000000
-7.128866032079301 -4.212293141385005 -3.083950646120453 18.000000000000000
-7.240542484547480 -5.633914942986708 -0.632426236532046 26.000000000000000
-6.740224609175173 -4.805344984232565 -1.379744831619343 11.000000000000000
-6.423546925621118 -4.511502508503391 -1.436937719635436 48.000000000000000
-6.716697788344422 -4.646043136392960 -1.629674198981204 3.000000000000000
-6.640334006787428 -4.523303778191815 -1.736112671602302 5.000000000000000
-6.704515694700163 -4.495771008793880 -1.878418573164046 3.000000000000000
-5.920855457415077 -3.908362841224208 -1.770173594237566 12.000000000000000
-5.932010999540660 -3.852747695233983 -1.884139245968262 10.000000000000000
-5.902020820602031 -3.771574950628970 -1.984886048358497 18.000000000000000
-5.863382247054892 -3.686177996182564 -2.081985688082661 21.000000000000000
-6.230949542402219 -3.853732984144310 -2.330097398598556 17.000000000000000
-7.107184904361119 -4.246192820201507 -2.923383188856802 0.000000000000000
-7.086777716585525 -4.158713300440151 -3.048012677212652 15.000000000000000
-7.266619185461208 -5.621094551472332 -0.621937020039148 1.000000000000000
-6.742704916857142 -4.777600223406713 -1.366690348796919 13.000000000000000
-6.483349614232116 -4.525314941501983 -1.437010250434964 40.000000000000000
-6.664068006555526 -4.580857805632388 -1.602958317792402 0.000000000000000
-6.668369812329341 -4.513794584677354 -1.729219041461239 5.000000000000000
-8.681803869072946 -5.784668476673003 -2.413536035350555 6.000000000000000
-6.005689782887655 -3.938944685043295 -1.782247176989772 13.000000000000000
-5.964926672349667 -3.849054942077524 -1.881159707829218 10.000000000000000
-5.947862327731557 -3.776038806673159 -1.986671754681707 19.000000000000000
-5.902624642968929 -3.686371977638839 -2.082157526868474 13.000000000000000
-6.238510978416284 -3.832709273023670 -2.318128641956235 0.000000000000000
-7.077750656996884 -4.199852746095419 -2.893934786496568 9.000000000000000
-7.115676617603959 -4.146967919086527 -3.042729588995944 12.000000000000000
-6.767651027834624 -4.765790714711520 -1.358190866196063 0.000000000000000
-6.692077580380881 -4.642041915569211 -1.469598758934590 31.000000000000000
-6.672638532613665 -4.558063223413933 -1.591116169373159 0.000000000000000
-6.696398306321181 -4.504170266903210 -1.722267090158744 5.000000000000000
-6.773868343062092 -4.484683788109842 -1.868479325956269 4.000000000000000
-6.038729094237524 -3.935171369468107 -1.778750465728049 30.000000000000000
-6.007639952318347 -3.851478821928988 -1.881162695659493 11.000000000000000
-5.987276611422722 -3.776176795563579 -1.986180149673647 19.000000000000000
-5.945183594767386 -3.688406217523616 -2.083375050019046 10.000000000000000
-8.385507638830262 -5.117349672041077 -3.096125639114217 45.000000000000000
-7.076648140832693 -4.244031657837628 -2.744023027986681 0.000000000000000
-7.080567913087831 -4.172882070665363 -2.877825090666664 19.000000000000000
-6.694143243470972 -4.614635002323352 -1.456430578923722 26.000000000000000
-6.736329714555522 -4.572742142655001 -1.592327627589016 5.000000000000000
-6.747191540422135 -4.509651367959845 -1.721065616504460 6.000000000000000
-6.775999066513575 -4.457483007519470 -1.854476176250949 8.000000000000000
-6.016361056142060 -3.895359339968403 -1.758969941374255 24.000000000000000
-6.043898345779981 -3.849545766063655 -1.879030117070876 12.000000000000000
-6.026748508659369 -3.776133156559299 -1.985592303899662 18.000000000000000
-5.981285299715960 -3.686217232782019 -2.082213407924998 15.000000000000000
-8.391124950183233 -5.086509127746289 -3.078490370906833 52.000000000000000
-7.072810555375380 -4.213046064762750 -2.725651794334286 0.000000000000000
-7.112594933078093 -4.163107784386303 -2.873588504559065 9.000000000000000
-6.683088810448312 -4.578353018404199 -1.440483110116081 20.000000000000000
-6.735067341396478 -4.543192147405992 -1.578115654381231 3.000000000000000
-6.775254509526917 -4.499733875007985 -1.713961897254649 8.000000000000000
-6.781269772478310 -4.432443915890462 -1.841381330783388 0.000000000000000
-6.016651015119581 -3.870421598591898 -1.745921880100553 22.000000000000000
-6.083469469976086 -3.849517996560184 -1.877820652253072 10.000000000000000
-6.063005123411123 -3.773870916676286 -1.983837487738189 18.000000000000000
-6.023973882960629 -3.687870999597382 -2.083228779499949 7.000000000000000
-7.071855708260959 -4.258041506454299 -2.577953329843129 0.000000000000000
-7.075356120562196 -4.185990428977597 -2.709825805422006 0.000000000000000
-6.675108857303092 -4.544387890773599 -1.425293107169215 15.000000000000000
-6.740190979573846 -4.518061999406981 -1.565451158096587 3.000000000000000
-6.773899226912835 -4.470292965437849 -1.699421685982190 31.000000000000000
-8.710451858028069 -5.656961685838840 -2.346639493813809 8.000000000000000
-6.043026672186337 -3.862263802353815 -1.740444472044993 22.000000000000000
-6.123096246780806 -3.849307649121479 -1.876514581630973 10.000000000000000
-6.102582339225529 -3.773471958255698 -1.983061817803617 18.000000000000000
-6.063453761638455 -3.687330792975074 -2.083011306654446 7.000000000000000
-7.067725594643506 -4.226937645162856 -2.560005676307415 0.000000000000000
-7.113819034170295 -4.180140733032875 -2.707740423511044 1.000000000000000
-6.670225518460275 -4.512713337041764 -1.410845799712618 12.000000000000000
-6.768092061514273 -4.508187562047199 -1.558067634048791 6.000000000000000
-6.792054210523748 -4.453783121386223 -1.689802210012106 57.000000000000000
-8.785309570262436 -5.668971508951232 -2.348138365887848 9.000000000000000
-6.069400306717069 -3.853995415537256 -1.734910733680714 18.000000000000000
-6.162777769794429 -3.848914385064882 -1.875111787752454 10.000000000000000
-6.138928125946530 -3.770871698375171 -1.981128996016108 18.000000000000000
-6.106275403695820 -3.688593649912677 -2.083818989270259 9.000000000000000
-7.073296032514684 -4.201750952745250 -2.545646512679322 1.000000000000000
-6.704435758484007 -4.507489476234827 -1.404663583208891 10.000000000000000
-6.789429951183667 -4.493860187943120 -1.549130578482647 0.000000000000000
-6.803592396526833 -4.432935139131446 -1.678535240671434 26.000000000000000
-8.837318797690967 -5.665869608477052 -2.343342494752737 9.000000000000000
-6.108930107774951 -3.853917735689488 -1.733053670507274 5.000000000000000
-6.202513130941469 -3.848337868932190 -1.873612154913895 12.000000000000000
-6.178607168329888 -3.770116148192956 -1.980165065997581 18.000000000000000
-6.142578471228005 -3.685703485141974 -2.082287094619403 18.000000000000000
-7.108386218229981 -4.194056661999416 -2.541894979816507 0.000000000000000
-6.748497725290474 -4.508684054695666 -1.400443696362814 11.000000000000000
-8.685814212787031 -5.712707302366471 -1.964180933222703 6.000000000000000
-8.752338629582372 -5.666263200535825 -2.141206635374932 5.000000000000000
-8.892676982921108 -5.664629166051814 -2.339288885225653 9.000000000000000
-8.914520746205341 -5.587286010642152 -2.509862725480634 24.000000000000000
-6.222505538601640 -3.835376147665878 -1.866078944736141 1.000000000000000
-6.205136943614823 -3.761174817165883 -1.974902404095875 22.000000000000000
-6.175620079244158 -3.680681260358873 -2.079557187595326 16.000000000000000
-8.427010799239794 -4.938373907054348 -2.994095546842252 78.000000000000000
-6.776197276595783 -4.498769874645694 -1.392739775994153 2.000000000000000
-8.691369949256053 -5.680144813840871 -1.947855050809863 7.000000000000000
-8.820623520067151 -5.673952606499088 -2.139737959760581 10.000000000000000
-8.816076930247498 -5.579575804791611 -2.300647169502938 14.000000000000000
-8.953490342694328 -5.575123620412078 -2.501720867803345 16.000000000000000
-8.877658177421795 -5.435900858710697 -2.643060184544469 18.000000000000000
-6.261431475172534 -3.770046446997992 -1.978992084167223 1.000000000000000
-6.211993762313074 -3.677470203324178 -2.077857165602651 19.000000000000000
-8.438424185069223 -4.911465424421351 -2.978887150858924 80.000000000000000
-8.687394854550002 -5.820985424712030 -1.606766730558057 1.000000000000000
-8.690014254889496 -5.733079622015258 -1.768912179123303 4.000000000000000
-8.719869102967248 -5.662592222705558 -1.936674507105336 5.000000000000000
-8.889033185447630 -5.681314694871377 -2.138094564290657 9.000000000000000
-8.805134375403433 -5.536590969717234 -2.279401909522402 17.000000000000000
-9.045431149196052 -5.595567042652017 -2.508184362510134 18.000000000000000
-8.767347841749130 -5.332918007490764 -2.591264816099960 12.000000000000000
-7.080232437126752 -4.234618308728511 -2.222217904625795 11.000000000000000
-6.264979119053716 -3.683839407045375 -2.081577253171377 2.000000000000000
-8.449726590898619 -4.884540687280093 -2.963677245140929 77.000000000000000
-8.689449711445526 -5.786002414155662 -1.590358379625208 4.000000000000000
-8.688720021820437 -5.696100188923916 -1.751537330506423 4.000000000000000
-8.801204099435330 -5.679052114109967 -1.937079628024070 10.000000000000000
-8.924463362883946 -5.667327536520796 -2.128381610128995 7.000000000000000
-8.803922521666582 -5.499927506503906 -2.260778993111369 18.000000000000000
-9.127638376792488 -5.609437138931817 -2.511662526470746 19.000000000000000
-8.762657271524477 -5.294793581857782 -2.571018177165780 36.000000000000000
-7.115128716631217 -4.227034763545852 -2.217598803558630 6.000000000000000
-7.264785476497671 -4.242862981556481 -2.397604992530284 0.000000000000000
-8.457597423272986 -4.855693609982266 -2.947308838894141 61.000000000000000
-8.691348583802739 -5.751056545106007 -1.573978529022378 4.000000000000000
-8.700478462872626 -5.667789922425289 -1.736840784972508 5.000000000000000
-8.842974164964486 -5.669629991905352 -1.928601481036960 11.000000000000000
-8.986413296986523 -5.669938181298995 -2.124870131559024 8.000000000000000
-8.832435195498054 -5.481873852327491 -2.249809677393944 16.000000000000000
-9.146848152779443 -5.584336051953443 -2.497674063773798 4.000000000000000
-8.747800202717301 -5.250751109989324 -2.547912948725874 37.000000000000000
-8.431586830409451 -4.975550533374126 -2.609533370376077 73.000000000000000
-8.448422608965364 -4.900710815839044 -2.769529367932577 55.000000000000000
-8.465343391827627 -4.826849159699066 -2.930949410677834 71.000000000000000
-8.697805210413692 -5.808971363977046 -1.395972855823148 3.000000000000000
-8.693091780334417 -5.716148359491151 -1.557627436510028 4.000000000000000
-8.755186630158475 -5.667338368303334 -1.730655046579518 5.000000000000000
-8.901348843941063 -5.670597367807437 -1.923615931178686 13.000000000000000
-9.051779755649724 -5.674340109443985 -2.121982935267158 8.000000000000000
-9.160482217655833 -5.648434833692765 -2.314479092482236 13.000000000000000
-9.135980943284761 -5.540991963850225 -2.475537166047997 7.000000000000000
-8.729383368526555 -5.204849730809220 -2.523923391267488 37.000000000000000
-8.439161758951782 -4.946547808543547 -2.593571588377479 55.000000000000000
-8.452680682223802 -4.869866597605319 -2.752287159053092 55.000000000000000
-8.476299115339740 -4.799895983649132 -2.915746191533072 70.000000000000000
-8.696158976056932 -5.771724622489074 -1.379419423271186 3.000000000000000
-8.694679611975729 -5.681278397967768 -1.541305359063664 5.000000000000000
-8.816599442374722 -5.670902482425579 -1.725634754963268 11.000000000000000
-8.969779300195691 -5.677606337683015 -1.920622185668616 9.000000000000000
-9.037304248603647 -5.628637993906320 -2.100350030762658 9.000000000000000
-9.079452068473520 -5.561909011318300 -2.275359814646507 20.000000000000000
-9.134915212649826 -5.503792014602199 -2.456162355728924 2.000000000000000
-8.714069401933015 -5.161075653819600 -2.500983117465089 37.000000000000000
-8.459982308703248 -4.925332810978484 -2.581699447559077 34.000000000000000
-8.460142965273912 -4.840956933675798 -2.736145641851431 81.000000000000000
-8.487144004602225 -4.772927995389510 -2.900542190000270 59.000000000000000
-8.686650546104413 -5.818801100840515 -1.199263123222364 1.000000000000000
-8.697654797292795 -5.736718494029005 -1.363424346047547 2.000000000000000
-8.732622787416352 -5.670153657623366 -1.531415277329111 5.000000000000000
-8.891409646106332 -5.682678707646734 -1.723038366022554 10.000000000000000
-9.034995228391265 -5.682189889824653 -1.916746013148731 8.000000000000000
-8.892419607952272 -5.502509934388939 -2.048803050089731 32.000000000000000
-9.074794951195724 -5.522663924328939 -2.255632898471798 17.000000000000000
-9.083491576811699 -5.436610504905928 -2.423437020419022 1.000000000000000
-8.718620673519871 -5.129251028927479 -2.483846499588556 38.000000000000000
-8.440540375404042 -4.880806606317696 -2.557617063381396 45.000000000000000
-8.467480809160968 -4.812051299870145 -2.720013792962963 81.000000000000000
-8.554798464420630 -4.777734778059213 -2.904664115464970 17.000000000000000
-8.697958362541986 -5.790304743400378 -1.184967215597541 2.000000000000000
-8.692360477923012 -5.697402318341316 -1.346430891208689 3.000000000000000
-8.807147178946323 -5.682471603617310 -1.527788939108009 8.000000000000000
-8.933032793207927 -5.672921513840509 -1.713851397664709 7.000000000000000
-9.090295289362581 -5.680201416969835 -1.910598705863255 7.000000000000000
-8.893947307010807 -5.467706802020471 -2.031349213516534 28.000000000000000
-9.093397333793334 -5.497667584200757 -2.241735056465975 13.000000000000000
-9.102092868652546 -5.411618543836166 -2.409541480537944 1.000000000000000
-8.840456595040228 -5.166067213028836 -2.499935347499645 35.000000000000000
-8.427577045040247 -4.840287239403150 -2.535645990666239 46.000000000000000
-8.478050652869117 -4.785044422427253 -2.704962661994318 81.000000000000000
-8.659480304483415 -4.802684274586650 -2.921061556164457 16.000000000000000
-8.695891570290449 -5.753019650973068 -1.168887801830983 2.000000000000000
-8.703506990677235 -5.668989507752920 -1.332031540249621 5.000000000000000
-8.851821204466960 -5.675193494056002 -1.518820650759503 9.000000000000000
-8.991363192944545 -5.673519754505337 -1.707742816644172 8.000000000000000
-9.149002097697272 -5.680033528561489 -1.905013315110480 9.000000000000000
-8.908725435151874 -5.441131022120657 -2.016960168469927 52.000000000000000
-9.111909964160139 -5.472617018284412 -2.227815022891927 5.000000000000000
-9.120604423786268 -5.386572360397557 -2.395623749884655 6.000000000000000
-8.912201575333137 -5.172989653494245 -2.501530956328739 20.000000000000000
-8.474943256470151 -4.834415008667137 -2.531831021925636 27.000000000000000
-8.491873032755894 -4.759909097046012 -2.690977105701909 43.000000000000000
-8.845116652462242 -4.871543251334079 -2.964212164254860 14.000000000000000
-8.693154376087849 -5.805183559045184 -0.989399231501713 2.000000000000000
-8.693657200323443 -5.715792941962492 -1.152848440982634 3.000000000000000
-8.771171194174586 -5.677216681210861 -1.326194042010099 5.000000000000000
-8.903195101598708 -5.671970326933753 -1.510882388954123 10.000000000000000
-9.056461197928064 -5.678039810171579 -1.702747921604972 9.000000000000000
-9.201075239542758 -5.675453152599032 -1.897899351632447 10.000000000000000
-8.950269532183192 -5.430823529331943 -2.008589329486684 34.000000000000000
-9.163961877482979 -5.467576976484877 -2.222027163256810 11.000000000000000
-9.189517916193681 -5.391093595165844 -2.394842440770825 6.000000000000000
-8.987444925995060 -5.181506105610223 -2.503879425956776 16.000000000000000
-8.609964450826338 -4.877965488997206 -2.553892097105703 47.000000000000000
-8.519077953831536 -4.742245664760552 -2.681223763806599 30.000000000000000
-9.058293384813792 -4.954169115315065 -3.015802601546897 20.000000000000000
-8.700786546343878 -5.774431685410405 -0.974882652163672 2.000000000000000
-8.691255671784353 -5.678625209199830 -1.136849410043620 4.000000000000000
-8.822260753113031 -5.674380576266199 -1.317688992051736 9.000000000000000
-8.974693390257503 -5.681219517230189 -1.506189678596642 7.000000000000000
-9.114951692523682 -5.678069448051851 -1.696339289782492 9.000000000000000
-9.273352128139249 -5.682987815366619 -1.894779617245698 6.000000000000000
-9.045663183525370 -5.452790822843293 -2.012101839502571 29.000000000000000
-9.236276765383607 -5.474280979114699 -2.220976198642830 4.000000000000000
-9.275408244396758 -5.405110632875044 -2.398245389062141 13.000000000000000
-9.052703700110552 -5.183856746655405 -2.503231700853906 16.000000000000000
-8.637323181961596 -4.860020609781397 -2.543751545031248 45.000000000000000
-8.563122819796872 -4.733810131831543 -2.676696697207801 27.000000000000000
-9.262037744016054 -5.030172933500159 -3.063428322566802 20.000000000000000
-8.688665300246095 -5.820164989110691 -0.794303971933633 1.000000000000000
-8.694991876214790 -5.734911477401374 -0.958909077508810 2.000000000000000
-8.735382847218453 -5.671836137361598 -1.126914967262707 3.000000000000000
-8.893464926007978 -5.684133967016550 -1.312020828674052 9.000000000000000
-9.039611774285749 -5.685901868133672 -1.500198292276230 7.000000000000000
-9.186954408847878 -5.686142457369813 -1.692261399502715 10.000000000000000
-9.167321550603242 -5.581533494754418 -1.855360729017370 8.000000000000000
-9.235691061850000 -5.530818499090538 -2.036171245298855 7.000000000000000
-9.258070135406786 -5.450815680600705 -2.207661609940803 10.000000000000000
-9.216153979390729 -5.334585474024966 -2.364142053363595 22.000000000000000
-9.121443874192831 -5.187818549587504 -2.503346629315617 42.000000000000000
-8.732303355081999 -4.879782942493742 -2.553345364217449 42.000000000000000
-8.654557694202303 -4.751180024746460 -2.686771946067241 24.000000000000000
-9.331146714722767 -5.032150338989193 -3.066016952681356 20.000000000000000
-8.699375435571675 -5.791578498311607 -0.780311174382893 3.000000000000000
-8.695680955860512 -5.699837268139221 -0.943709611382679 2.000000000000000
-8.812950214267893 -5.686412022423096 -1.121129266444127 5.000000000000000
-8.937983868446318 -5.676511681181555 -1.302260918864850 5.000000000000000
-9.104627747076570 -5.690271843566216 -1.494041476492851 7.000000000000000
-9.238878710639225 -5.681441908422675 -1.684314107082106 6.000000000000000
-9.097810964419216 -5.503158469572696 -1.823739705786929 36.000000000000000
-9.568212751942268 -5.692263655225124 -2.090699216284468 5.000000000000000
-9.300084006364504 -5.439149579615869 -2.199114668480862 23.000000000000000
-9.092161242767308 -5.227443168603584 -2.313880259334904 30.000000000000000
-9.129297630872534 -5.156992264717547 -2.486670776075616 72.000000000000000
-8.854625356519421 -4.914118584383351 -2.570554868953676 33.000000000000000
-8.773321784046129 -4.782876626652004 -2.704962115780478 20.000000000000000
-9.393587046768406 -5.030166770768226 -3.066217319930852 19.000000000000000
-8.699991653098513 -5.756374431510029 -0.765440161131984 2.000000000000000
-8.702893913775732 -5.669154164606319 -0.929253777765885 5.000000000000000
-8.853833570114231 -5.676984883936076 -1.110517780262683 5.000000000000000
-8.999310143866902 -5.679284750221054 -1.294813368945831 6.000000000000000
-9.152908345944205 -5.683876726083973 -1.484988273834459 8.000000000000000
-9.290844724245465 -5.676501835984835 -1.676241992082582 7.000000000000000
-9.136022386589506 -5.490211883415504 -1.813839140314971 16.000000000000000
-9.634444878815099 -5.693869343412960 -2.086331655613642 5.000000000000000
-9.355658377031197 -5.435176481692602 -2.193652877084616 28.000000000000000
-9.018412673875448 -5.150094569514105 -2.276880051461652 29.000000000000000
-9.126835293022189 -5.120454507312786 -2.467250934255524 72.000000000000000
-8.916133973891379 -4.914129629005378 -2.569802511663376 25.000000000000000
-8.892398919216014 -4.813965261714375 -2.722822785370558 7.000000000000000
-9.449317276900267 -5.024277336637893 -3.064060091613896 18.000000000000000
-8.986633970810157 -4.688259746351016 -3.074263232943073 25.000000000000000
-8.700929331134992 -5.812060890222213 -0.586665989251270 3.000000000000000
-8.697122036045496 -5.719020508580434 -0.750312409978845 3.000000000000000
-8.770188029711354 -5.677452056819590 -0.921131948215166 4.000000000000000
-8.904787016782649 -5.673790179938375 -1.101058209076167 7.000000000000000
-9.060718952550204 -5.681764182329206 -1.287210876002254 7.000000000000000
-9.201217351509897 -5.677261310737163 -1.475820876624313 9.000000000000000
-9.146800119950100 -5.552314430826676 -1.633042567392123 16.000000000000000
-9.529813058509019 -5.689391611129934 -1.873772175339185 6.000000000000000
-9.697375718712721 -5.693167118215191 -2.081069036383519 6.000000000000000
-9.574311200162379 -5.525020672218928 -2.225957684682878 10.000000000000000
-9.015607444609637 -5.113691376350968 -2.258018359565098 33.000000000000000
-9.131007526028252 -5.087767712898004 -2.449697381148952 64.000000000000000
-8.916468991996146 -4.880318459958413 -2.551366779622329 6.000000000000000
-9.835370593963946 -5.287176878970686 -2.990793528458146 76.000000000000000
-9.528914056177623 -5.030701722452754 -3.069438562618802 19.000000000000000
-9.007473699513607 -4.665412462249013 -3.061790343844957 9.000000000000000
-8.704651451208733 -5.778989772408714 -0.572377780286068 2.000000000000000
-8.697427410735060 -5.683910600854697 -0.735508474788724 6.000000000000000
-8.827537282121149 -5.678953040520530 -0.911797069705641 7.000000000000000
-8.975953956577035 -5.683129469659262 -1.093933270588068 4.000000000000000
-9.122208818565328 -5.683949471554381 -1.279453272028948 8.000000000000000
-9.276589281484091 -5.686999459389293 -1.470825771993533 6.000000000000000
-9.120568871393683 -5.500459103551154 -1.611259480135258 20.000000000000000
-9.592445288215837 -5.689220732138709 -1.867786083465902 7.000000000000000
-9.746788538347097 -5.684238658641715 -2.072758562965942 5.000000000000000
-9.939974806379425 -5.697580563193950 -2.291360420024925 6.000000000000000
-9.148879522188361 -5.154104241563827 -2.273048383905679 31.000000000000000
-9.131628456461939 -5.053217626603461 -2.431256743192415 64.000000000000000
-8.933699409543070 -4.855816958486846 -2.537805454640166 1.000000000000000
-9.687279177447765 -5.170994067275144 -2.925395442396162 83.000000000000000
-9.601837156231390 -5.033163279520111 -3.072428132097581 39.000000000000000
-9.058900195538934 -4.658262587081451 -3.059642612636622 14.000000000000000
-8.698233104325242 -5.739343571498224 -0.557469488961044 3.000000000000000
-8.747778810905885 -5.681445966344017 -0.724895583501027 3.000000000000000
-8.888313021884780 -5.682327140282641 -0.902659346487206 6.000000000000000
-9.037135823483192 -5.685761816146371 -1.085408991103667 4.000000000000000
-9.197288786867846 -5.694204722045798 -1.273410991937126 9.000000000000000
-9.345320060838050 -5.692242197183174 -1.464572200031499 6.000000000000000
-9.161942985775651 -5.489458052674768 -1.601452782107704 13.000000000000000
-9.655153320528694 -5.688751942277326 -1.861643278482659 6.000000000000000
-9.823463385125304 -5.690866902743339 -2.070072707989489 5.000000000000000
-9.330285654837684 -5.220561079506945 -2.299479857330220 50.000000000000000
-9.135508956758034 -5.020586570987824 -2.413749486630798 62.000000000000000
-9.005503574336915 -4.860769028624915 -2.539638915863014 1.000000000000000
-9.681936996574343 -5.131725497615697 -2.903512598816459 94.000000000000000
-9.079647977163132 -4.635192389791460 -3.047061555075114 15.000000000000000
-8.691637717301390 -5.699777955908304 -0.542613162875362 3.000000000000000
-8.814937262932872 -5.689566523345352 -0.715520668454376 7.000000000000000
-8.939075883748584 -5.678996427715843 -0.892359747285333 4.000000000000000
-9.098396838842396 -5.688100199627208 -1.076729809164592 4.000000000000000
-9.238657559156698 -5.683272054759883 -1.262547130297396 5.000000000000000
-9.410761275554577 -5.695098104437244 -1.457616477458198 6.000000000000000
-9.550099568148948 -5.684695915885595 -1.651522504344079 6.000000000000000
-9.724748095018013 -5.691972126700159 -1.856644230139952 7.000000000000000
-9.903674875691500 -5.699083795439969 -2.067900347973884 5.000000000000000
-9.433585417317470 -5.242361840591845 -2.306166625914451 59.000000000000000
-9.132403927359082 -4.984244517105012 -2.394468855772613 68.000000000000000
-9.070582263553941 -4.861701313385305 -2.539369555525198 1.000000000000000
-9.850973947325484 -5.184404939689016 -2.933666939249019 58.000000000000000
-9.011402675123620 -4.566989561880987 -3.004800853375296 5.000000000000000
-8.701599668929205 -5.671199713721074 -0.528826066661938 8.000000000000000
-8.851966548405315 -5.677964428351352 -0.703568174585786 7.000000000000000
-8.993249621283192 -5.677556654147694 -0.882267356436216 5.000000000000000
-9.156354300198300 -5.688043668397771 -1.067501360954686 5.000000000000000
-9.303759381253226 -5.686663102799849 -1.254790871419383 6.000000000000000
-9.469492873426972 -5.693551145162596 -1.449453716933884 5.000000000000000
-9.636416501311686 -5.698555587003012 -1.648574303780262 5.000000000000000
-9.791028909151432 -5.692871502760138 -1.850822237067200 5.000000000000000
-9.970350482489296 -5.699091617859085 -2.062689988237139 6.000000000000000
-9.444623626171213 -5.212591295415581 -2.290144219678382 65.000000000000000
-9.132559132095807 -4.949822563418238 -2.376122111645187 77.000000000000000
-9.135753512393634 -4.862319987106732 -2.538934442589997 1.000000000000000
-9.975903726927307 -5.212907518831330 -2.950158645088370 1.000000000000000
-9.029417232096845 -4.632188732591030 -2.831915958210841 4.000000000000000
-8.822823698229968 -4.438870622823377 -2.923047995464200 6.000000000000000
-8.808236000639061 -4.345579195259267 -3.075090895368100 8.000000000000000
-8.771805788097046 -5.681704367246450 -0.518608425615868 4.000000000000000
-8.905813318082910 -5.676928176742886 -0.692843142103408 8.000000000000000
-9.064360996592985 -5.686453983469213 -0.873668596969665 5.000000000000000
-9.204212208674869 -5.681437762038249 -1.056961008631012 8.000000000000000
-9.362155233887160 -5.685613276785439 -1.245964302634867 6.000000000000000
-9.538501610615807 -5.697828344394855 -1.442690258541389 5.000000000000000
-9.699007190120325 -5.697950630183917 -1.641353752845782 5.000000000000000
-9.867651299031182 -5.699377128674302 -1.846752334741301 5.000000000000000
-9.452110711431658 -5.180924960330819 -2.273296209089355 69.000000000000000
-9.142863515851234 -4.920990207030384 -2.360467350510797 77.000000000000000
-9.190708398955652 -4.857177197787819 -2.535489852998054 2.000000000000000
-9.984319721069735 -5.180164200341000 -2.932001801664432 19.000000000000000
-9.104739793978199 -4.637156575645744 -2.836425246132039 14.000000000000000
-8.756965256575292 -4.373548602822721 -2.882576644927347 8.000000000000000
-8.828689798457400 -5.683211344015342 -0.507433997549997 9.000000000000000
-8.969827837385074 -5.682044934997310 -0.682754658968494 5.000000000000000
-9.122052281340398 -5.686563865818394 -0.863602672796382 6.000000000000000
-9.269063904799676 -5.685020024499699 -1.048225953588814 4.000000000000000
-9.430822178204936 -5.690446437282285 -1.238332906572083 6.000000000000000
-9.597372950202020 -5.695695701546852 -1.434219972706865 6.000000000000000
-9.751411445008220 -5.691060389222167 -1.632259316526975 5.000000000000000
-9.940969150853658 -5.703541868630103 -1.841848662230254 6.000000000000000
-9.459466006506966 -5.149263357148704 -2.256458674663636 72.000000000000000
-9.163375130518554 -4.897662893586136 -2.347457858659765 40.000000000000000
-8.997876760462551 -4.721721320181126 -2.464040904302311 46.000000000000000
-9.975388271404531 -5.138557042320794 -2.908835567291540 81.000000000000000
-9.018471028286239 -4.559984486740283 -2.790694858390950 7.000000000000000
-9.292563648236928 -4.607011355513325 -3.039172784432771 13.000000000000000
-9.037308823851099 -5.688976410556748 -0.672753017437995 5.000000000000000
-9.193364763898511 -5.694797363282716 -0.854652741794902 7.000000000000000
-9.337402047462716 -5.690359862373274 -1.039703631199894 5.000000000000000
-9.499586772688492 -5.694944800404313 -1.230524631411227 5.000000000000000
-9.656302367908808 -5.693283689948192 -1.425603523174889 6.000000000000000
-9.827825625854688 -5.697829561813450 -1.627008835968199 5.000000000000000
-9.466689641913815 -5.117606912170044 -2.239631826035492 76.000000000000000
-9.221730427045845 -4.894393167156300 -2.344057050540912 26.000000000000000
-9.011090552988628 -4.695181377115856 -2.449453588419995 28.000000000000000
-9.986947816187413 -5.107628834463675 -2.891722152300369 7.000000000000000
-8.804184058699880 -4.419306406267967 -2.706054313581636 9.000000000000000
-9.320060973035623 -4.586629309596971 -3.028480647989068 9.000000000000000
-9.094734682824397 -5.689224596851036 -0.661837242542422 5.000000000000000
-9.244410823975064 -5.690136689275873 -0.843656905933477 4.000000000000000
-9.405837308289737 -5.695365622287857 -1.031004829497185 4.000000000000000
-9.571863404148457 -5.701142454602707 -1.222975749820939 6.000000000000000
-9.725561948736326 -5.696609445302827 -1.418339031747578 7.000000000000000
-9.894063052909269 -5.698293554331189 -1.619873721536140 5.000000000000000
-9.473781749847301 -5.085956051084066 -2.222815872424337 77.000000000000000
-9.297416192170687 -4.899946874695961 -2.344866046220896 18.000000000000000
-9.404242159528051 -4.865222388712588 -2.537397192661209 3.000000000000000
-8.972303571260626 -4.470865617349905 -2.739122716627028 1.000000000000000
-9.447607445268289 -4.615039219006738 -3.050054190853150 17.000000000000000
-9.152220382939444 -5.689197400163472 -0.650777230764067 5.000000000000000
-9.295490583435292 -5.685237099483950 -0.832537047774526 5.000000000000000
-9.460716166905767 -5.691823417768770 -1.020656548593510 4.000000000000000
-9.627135007487080 -5.696859248792049 -1.213082951437878 5.000000000000000
-9.798345404355638 -5.701594423699509 -1.411390932584379 4.000000000000000
-9.970694076696764 -5.704339283923570 -1.614240676854100 6.000000000000000
-9.491115267748878 -5.059841079924892 -2.208424601431665 76.000000000000000
-9.373225539521620 -4.905127555788500 -2.345477061645235 32.000000000000000
-9.476787401175690 -4.867801594035634 -2.537974033362405 3.000000000000000
-9.892016593988069 -4.986404029270215 -2.823899176872721 64.000000000000000
-9.172028986484879 -4.536946118817563 -2.781154470004749 74.000000000000000
-9.143202659571266 -4.433205465445068 -2.932628586636378 8.000000000000000
-9.206367360042925 -5.686795961675720 -0.639336939496653 9.000000000000000
-9.360237582629116 -5.688384362326344 -0.822491181216287 6.000000000000000
-9.539573206586439 -5.702328760630214 -1.012714047432743 4.000000000000000
-9.699592226735136 -5.702393945980829 -1.205184599926701 5.000000000000000
-9.867795707767142 -5.704235836203818 -1.403765434373015 5.000000000000000
-9.546457908999868 -5.053846725954915 -2.202805180275521 72.000000000000000
-9.480353339766735 -4.926144867727477 -2.353634911224743 25.000000000000000
-9.594517915125294 -4.893014351724019 -2.550345178630246 7.000000000000000
-9.753892815961592 -4.881138059798766 -2.764700738943870 85.000000000000000
