# This PCD file was generated using the MATLAB® pcwrite function
# from Computer Vision Toolbox®.
# .PCD v.7 - Point Cloud Data file format
VERSION .7
FIELDS x y z intensity
SIZE 8 8 8 8
TYPE F F F F
COUNT 1 1 1 1
WIDTH 631
HEIGHT 1
VIEWPOINT 0 0 0 1 0 0 0
POINTS 631
DATA ascii
-5.028552090880138 -5.578324988018259 -1.054992984505624 13.000000000000000
-5.098311221802683 -5.586241617947601 -1.189732436958409 23.000000000000000
-5.167127420448423 -5.591481935220996 -1.325936645902548 31.000000000000000
-5.236925886598578 -5.597380233598591 -1.465045316293484 31.000000000000000
-5.308363575021335 -5.603273653759296 -1.606877878518979 16.000000000000000
-5.381139088015304 -5.609478701376700 -1.751032499479943 13.000000000000000
-5.376876844142745 -5.534626797965558 -1.871016197194209 6.000000000000000
-5.430657108409367 -5.519408551263973 -2.010992942582581 6.000000000000000
-5.578456454475731 -5.596931597349205 -2.189790008222730 5.000000000000000
-5.656825301330851 -5.602553079064878 -2.345575943448385 5.000000000000000
-5.731535269484559 -5.601793895541856 -2.502443726944637 6.000000000000000
-5.382956272501341 -5.192210664341340 -2.469029401493338 1.000000000000000
-5.883865147381449 -5.598754310134916 -2.827380607943609 5.000000000000000
-5.301500382459378 -4.976800099599223 -2.663661101456459 4.000000000000000
-5.075363891851056 -4.700343922303715 -2.661802467756955 7.000000000000000
-4.951093227560185 -4.523770246544577 -2.706289453936089 41.000000000000000
-4.974877802879133 -4.480965877073699 -2.827606700890634 66.000000000000000
-5.001878511620464 -4.441550243894690 -2.952826914322693 59.000000000000000
-5.030600016576503 -4.401718235611620 -3.080185067086820 36.000000000000000
-4.821522846271657 -5.588058589249504 -0.535274365157982 4.000000000000000
-4.875634675046859 -5.580828023675663 -0.660412814561533 47.000000000000000
-4.944153049314235 -5.589358199964630 -0.790216133374218 98.000000000000000
-5.011742816471257 -5.595385209445573 -0.921261254729875 65.000000000000000
-5.080212665615766 -5.602583904513804 -1.054034565372516 7.000000000000000
-5.144990243210589 -5.604199600118208 -1.188285419965581 5.000000000000000
-5.203399930768779 -5.597454040732772 -1.322374161256877 4.000000000000000
-5.260014731955617 -5.588696564549720 -1.458101412453893 7.000000000000000
-5.323581931110221 -5.585855662553763 -1.597526819766359 8.000000000000000
-5.380309000948379 -5.575057001376255 -1.736264520664825 20.000000000000000
-5.337906813412292 -5.461500812516274 -1.842687093950222 22.000000000000000
-5.536102059159160 -5.592625749639843 -2.034329180599614 16.000000000000000
-5.610841288924092 -5.595306765653203 -2.186184399528121 12.000000000000000
-5.684001970834061 -5.595199449231600 -2.339916391427884 13.000000000000000
-5.764425981452906 -5.599487016691400 -2.499238734946137 16.000000000000000
-5.475018873194577 -5.248564553785781 -2.494192146348526 1.000000000000000
-5.917240502194132 -5.595753121739321 -2.824572859697185 10.000000000000000
-5.332915873875214 -4.975233843497773 -2.662095506304038 5.000000000000000
-5.106008529342992 -4.699240080104375 -2.660910289321542 6.000000000000000
-5.019771440231652 -4.557774729130898 -2.726801827476726 7.000000000000000
-4.985911825443367 -4.462608225024873 -2.816631161306774 62.000000000000000
-5.012984350829577 -4.423211227556218 -2.941701265383411 58.000000000000000
-5.039037539188134 -4.381010717919660 -3.067238133586282 41.000000000000000
-4.858795323574313 -5.598762018782510 -0.529712998378149 81.000000000000000
-4.926337063086127 -5.606206006313667 -0.657055062864989 8.000000000000000
-4.976738013674870 -5.593488012932138 -0.784700320140108 3.000000000000000
-5.026007037167283 -5.578565632685744 -0.912663543789524 33.000000000000000
-5.097343917827246 -5.588545475248932 -1.045820469518673 25.000000000000000
-5.167680644572799 -5.595810640269100 -1.181204484396659 34.000000000000000
-5.239747039471938 -5.603272413881394 -1.318728637051929 32.000000000000000
-5.307408509169255 -5.605620092407475 -1.457797755655912 15.000000000000000
-5.376688620800540 -5.607993554725943 -1.599453583292206 10.000000000000000
-5.308589444287668 -5.467857251479312 -1.698905291487034 42.000000000000000
-5.380310363280444 -5.471836343568527 -1.842533968202395 7.000000000000000
-5.571003009719464 -5.593948069321146 -2.031446396889383 5.000000000000000
-5.648740731648999 -5.598984181394480 -2.184630010574763 5.000000000000000
-5.724899429156532 -5.601172197938608 -2.339814636906686 5.000000000000000
-5.802848821506686 -5.602358158670312 -2.498332367143863 6.000000000000000
-5.391385376447422 -5.136650740829151 -2.439401338314019 1.000000000000000
-5.961668576696483 -5.602977618863672 -2.826921573751651 6.000000000000000
-5.367126736003033 -4.976098053203026 -2.661830716741862 5.000000000000000
-5.147723002723584 -4.708100220604507 -2.665663932301723 4.000000000000000
-5.254144232443636 -4.740683935660233 -2.836416790045544 3.000000000000000
-4.996860710029532 -4.444232807356272 -2.805651760033904 65.000000000000000
-5.026759312869449 -4.407269131612584 -2.932178304949260 59.000000000000000
-5.052875826588901 -4.365054656273157 -3.057626486152546 49.000000000000000
-4.875169048235385 -5.585253707030446 -0.521815848006127 110.000000000000000
-4.940273869622940 -5.589544588019803 -0.648713643805435 206.000000000000000
-5.014686345700022 -5.603411390076495 -0.779936951176667 75.000000000000000
-5.074871077753975 -5.599967333787992 -0.910271061104117 5.000000000000000
-5.138536152299246 -5.600738686125988 -1.042476081857707 3.000000000000000
-5.195736739352453 -5.593135310678595 -1.175301294044811 4.000000000000000
-5.257257013661880 -5.588832935790216 -1.310286651130005 10.000000000000000
-5.322411723986324 -5.588168292656196 -1.448520822537557 10.000000000000000
-5.394611562500812 -5.593218845488377 -1.590815211206569 22.000000000000000
-5.353549254343182 -5.481227099527257 -1.699047928908882 34.000000000000000
-5.370839275325936 -5.429434242803966 -1.824618667471122 9.000000000000000
-5.611443114428706 -5.600602184354323 -2.030472197823998 12.000000000000000
-5.689460164050557 -5.605210856149453 -2.184045397830854 15.000000000000000
-5.765885934721946 -5.606970721491277 -2.339618497985346 15.000000000000000
-5.841341825611375 -5.605069342677629 -2.497340052964057 17.000000000000000
-5.436801563628094 -5.148124559701095 -2.443231113819058 1.000000000000000
-5.992381651523588 -5.597102519235222 -2.822656467169565 11.000000000000000
-5.398628238247954 -4.974273443445473 -2.660127977189236 1.000000000000000
-5.255941258917844 -4.777119889394428 -2.704479070940884 2.000000000000000
-5.376505475256752 -4.820695642074980 -2.884485812239930 2.000000000000000
-5.007724455873661 -4.425839913458171 -2.794668644846003 66.000000000000000
-5.034940229984134 -4.386479419722395 -2.919438161845393 59.000000000000000
-5.063885636655185 -4.346695723125178 -3.046341174169862 52.000000000000000
-4.923085680851148 -5.607683499755928 -0.517216729779196 5.000000000000000
-4.964734770255024 -5.584764376536559 -0.641728540419538 5.000000000000000
-5.026104971034040 -5.583594924746150 -0.770999699413651 66.000000000000000
-5.091789968844752 -5.585919558911765 -0.902065183087643 38.000000000000000
-5.166397602465821 -5.598186103215815 -1.036335933467885 41.000000000000000
-5.240010458599269 -5.607685318839492 -1.172967074833013 30.000000000000000
-5.309951562386593 -5.611581839067648 -1.310518854711498 14.000000000000000
-5.372708545359658 -5.607591263940571 -1.448766062273932 6.000000000000000
-5.434316340638526 -5.600897519069968 -1.588536713691242 4.000000000000000
-5.332933180824759 -5.427527489787150 -1.678401929355154 48.000000000000000
-5.369369043340187 -5.395405893154765 -1.809543402223584 9.000000000000000
-5.484119489327608 -5.440563072310011 -1.969134551774900 6.000000000000000
-5.716480471394454 -5.597761941889079 -2.178113004897599 5.000000000000000
-5.790385118060246 -5.596573820411318 -2.332650350402541 5.000000000000000
-5.866069164590441 -5.594425775621867 -2.490388081664961 6.000000000000000
-5.460183573819464 -5.138540345630129 -2.437058566494354 17.000000000000000
-6.042519793687992 -5.609130089156381 -2.827414045697821 6.000000000000000
-6.126627193023609 -5.610060900047207 -2.999313243971892 6.000000000000000
-5.381357502411174 -4.860636667573056 -2.751497522638764 2.000000000000000
-5.505050853310765 -4.905033363718722 -2.935159076314022 37.000000000000000
-5.015728877083778 -4.404993442421429 -2.782143167382315 44.000000000000000
-5.048562679838542 -4.370487255281972 -2.909898970610378 61.000000000000000
-5.080350233187349 -4.333044319844516 -3.038365420816993 53.000000000000000
-4.986974019518969 -4.192379567259806 -3.093054750997027 29.000000000000000
-4.939466188513383 -5.593993410388260 -0.509226371141356 255.000000000000000
-5.007795208446814 -5.600690923621407 -0.637062264085637 80.000000000000000
-5.072160293168050 -5.602110297512935 -0.767311002728969 3.000000000000000
-5.124764995246783 -5.589390673439975 -0.896655810863596 3.000000000000000
-5.186187822542631 -5.586809151727634 -1.028534574762991 6.000000000000000
-5.249199137796658 -5.584575615431227 -1.162724218069672 13.000000000000000
-5.327472695125803 -5.596944785089677 -1.301975328240317 13.000000000000000
-5.398603401331575 -5.601297622616825 -1.442321135530592 25.000000000000000
-5.463157299712787 -5.597182398481225 -1.582991319220308 25.000000000000000
-5.350464764927209 -5.412889077407446 -1.669857070217565 13.000000000000000
-5.417292755049164 -5.410947443512996 -1.811080056107956 6.000000000000000
-5.477255056744966 -5.401050552238725 -1.951518889358606 8.000000000000000
-5.577501395415916 -5.428647066992785 -2.109351845037747 6.000000000000000
-5.837036238488103 -5.607392885598905 -2.334508294504734 15.000000000000000
-5.910207137134174 -5.602116257990802 -2.491586046702662 12.000000000000000
-5.480768660530074 -5.126275181068294 -2.429613479077402 13.000000000000000
-6.062194307478404 -5.592702386756461 -2.817824726902828 9.000000000000000
-6.149332869118347 -5.595960479224436 -2.990957635898399 9.000000000000000
-5.490719039567947 -4.928521674605214 -2.789663515815596 48.000000000000000
-5.525698307823637 -4.892593128533819 -2.927932835557988 45.000000000000000
-5.023630185032429 -4.384145075448306 -2.769623028762830 55.000000000000000
-5.059336421105874 -4.352070404010820 -2.898753900662267 60.000000000000000
-5.088428102048491 -4.312280168815748 -3.025411574632719 54.000000000000000
-5.008624219606548 -4.183587108614112 -3.088637617366031 30.000000000000000
-4.961097287220829 -5.586224445267944 -0.501751087513501 15.000000000000000
-5.021661296329448 -5.583820606530112 -0.628618532208951 135.000000000000000
-5.091561022600462 -5.590988568974274 -0.759508508665128 49.000000000000000
-5.165874958593716 -5.601485576254329 -0.892568905569250 40.000000000000000
-5.235707610414809 -5.607243980954884 -1.026538239078150 27.000000000000000
-5.307196166402840 -5.613195553666490 -1.163206141497604 12.000000000000000
-5.369496284186179 -5.607903289328950 -1.299351511964476 4.000000000000000
-5.427236430408665 -5.597732308334919 -1.436552029224290 4.000000000000000
-5.448057549952242 -5.548586428780746 -1.564762465922063 6.000000000000000
-5.378965646940357 -5.409284894828648 -1.664701022890936 59.000000000000000
-5.451545311128641 -5.412555672800740 -1.807915598014426 7.000000000000000
-5.511719807817313 -5.402343598058555 -1.948647841101621 7.000000000000000
-5.581771550346970 -5.399972006028200 -2.095248122263555 7.000000000000000
-5.675262927357862 -5.418880273366828 -2.253446979246089 6.000000000000000
-5.932168707046833 -5.588625323384901 -2.483352859735259 6.000000000000000
-5.381420824648332 -5.002489298400677 -2.369348165092659 26.000000000000000
-6.112511260515418 -5.604367950421332 -2.822386572807203 5.000000000000000
-6.197130941151254 -5.604518963901772 -2.994713889754939 6.000000000000000
-5.505647584947029 -4.911140336130044 -2.779568540116150 58.000000000000000
-5.540724165841997 -4.875172004684700 -2.917733648363582 43.000000000000000
-5.037012735612084 -4.368137903975573 -2.760168464629206 62.000000000000000
-5.072815196875590 -4.336021713607416 -2.889194641673189 61.000000000000000
-5.057371141035093 -4.258646652470267 -2.989391548664910 20.000000000000000
-5.019126197722311 -4.165477285425408 -3.077355227454663 19.000000000000000
-5.062201080599781 -5.596481676239477 -0.623455745895562 3.000000000000000
-5.116305326808075 -5.585674315759765 -0.752466770785919 5.000000000000000
-5.182772391701230 -5.587180533918502 -0.884233010705695 14.000000000000000
-5.247382630868714 -5.586985787702127 -1.017049326862647 26.000000000000000
-5.324511681093901 -5.598541312051173 -1.154666417261254 16.000000000000000
-5.395202793002448 -5.601624055221077 -1.292691288106779 30.000000000000000
-5.464128293041806 -5.602506108005360 -1.432886355208494 25.000000000000000
-5.344486997174563 -5.410823680447976 -1.521506436442330 7.000000000000000
-5.404720181865472 -5.402806373198398 -1.658638914731838 10.000000000000000
-5.480307360990945 -5.408550727085295 -1.802851702612720 10.000000000000000
-5.568467122596171 -5.425151644616379 -1.953499305728495 31.000000000000000
-5.613742524008973 -5.398096968106782 -2.091540101707287 6.000000000000000
-5.682430533930360 -5.392792844079561 -2.240016198133445 5.000000000000000
-5.766889332284388 -5.399780520685113 -2.397267977847727 9.000000000000000
-5.166576076238269 -4.773331073322580 -2.259279998781800 25.000000000000000
-6.106964275788540 -5.564780525194513 -2.801139239784129 8.000000000000000
-6.222633915424527 -5.592723761399730 -2.987595033347604 8.000000000000000
-5.523306422990752 -4.896207349106279 -2.770865524038797 58.000000000000000
-5.552876127034133 -4.855265127719966 -2.906054241985311 45.000000000000000
-5.050328078451117 -4.352099359056838 -2.750701995655891 27.000000000000000
-5.086226516096354 -4.319941348186620 -2.879623339116751 58.000000000000000
-5.014774425192284 -4.195861350980838 -2.946925344792883 9.000000000000000
-5.046299519697692 -4.161168110266589 -3.076284303441282 17.000000000000000
-5.092115581232490 -5.597165779406351 -0.616893949728617 50.000000000000000
-5.162629258659543 -5.603689285226578 -0.748506200554968 44.000000000000000
-5.229438425244449 -5.604787873964336 -0.880898770823974 20.000000000000000
-5.297098047710207 -5.607067822077726 -1.014860932130733 7.000000000000000
-5.363655293926914 -5.606710166149145 -1.150799287768993 3.000000000000000
-5.420908718172294 -5.595249249214636 -1.285982312633678 6.000000000000000
-5.484553924347531 -5.590268155117506 -1.424840413801912 9.000000000000000
-5.378339325127360 -5.412824210938731 -1.517629785311316 22.000000000000000
-5.560828173672520 -5.525763735922684 -1.692195366277699 5.000000000000000
-5.484057916241356 -5.379880961321998 -1.789562408332162 5.000000000000000
-5.600321415827992 -5.423399362402447 -1.949470542304008 84.000000000000000
-5.651334630954464 -5.401433927420980 -2.089830714838009 6.000000000000000
-5.720254404927497 -5.395751499488243 -2.238644969323608 5.000000000000000
-5.793775679054357 -5.391876777850336 -2.391579434866530 9.000000000000000
-5.157853297927823 -4.736067390183200 -2.240115852517092 37.000000000000000
-6.089959799905521 -5.515098257513667 -2.774826993796983 6.000000000000000
-6.279028866958700 -5.608456420862133 -2.995180973361983 7.000000000000000
-5.535288602763308 -4.876270567844218 -2.759337136577344 59.000000000000000
-5.570559057293448 -4.840221762034769 -2.897293406531509 45.000000000000000
-5.060766161010925 -4.333623420491693 -2.739702522708007 5.000000000000000
-5.040599498857318 -4.254060566243738 -2.836851316309924 4.000000000000000
-5.025064579410447 -4.177665791659801 -2.935767447525431 13.000000000000000
-5.084700486296946 -4.165933870916019 -3.081950023573754 27.000000000000000
-5.105916486686392 -5.580078755613423 -0.608343580664600 11.000000000000000
-5.176621337924942 -5.586448716321184 -0.739787985610450 31.000000000000000
-5.246328124346575 -5.590303246542988 -0.872471674830237 51.000000000000000
-5.319649336794671 -5.598167321980693 -1.007371613977451 17.000000000000000
-5.391910612963204 -5.603302316796205 -1.144509977414381 32.000000000000000
-5.460388586915088 -5.602913282305988 -1.282459835958451 23.000000000000000
-5.532591777421846 -5.605980122463645 -1.423878889142843 19.000000000000000
-5.470500631151044 -5.472965952661489 -1.529970759715410 6.000000000000000
-5.484052172683209 -5.417045785524495 -1.654763646210501 8.000000000000000
-5.465345961816083 -5.329472668494536 -1.769070545068897 5.000000000000000
-5.612633769522985 -5.402675812421945 -1.938612966809280 83.000000000000000
-5.686193412438588 -5.401949689807064 -2.087007432936776 6.000000000000000
-5.760954348428315 -5.401182871089209 -2.238278934444364 5.000000000000000
-5.834718032348968 -5.396878569711584 -2.391603476074085 10.000000000000000
-5.168624888796204 -4.716877531983095 -2.229510956956593 36.000000000000000
-6.219196060079224 -5.597442152446335 -2.814929078380480 10.000000000000000
-6.301759231813340 -5.593899094632881 -2.986590615287068 8.000000000000000
-5.550000892399560 -4.858782587643946 -2.749200949434596 56.000000000000000
-5.585367905763824 -4.822693094142545 -2.887052593385377 44.000000000000000
-5.071119125360747 -4.315131739360266 -2.728700219585524 4.000000000000000
-5.017068633554678 -4.207366144263915 -2.806860960985346 1.000000000000000
-5.074674263745747 -4.192005044387036 -2.947493651343494 15.000000000000000
-5.142865392173760 -4.186546990566667 -3.099380559685859 37.000000000000000
-5.160152276652705 -5.606970025444991 -0.604525942799239 28.000000000000000
-5.225835403586068 -5.607040885195622 -0.736027748370352 10.000000000000000
-5.295906559508179 -5.610456033879195 -0.869397955407520 4.000000000000000
-5.353146425885043 -5.600658348414595 -1.001894908345235 3.000000000000000
-5.411924159899254 -5.591252231370921 -1.136429220272187 9.000000000000000
-5.480608531620733 -5.590670490156031 -1.274345947388130 14.000000000000000
-5.553031613446301 -5.593534135620287 -1.415725882265554 15.000000000000000
-5.376629372007037 -5.347209645158974 -1.490365595010182 56.000000000000000
-5.378705762579666 -5.281389011401600 -1.609260211972794 40.000000000000000
-5.446348659417515 -5.279212886883845 -1.748671946083820 5.000000000000000
-5.630465734368286 -5.387299940610261 -1.929673279082565 38.000000000000000
-5.718291433455804 -5.399666869803323 -2.083083478215483 7.000000000000000
-5.790474397256562 -5.395941137658784 -2.233472966847346 5.000000000000000
-5.867282939750379 -5.393924872881239 -2.388088225051003 19.000000000000000
-5.190606098380543 -4.707916941406920 -2.223742432087950 19.000000000000000
-6.267087565386375 -5.605804280616374 -2.817799818156464 5.000000000000000
-6.352730084683841 -5.604221210939861 -2.991284187435994 7.000000000000000
-5.564640915467659 -4.841259510144690 -2.739051265919797 53.000000000000000
-5.600104234239716 -4.805129029482204 -2.876798146495129 40.000000000000000
-5.005038927659333 -4.232067640122037 -2.676861748773477 0.000000000000000
-5.038454240230227 -4.198515145930725 -2.802119454715719 2.000000000000000
-5.155503508931670 -4.231608057366389 -2.977027513850872 67.000000000000000
-5.176654170257190 -5.592632302761475 -0.596197557582832 54.000000000000000
-5.245248147429064 -5.595447064892042 -0.727983527205799 72.000000000000000
-5.315532505078787 -5.598666663388644 -0.861318628447978 25.000000000000000
-5.389444595261588 -5.605869485503347 -0.996852178664473 28.000000000000000
-5.462277843470233 -5.610337360169457 -1.134627456842549 17.000000000000000
-5.536834869812052 -5.614914023572998 -1.274497599965031 16.000000000000000
-5.584563919957911 -5.592167394689231 -1.410352315444271 8.000000000000000
-5.374125838893997 -5.313097344950200 -1.476403762801701 63.000000000000000
-5.376129732183782 -5.247480163830210 -1.594860819299914 64.000000000000000
-5.387760692410756 -5.191230314418598 -1.715849219475578 7.000000000000000
-5.606027836468046 -5.331724269200421 -1.906355741713655 8.000000000000000
-5.750421640629135 -5.397255248890159 -2.079091804926318 10.000000000000000
-5.825658766670504 -5.395818925881973 -2.230771627354307 8.000000000000000
-5.874411662536653 -5.367571298312083 -2.374211864301433 25.000000000000000
-5.413708949585214 -4.880194026199845 -2.303518542539717 16.000000000000000
-6.298080751797358 -5.598830949698909 -2.812956956750884 10.000000000000000
-6.386809721984857 -5.599392018813589 -2.987889990412359 6.000000000000000
-5.005963346916835 -4.328082173438261 -2.448503965545314 1.000000000000000
-5.030310045337724 -4.289181568863317 -2.568144528078124 0.000000000000000
-5.014983445363383 -4.213752017756721 -2.665974301373210 1.000000000000000
-5.125022498948836 -4.243571841042239 -2.833384268887932 16.000000000000000
-5.168715071218717 -4.215379614038758 -2.967315153822215 52.000000000000000
-5.183483570252106 -4.165593398508135 -3.088293009938001 39.000000000000000
-5.220278843895899 -5.607437321588477 -0.590924256084949 5.000000000000000
-5.283749795706477 -5.604073751325367 -0.722524384417426 3.000000000000000
-5.340614199284451 -5.592564262744061 -0.854087197819564 4.000000000000000
-5.409260354627486 -5.593809897479413 -0.988700787254005 17.000000000000000
-5.479543842619901 -5.595244993050694 -1.125867107853971 19.000000000000000
-5.548750155062346 -5.594028894627026 -1.264362464949640 24.000000000000000
-5.618919770220035 -5.593451978228047 -1.405610039480072 14.000000000000000
-5.377046647785086 -5.284548324773204 -1.464007633409027 46.000000000000000
-5.376185664637563 -5.216355441451709 -1.581328431345841 63.000000000000000
-5.370888364938331 -5.144076313704959 -1.696591008507836 16.000000000000000
-5.581269089568092 -5.276328840798367 -1.883149838327029 5.000000000000000
-5.759951017300296 -5.373600255897212 -2.066910875708651 6.000000000000000
-5.866559983278715 -5.400769756651202 -2.230147976757274 27.000000000000000
-5.858703411425522 -5.320603962437294 -2.351234529315932 8.000000000000000
-5.726145704949919 -5.130223364404034 -2.419847845837949 8.000000000000000
-6.329082737494161 -5.591739354392535 -2.808053185837326 6.000000000000000
-6.437991905477859 -5.609307284156739 -2.992362948725926 9.000000000000000
-4.981670056297416 -4.280249714056382 -2.421244687244553 5.000000000000000
-4.991858258481759 -4.229725433137256 -2.532790928501464 0.000000000000000
-5.033379595544945 -4.202549194160133 -2.659595104111867 1.000000000000000
-5.146581733703019 -4.234392941019768 -2.828464756604965 71.000000000000000
-5.176176753242357 -4.194516028974063 -2.954348236392092 34.000000000000000
-5.199501452715916 -4.151615624417468 -3.080177973802459 40.000000000000000
-5.239488405112742 -5.595840769279626 -0.582813295624864 97.000000000000000
-5.311373901063772 -5.600970939813283 -0.715496900388616 22.000000000000000
-5.387730049603991 -5.609309719190844 -0.850285473700033 25.000000000000000
-5.456710316091086 -5.610134940141676 -0.985516351800754 11.000000000000000
-5.530102446165839 -5.613955963773283 -1.123861811667693 7.000000000000000
-5.596845811499287 -5.609476735070904 -1.262403945257272 5.000000000000000
-5.460120484982378 -5.403396503289970 -1.352919257646046 8.000000000000000
-5.480961293853315 -5.354835527914789 -1.478923853436461 6.000000000000000
-5.376082662035094 -5.185274715288205 -1.567828223358181 62.000000000000000
-5.379178197943358 -5.121266811234147 -1.685385464195792 17.000000000000000
-5.530703464960336 -5.197164882376324 -1.851523796247301 6.000000000000000
-5.723964690640717 -5.307835112726582 -2.038562885074951 6.000000000000000
-5.879115446911401 -5.379531000273602 -2.218700470767299 21.000000000000000
-5.839878153556040 -5.271199741514913 -2.327207003399572 8.000000000000000
-5.761005832927430 -5.129842292188335 -2.417971432885849 9.000000000000000
-6.188892643382982 -5.434205553554460 -2.727635212120178 7.000000000000000
-4.970470541038011 -4.303858569475575 -2.295325688137735 1.000000000000000
-4.997057724720845 -4.266722713171239 -2.413398306271969 0.000000000000000
-5.012973376849861 -4.220996516088591 -2.527817701924419 1.000000000000000
-5.140220897146770 -4.264692939381106 -2.699655396773555 2.000000000000000
-5.165273536300967 -4.222805874380265 -2.821948943990376 76.000000000000000
-5.186385081537946 -4.175946982298131 -2.943004686886478 41.000000000000000
-5.209777991998870 -4.133077222021280 -3.068690592238497 39.000000000000000
-5.269600911538490 -5.595797204974351 -0.575867930965047 6.000000000000000
-5.333515058239009 -5.591994400863724 -0.707683364398570 7.000000000000000
-5.401824851840767 -5.591517513625099 -0.841201619624723 33.000000000000000
-5.476538813589221 -5.597870183875173 -0.977259447502094 25.000000000000000
-5.550150483824798 -5.601485660299113 -1.115564433084340 28.000000000000000
-5.622687263717987 -5.602395905886920 -1.255326271582412 17.000000000000000
-5.623176253802328 -5.532037118510417 -1.380042802994379 20.000000000000000
-5.641724768428428 -5.479333529669218 -1.508611848005921 6.000000000000000
-5.372994657618111 -5.151528681589675 -1.553543257191820 64.000000000000000
-5.373192178593198 -5.085045677147129 -1.669782103518954 6.000000000000000
-5.238203909807363 -4.892788235898158 -1.739890536193422 9.000000000000000
-5.713207312101341 -5.265927620510618 -2.019418853159284 6.000000000000000
-5.865912463956617 -5.334928922310818 -2.197632444038336 12.000000000000000
-5.835047067460128 -5.234756764286470 -2.308924281842524 5.000000000000000
-5.801633465139029 -5.134377860625534 -2.418402183363479 10.000000000000000
-6.396835225921716 -5.582196081895802 -2.800568870010916 7.000000000000000
-4.971425978390501 -4.278020015323317 -2.280921850892121 16.000000000000000
-5.003803653057251 -4.245860329005348 -2.401408559206349 0.000000000000000
-5.054119085116238 -4.228964407393345 -2.532852209360831 1.000000000000000
-5.173138467899867 -4.264931383992901 -2.700552291988995 2.000000000000000
-5.172488743995673 -4.201861657107303 -2.809188994669019 43.000000000000000
-5.193649528085300 -4.155076187480800 -2.930046152477698 43.000000000000000
-5.222822936103345 -4.116773193161335 -3.058872186636941 40.000000000000000
-5.313461568135544 -5.610111768012890 -0.570329829440701 22.000000000000000
-5.385972741525749 -5.614562691820577 -0.703795003646716 14.000000000000000
-5.449108399013546 -5.607921550014584 -0.837215351437169 5.000000000000000
-5.515820320309655 -5.605347878669768 -0.972408017835841 3.000000000000000
-5.584141718799533 -5.602978773029530 -1.110015375273287 3.000000000000000
-5.665369222792307 -5.611904072505236 -1.251921822813552 5.000000000000000
-5.713826978039064 -5.588180281699471 -1.388872349878923 5.000000000000000
-5.387789181384499 -5.201802885782851 -1.427708119475879 5.000000000000000
-5.375401204607034 -5.123247653728036 -1.540925490761773 66.000000000000000
-5.378383641913649 -5.059597839802910 -1.657734327284499 6.000000000000000
-5.248630862029204 -4.873135848672080 -1.729695081377531 14.000000000000000
-5.342438670073628 -4.894510756783059 -1.874131667796277 13.000000000000000
-5.846737688408410 -5.285274622328215 -2.174512949954083 12.000000000000000
-5.832882929444599 -5.200941225172832 -2.291816551055410 8.000000000000000
-5.836608007232957 -5.133692186718634 -2.416363280206058 11.000000000000000
-6.459457502973405 -5.602121443169109 -2.809207023924268 7.000000000000000
-4.983734829104675 -4.262041438311336 -2.271781224344906 7.000000000000000
-5.013320911835824 -4.227423085663331 -2.390796413279548 1.000000000000000
-5.465892905289741 -4.544831964510887 -2.722326424634521 13.000000000000000
-5.234825538061865 -4.288556188648291 -2.716275281127032 2.000000000000000
-5.179601113692025 -4.180918427670873 -2.796435839457509 41.000000000000000
-5.206545199405392 -4.138764268121103 -2.920310500524332 43.000000000000000
-5.232936947110097 -4.098196920119961 -3.047375413612396 35.000000000000000
-5.327171066581625 -5.592451236925693 -0.561492288445576 12.000000000000000
-5.399870016113770 -5.596743561556472 -0.694787244594810 51.000000000000000
-5.471503929790765 -5.598505295836540 -0.829317308859776 39.000000000000000
-5.546805478971223 -5.604187765669313 -0.966004381758802 31.000000000000000
-5.618180749119864 -5.604329588079479 -1.104390754396235 14.000000000000000
-5.696886211184302 -5.610129924088386 -1.245950934694545 21.000000000000000
-5.768132209659051 -5.608148787159589 -1.388601452172013 22.000000000000000
-5.373142501447085 -5.157034453107537 -1.410934197120760 7.000000000000000
-5.374823432756005 -5.092302515993661 -1.527523535760276 67.000000000000000
-5.394857586620469 -5.044830386213116 -1.649188283497182 0.000000000000000
-5.258970880228110 -4.853468309327364 -1.719497208857211 15.000000000000000
-5.324390867618511 -4.848582923907731 -1.853699414363335 18.000000000000000
-5.428463652134297 -4.877439883602812 -2.004242140884512 22.000000000000000
-5.672490704116955 -5.027117160355184 -2.213087948493953 9.000000000000000
-5.865876239835722 -5.127831759647466 -2.411881710134537 24.000000000000000
-6.510759936034270 -5.611827863458186 -2.812708496493252 10.000000000000000
-5.004620781234755 -4.253380883597387 -2.266544924567246 6.000000000000000
-5.060215792154409 -4.240365367558390 -2.397935296550457 2.000000000000000
-5.355685102017968 -4.425261895834268 -2.650997970821568 6.000000000000000
-5.259296710506644 -4.281405721177056 -2.712522656407937 18.000000000000000
-5.186610742535661 -4.159976549618341 -2.783689657996947 50.000000000000000
-5.219372699577040 -4.122422484958719 -2.910563773294907 41.000000000000000
-5.245836638864257 -4.081840146560728 -3.037538967038026 36.000000000000000
-5.379451599692098 -5.615092798617712 -0.556641131683266 5.000000000000000
-5.435894735928395 -5.601767860217174 -0.688579160404864 3.000000000000000
-5.502245159937399 -5.597520935854052 -0.822630884796477 3.000000000000000
-5.575019411400319 -5.600087223480494 -0.959052476103456 4.000000000000000
-5.652266901085805 -5.605537810876771 -1.098690461285941 4.000000000000000
-5.728432632873502 -5.608227837700727 -1.239912936890556 5.000000000000000
-5.805596227181224 -5.611424416089076 -1.384136001070167 5.000000000000000
-5.361095809083719 -5.115103750182024 -1.394978620158305 12.000000000000000
-5.374088091784471 -5.061403769781068 -1.514154899931423 67.000000000000000
-5.342635997395248 -4.966209823989883 -1.619810045481523 5.000000000000000
-5.272090800490669 -4.836415826756675 -1.710227044014683 15.000000000000000
-5.303208540881466 -4.800196056483952 -1.832362680049388 23.000000000000000
-5.410388327908817 -4.831750776683106 -1.982998379537974 27.000000000000000
-5.620489408104952 -4.950690299076362 -2.177329643396068 4.000000000000000
-5.846102195327835 -5.079237958699006 -2.387309548570146 16.000000000000000
-6.544860144784141 -5.606460198474408 -2.808648381007924 6.000000000000000
-5.031272091482782 -4.249527150963521 -2.263871934251215 9.000000000000000
-5.095690858469712 -4.243463816938744 -2.399511097961390 3.000000000000000
-5.383362291060691 -4.420218643420352 -2.648278985972761 6.000000000000000
-5.488879145950600 -4.440081698417957 -2.813872817403535 34.000000000000000
-5.199291512112174 -4.143637871723352 -2.774031175040806 49.000000000000000
-5.226363344824901 -4.101523983189053 -2.897607841512664 39.000000000000000
-5.255788054173684 -4.063227057813367 -3.026033345199374 37.000000000000000
-5.395906800779878 -5.600134217769604 -0.547998668122000 76.000000000000000
-5.471983796847330 -5.606636500406681 -0.682287680782674 42.000000000000000
-5.538611043773278 -5.602069549554852 -0.816703414798164 31.000000000000000
-5.614486187972413 -5.607101089846105 -0.953952940827599 13.000000000000000
-5.689221534004402 -5.609385582498182 -1.093456777326903 17.000000000000000
-5.768507659363125 -5.614470391578738 -1.235628425520653 23.000000000000000
-5.843123077791110 -5.614539880765594 -1.379584946669687 25.000000000000000
-5.365939272277019 -5.089517002363256 -1.383505839846905 18.000000000000000
-5.373195529651258 -5.030552010482797 -1.500819865927693 68.000000000000000
-5.376007512951960 -4.967440504648630 -1.616506744019413 17.000000000000000
-5.288016615430815 -4.821955103438772 -1.701871104211007 16.000000000000000
-5.296155416967572 -4.764929529620004 -1.816063979346633 28.000000000000000
-5.392051090666485 -4.786203239445446 -1.961842905628347 34.000000000000000
-5.660526880674437 -4.955582092783827 -2.177352877886905 5.000000000000000
-5.739218411818193 -4.955823168251288 -2.327619545044000 4.000000000000000
-5.278250344558002 -4.493590527344232 -2.250035882543991 0.000000000000000
-5.101421353921316 -4.282061904069253 -2.280580193607410 2.000000000000000
-5.125439209920717 -4.241610210743944 -2.398291001008845 2.000000000000000
-5.413954206943299 -4.417431039043233 -2.646920259550405 6.000000000000000
-5.731276802213480 -4.606869439656400 -2.920439039317470 70.000000000000000
-5.211904183181191 -4.127270010621797 -2.764361959794764 47.000000000000000
-5.239037109361682 -4.085138708905696 -2.887848315914721 38.000000000000000
-5.265653863319909 -4.044599844346879 -3.014525748905342 35.000000000000000
-5.426192633494432 -5.599456448272098 -0.540718954832152 4.000000000000000
-5.494177664563293 -5.597128770545884 -0.674199759819998 6.000000000000000
-5.558205810738366 -5.589531809731809 -0.808243969028222 10.000000000000000
-5.637121788101907 -5.597150089167060 -0.945922208981232 7.000000000000000
-5.714916731803944 -5.601976054949039 -1.085986661209500 6.000000000000000
-5.788769586913104 -5.601289211112045 -1.227032942960244 7.000000000000000
-5.860748373554706 -5.598424758365313 -1.370280528504344 7.000000000000000
-5.379244383039970 -5.072039993158863 -1.374241672825402 17.000000000000000
-5.369276360728781 -4.997077026634145 -1.486724100835243 21.000000000000000
-5.372023694355092 -4.934173242020123 -1.601973734185454 42.000000000000000
-5.301005915134500 -4.804834363072659 -1.692574084388986 17.000000000000000
-5.280241097110313 -4.721989572447196 -1.796867394686439 35.000000000000000
-5.379243164118082 -4.745906936502168 -1.942867553733266 34.000000000000000
-5.694847767044916 -4.955252723702312 -2.175066747119347 5.000000000000000
-5.773773350616441 -4.955108597764740 -2.325591554867139 4.000000000000000
-5.282365997142104 -4.469371506193331 -2.236808398558995 16.000000000000000
-6.727183017601766 -5.611682116053674 -2.987903692566709 8.000000000000000
-5.155223613150843 -4.239633884933380 -2.397006053420947 1.000000000000000
-5.621898769876712 -4.558290756227247 -2.731654371063798 21.000000000000000
-5.754097618450388 -4.595973408980402 -2.914410578708605 51.000000000000000
-5.218640517806649 -4.106303003826421 -2.751619666064492 38.000000000000000
-5.251642549357433 -4.068724261532051 -2.878078077015815 39.000000000000000
-5.275434080795035 -4.025958794428131 -3.003016324423330 37.000000000000000
-5.467649390103666 -5.610085870703670 -0.534462973675501 34.000000000000000
-5.541551764091150 -5.613069035772296 -0.669115868555313 27.000000000000000
-5.611532342408677 -5.610695629564551 -0.804596372404585 8.000000000000000
-5.688005383278896 -5.615026599719330 -0.942536494908644 12.000000000000000
-5.760479474008499 -5.613837615339771 -1.082201209629265 14.000000000000000
-5.840344583956345 -5.618203337633518 -1.224982611164484 21.000000000000000
-5.912641215680279 -5.614856013388359 -1.368900947313355 13.000000000000000
-5.409698017086743 -5.070672264954113 -1.369324704134442 17.000000000000000
-5.370940146610548 -4.968991827233683 -1.474251729662179 49.000000000000000
-5.370752016196720 -4.903605051366299 -1.588337583995846 64.000000000000000
-5.316818172737660 -4.790289990996803 -1.684182389232951 16.000000000000000
-5.284375875331175 -4.697214598095303 -1.784603773294858 43.000000000000000
-5.372017100257874 -4.710815373814528 -1.926045375470078 38.000000000000000
-5.726307758605442 -4.952264410587972 -2.171601404806804 4.000000000000000
-5.790906115920919 -4.939349601198253 -2.316499055413657 4.000000000000000
-5.292189062110071 -4.450071487335198 -2.226049120861627 33.000000000000000
-6.761669076109929 -5.605454438540695 -2.983770742302960 7.000000000000000
-5.187959712303598 -4.239917919443019 -2.397003558591591 1.000000000000000
-5.673488424540953 -4.571214618372041 -2.739741230368585 26.000000000000000
-5.765237700703566 -4.575743605745134 -2.902472861004691 39.000000000000000
-5.231099679843585 -4.089893145682862 -2.741938401284150 8.000000000000000
-5.264179596701381 -4.052280854933790 -2.868297238155411 44.000000000000000
-5.290939748906276 -4.011710248045522 -2.994794393471799 37.000000000000000
-5.478471105902368 -5.589176799124576 -0.525160023155265 20.000000000000000
-5.555352387133926 -5.594848000997933 -0.659908857718101 27.000000000000000
-5.628327822232845 -5.595130492688853 -0.795623463243172 11.000000000000000
-5.707844848721697 -5.602054009447505 -0.933917586382395 10.000000000000000
-5.786221649649522 -5.606180022706882 -1.074601588557104 10.000000000000000
-5.857759589850732 -5.602069852935878 -1.215681681337172 13.000000000000000
-5.930251812008458 -5.598544846350202 -1.359497351809112 8.000000000000000
-5.405642507240949 -5.036993825477324 -1.355679271071555 19.000000000000000
-5.375351774297642 -4.943594570502781 -1.462590176724366 63.000000000000000
-5.372218615366351 -4.875712809438485 -1.575584890949618 66.000000000000000
-5.323873866362165 -4.767905137676409 -1.673035460827081 16.000000000000000
-5.291296904627114 -4.675026568661600 -1.773331229463821 44.000000000000000
-5.358775599143457 -4.670727999830306 -1.907203195683634 37.000000000000000
-5.574037745991007 -4.791196347367112 -2.098875119496995 8.000000000000000
-5.486776168696681 -4.651248883064420 -2.179776846930474 11.000000000000000
-5.301925648779730 -4.430758170672938 -2.215288344172524 35.000000000000000
-6.813720603266665 -5.613545517548394 -2.987259323030341 11.000000000000000
-5.220747837991222 -4.240062905762409 -2.396926900697563 2.000000000000000
-5.748620297415603 -4.602629550659486 -2.758924046714118 47.000000000000000
-5.785056763325402 -4.562412789173970 -2.894920341958446 38.000000000000000
-5.243490598308987 -4.073454794094399 -2.732246765194278 36.000000000000000
-5.276648184126516 -4.035808703107746 -2.858505912688327 42.000000000000000
-5.306393804181947 -3.997417044845271 -2.986552822991739 37.000000000000000
-5.534037124965351 -5.613729863004021 -0.520067423246324 13.000000000000000
-5.605700692785399 -5.613264290430519 -0.654968509687947 5.000000000000000
-5.684701304927900 -5.618691114724926 -0.792152277698046 11.000000000000000
-5.758927162578616 -5.619542636849507 -0.930321712497714 10.000000000000000
-5.834804796504098 -5.620434170471849 -1.071147385790205 12.000000000000000
-5.912391185305625 -5.621326182517405 -1.214012529451261 10.000000000000000
-5.988088410295900 -5.619991639219034 -1.359215643519477 16.000000000000000
-5.418735374787481 -5.019425107821987 -1.346381270291973 6.000000000000000
-5.423072601048875 -4.957920610422587 -1.462658806591580 37.000000000000000
-5.370643358413257 -4.845235151167686 -1.562013523187503 66.000000000000000
-5.333735287316697 -4.748113013953429 -1.662803263034668 20.000000000000000
-5.271871450810570 -4.629794745979141 -1.753338534405831 29.000000000000000
-5.345309725284872 -4.630754321221318 -1.888432778063612 31.000000000000000
-5.455822927793038 -4.660994901604910 -2.039784966064027 27.000000000000000
-5.362280252017922 -4.517832535213530 -2.115683266130520 20.000000000000000
-5.308644442623947 -4.408997282029409 -2.203309589879540 22.000000000000000
-6.857094789238868 -5.614200267205925 -2.986789314815842 12.000000000000000
-5.253587323374247 -4.240068538489089 -2.396775964623395 2.000000000000000
-5.762454016934552 -4.584682229785685 -2.748529162043257 44.000000000000000
-5.798972753099406 -4.544422476506748 -2.884420802142252 39.000000000000000
-5.255813207709935 -4.056988162657402 -2.722544870836753 51.000000000000000
-5.289048245209683 -4.019308020179305 -2.848704213983384 40.000000000000000
-5.315951178013189 -3.978704719277298 -2.975020643589008 40.000000000000000
-5.550435585634069 -5.598333186775872 -0.511204792202602 38.000000000000000
-5.625115206444189 -5.600503076080689 -0.646328251773885 14.000000000000000
-5.698661618483500 -5.600129106668749 -0.782683682380374 24.000000000000000
-5.778778289259424 -5.606354070549540 -0.921591839816578 17.000000000000000
-5.854871036194236 -5.607033340909196 -1.062373881204962 19.000000000000000
-5.929798912713239 -5.604989529150170 -1.204608331741822 12.000000000000000
-6.008585135384417 -5.606160691548070 -1.350352165688149 10.000000000000000
-5.495455997112331 -5.060483072917139 -1.352752177052843 17.000000000000000
-5.401233427360715 -4.908687711533689 -1.443974519788827 0.000000000000000
-5.368912556408312 -4.814807595587278 -1.548477245269108 65.000000000000000
-5.343509734305516 -4.728307660561758 -1.652569631348454 24.000000000000000
-5.255113305354460 -4.587262654356961 -1.734401766554809 20.000000000000000
-5.328690726829750 -4.588372753186502 -1.868707204356621 26.000000000000000
-5.433587122734689 -4.613691639636024 -2.017038530619682 33.000000000000000
-5.850772647014320 -4.899155417186077 -2.292544357521869 9.000000000000000
-5.359357591886409 -4.423638225141933 -2.209519190989893 7.000000000000000
-6.885831025009487 -5.602703362758695 -2.979856057588894 8.000000000000000
-5.286477500093445 -4.239934514536621 -2.396550636528857 2.000000000000000
-5.779155244967138 -4.569027742757324 -2.739516406317497 42.000000000000000
-5.809874730463521 -4.524110003539678 -2.872455446511510 38.000000000000000
-5.268067443395684 -4.040493465091386 -2.712832831264811 47.000000000000000
-5.295508861974795 -3.998346264009575 -2.835748410178004 32.000000000000000
-5.328353803594113 -3.962159016504922 -2.965118154754188 39.000000000000000
-5.366748183677810 -3.926630005195683 -3.097819674430367 34.000000000000000
-5.592145904790878 -5.608330269817028 -0.504610507406123 3.000000000000000
-5.672825747567170 -5.615728950767338 -0.640859102496439 3.000000000000000
-5.749568660944242 -5.617705904035573 -0.778213716694653 5.000000000000000
-5.827195135296519 -5.620693710456073 -0.917334763549337 5.000000000000000
-5.900750899768400 -5.618184254775358 -1.058206264523444 4.000000000000000
-5.984641637997963 -5.623836386719473 -1.202717240315082 11.000000000000000
-6.066666131661891 -5.627164372805820 -1.349829310828382 11.000000000000000
-5.552150607568685 -5.082552338839688 -1.353953231773496 23.000000000000000
-5.373295387591980 -4.854354604974792 -1.423846216008865 3.000000000000000
-5.367026573468621 -4.784430730119913 -1.534976334790182 66.000000000000000
-5.373685132862109 -4.726509831727689 -1.648620302992239 14.000000000000000
-5.308504980535232 -4.605935732866875 -1.738600269277769 29.000000000000000
-5.341211382839901 -4.571267174957526 -1.859290557975622 44.000000000000000
-5.381652318317498 -4.541719445209873 -1.983547026352137 26.000000000000000
-5.835299601703217 -4.856210587658132 -2.270742893125363 6.000000000000000
-5.699160477063382 -4.675060294896253 -2.333924826502181 9.000000000000000
-5.531050478928996 -4.472403745555365 -2.378042332735409 0.000000000000000
-5.313517068553526 -4.234957637374371 -2.393592733076122 1.000000000000000
-5.792850281779649 -4.551007916562706 -2.729092991502673 40.000000000000000
-5.820685924610845 -4.503781085637999 -2.860487248649535 39.000000000000000
-5.286146381336292 -4.028461954204309 -2.706127624228691 18.000000000000000
-5.313642526877268 -3.986221918144052 -2.829070150397354 46.000000000000000
-5.340687615394157 -3.945584974415448 -2.955205408164128 37.000000000000000
-5.376241870858210 -3.907876480362254 -3.086115480707505 35.000000000000000
-5.697926995109043 -5.608356437425510 -0.632744837351879 22.000000000000000
-5.777769573840975 -5.612848669451564 -0.770566392618637 26.000000000000000
-5.849916331965662 -5.610047741188668 -0.908944030502060 27.000000000000000
-5.923689994766971 -5.607308403113116 -1.049840615653020 12.000000000000000
-6.004932459750040 -5.609998253879033 -1.193784631043029 15.000000000000000
-6.078477538460394 -5.605066125394649 -1.338925145176494 8.000000000000000
-5.597377157665720 -5.093750313663095 -1.352191072629575 21.000000000000000
-5.377179132942347 -4.829070393554826 -1.412274656836137 6.000000000000000
-5.367914261934436 -4.756700176298678 -1.522341587594913 68.000000000000000
-5.389215507670732 -4.711755271771300 -1.640138552323138 1.000000000000000
-5.344416554582726 -4.609135674776194 -1.736923723888726 36.000000000000000
-5.374287291056924 -4.571677952382855 -1.856990256538933 41.000000000000000
-5.364684562544509 -4.499773562410812 -1.963206925269296 26.000000000000000
-5.875710340693114 -4.859817583586953 -2.270712893901623 7.000000000000000
-5.753961681818209 -4.690848883034729 -2.340623361564091 23.000000000000000
-5.538035605616086 -4.450201950858323 -2.365588347009103 9.000000000000000
-5.352407246564781 -4.239246295863902 -2.395876355308221 1.000000000000000
-5.803513638342578 -4.530646952871522 -2.717272830984713 49.000000000000000
-5.834363446358331 -4.485709572461129 -2.849960843121941 40.000000000000000
-5.333740269854943 -4.038746182203326 -2.714432539125953 4.000000000000000
-5.322884381241817 -3.967436463978484 -2.817675241795231 42.000000000000000
-5.358847870810616 -3.933309881447226 -2.948526220676719 37.000000000000000
-5.391535680902690 -3.893360766859607 -3.077770124722043 34.000000000000000
-5.731571029579317 -5.609256615336462 -0.625515592284657 3.000000000000000
-5.808843313367105 -5.610646251558604 -0.763237840140061 3.000000000000000
-5.881244285044922 -5.607551269449094 -0.901837247027588 3.000000000000000
-5.969719373625380 -5.618105661649351 -1.045483321103356 4.000000000000000
-6.062891901644898 -5.631120082812222 -1.192236722265159 10.000000000000000
-6.133862586401682 -5.622979853390503 -1.337539285219765 13.000000000000000
-5.636874871324277 -5.099456882758051 -1.348918524568640 21.000000000000000
-5.360437672884283 -4.785500448902811 -1.395382889630627 9.000000000000000
-5.371601252225835 -4.731592361718388 -1.510559402874991 67.000000000000000
-5.366423965399960 -4.663698630736091 -1.620084227826218 0.000000000000000
-5.359745113627351 -4.594478267120620 -1.728503910873224 37.000000000000000
-5.380817717116559 -4.549462512880011 -1.845493846932039 30.000000000000000
-5.448094462497695 -4.541840336597548 -1.979507283279711 36.000000000000000
-5.874722835317703 -4.829153213300367 -2.254669565738510 7.000000000000000
-5.826717451672558 -4.720795181453110 -2.354369680645658 10.000000000000000
-5.533048487213676 -4.418526076491444 -2.348105991966199 8.000000000000000
-5.391379847265759 -4.243362241046340 -2.398066770079352 1.000000000000000
-5.817052741436401 -4.512571516518706 -2.706830565744985 29.000000000000000
-5.845001497824790 -4.465340643159593 -2.837982810196891 31.000000000000000
-5.402210244149899 -4.064417317278561 -2.733111843486838 2.000000000000000
-5.335001327128618 -3.950831793829960 -2.807837776011681 44.000000000000000
-5.365148539325683 -3.912352731851773 -2.935349596307645 39.000000000000000
-5.400874361738531 -3.874566469813742 -3.066054598292484 39.000000000000000
-5.770973100696583 -5.615576764689245 -0.618823941778870 27.000000000000000
-5.842814126814647 -5.611074670585968 -0.756214335095370 32.000000000000000
-5.924138774772126 -5.615867974922600 -0.896409875826980 15.000000000000000
-5.995570849050735 -5.609714328386683 -1.037502456819348 18.000000000000000
-6.080295188109525 -5.614359202884918 -1.182616238022113 12.000000000000000
-6.157289114163397 -5.611366601352455 -1.329079241366404 17.000000000000000
-5.688166681960897 -5.115524705471950 -1.348328886413128 23.000000000000000
-5.355208621135284 -4.752491170328455 -1.381604972511457 17.000000000000000
-5.369277110349168 -4.701346846858788 -1.497152342886797 69.000000000000000
-5.372881787023670 -4.641309275765948 -1.608971568847102 4.000000000000000
