# This PCD file was generated using the MATLAB® pcwrite function
# from Computer Vision Toolbox®.
# .PCD v.7 - Point Cloud Data file format
VERSION .7
FIELDS x y z intensity
SIZE 8 8 8 8
TYPE F F F F
COUNT 1 1 1 1
WIDTH 630
HEIGHT 1
VIEWPOINT 0 0 0 1 0 0 0
POINTS 630
DATA ascii
-1.654160300884708 -5.205018640899397 -2.551140656033453 19.000000000000000
-1.669236786316521 -5.187591983417396 -2.659818408236033 18.000000000000000
-1.686889619408720 -5.174653252064049 -2.772188870339475 19.000000000000000
-1.705702481819410 -5.166319329385382 -2.888827379808992 19.000000000000000
-1.721341795364824 -5.148901864382409 -3.002566904248689 19.000000000000000
-1.673547401534560 -4.945421031984669 -3.005099983564709 2.000000000000000
-1.678108862311656 -4.892777486492599 -3.095393854407260 3.000000000000000
-1.481001709846823 -4.095292547294583 -3.027809255469083 52.000000000000000
-1.479463388415985 -4.036691060350654 -3.099405324513367 83.000000000000000
-1.479472949546042 -5.533523603214311 -1.031346849625110 25.000000000000000
-1.495200574066606 -5.521936249184606 -1.133498700154495 9.000000000000000
-1.473290121615132 -5.372956206967172 -1.204474082562266 41.000000000000000
-1.488637569356350 -5.362208207476337 -1.305119659944724 41.000000000000000
-1.503817071080526 -5.349674898049600 -1.405466720312076 38.000000000000000
-1.520156010045489 -5.343062853605884 -1.507428621042976 36.000000000000000
-1.534095944441070 -5.327093250736403 -1.607672582091307 37.000000000000000
-1.548942835113421 -5.313008259177867 -1.708795871793517 36.000000000000000
-1.565047222066595 -5.304468978607064 -1.812632353152996 32.000000000000000
-1.578782091877468 -5.286680143373085 -1.914173494757397 28.000000000000000
-1.596394068371439 -5.281593525118740 -2.020809692646067 28.000000000000000
-1.611536763628894 -5.267232607542847 -2.125188442823338 25.000000000000000
-1.625224814133211 -5.247535266202235 -2.227824484444299 18.000000000000000
-1.640894212920484 -5.232808956729365 -2.333833028384209 19.000000000000000
-1.659336694416836 -5.226637840709359 -2.444764736457643 19.000000000000000
-1.675662416262312 -5.211160569151791 -2.552951427121858 19.000000000000000
-1.691968586326446 -5.197033314336359 -2.663547828097431 18.000000000000000
-1.708643211110638 -5.180545818433611 -2.774325755969467 19.000000000000000
-1.726488084348288 -5.168725053849185 -2.889246305235178 19.000000000000000
-1.777022934705021 -5.254038378822273 -3.063032191047784 20.000000000000000
-1.693889124331724 -4.947795242342871 -3.005841957641809 2.000000000000000
-1.698436827388353 -4.895080191891380 -3.096255522130502 3.000000000000000
-1.500141444836352 -4.100906974592590 -3.031830079543073 55.000000000000000
-1.494339708874061 -5.521941606851400 -1.026865972269779 8.000000000000000
-1.511200304067011 -5.514143764939416 -1.129635419313475 26.000000000000000
-1.492103424944766 -5.376557570059791 -1.203129280294036 40.000000000000000
-1.507580123994657 -5.365747557246936 -1.303890839616113 40.000000000000000
-1.522883134090768 -5.353150371149936 -1.404353254619074 39.000000000000000
-1.538294742347259 -5.342759333820965 -1.505381010420863 36.000000000000000
-1.553414783560726 -5.330435290365990 -1.606786272481759 36.000000000000000
-1.568379728723915 -5.316280985928321 -1.708022688720760 36.000000000000000
-1.582445018400461 -5.300381477839363 -1.809481680790655 32.000000000000000
-1.597368308016899 -5.286189685275223 -1.912315115202796 28.000000000000000
-1.612926039646107 -5.273861139761480 -2.016244595565050 25.000000000000000
-1.630380002702952 -5.266633910246531 -2.123415244889152 18.000000000000000
-1.645272867284142 -5.250426016660819 -2.227599568088892 16.000000000000000
-1.659948229371776 -5.232106967728567 -2.332150199719498 19.000000000000000
-1.678535843818878 -5.225873232178645 -2.443118986503515 19.000000000000000
-1.693855037779104 -5.206889401484803 -2.549658383332085 19.000000000000000
-1.713654974544538 -5.202984140020720 -2.665484321265390 19.000000000000000
-1.729323528578169 -5.182986309126650 -2.774612955514995 18.000000000000000
-1.782386867895371 -5.274890351677553 -2.947648016798001 19.000000000000000
-1.808535131892393 -5.286025330429659 -3.080833796680205 18.000000000000000
-1.715397720739049 -4.953385319616728 -3.008541263650665 2.000000000000000
-1.716521278999027 -4.890838389413500 -3.092984084566667 3.000000000000000
-1.517056827513265 -4.100294382868285 -3.031257916429117 49.000000000000000
-1.509144403629940 -5.510322898420182 -1.022370150258032 28.000000000000000
-1.531356496395324 -5.521435957982496 -1.128845535423582 4.000000000000000
-1.508833533801849 -5.372570656505624 -1.200070792965878 40.000000000000000
-1.524423690659086 -5.361734460905021 -1.300812047184711 39.000000000000000
-1.540907795196538 -5.352839137654879 -1.402231198159815 37.000000000000000
-1.556441468339569 -5.342401965630898 -1.503305422479439 36.000000000000000
-1.570591545350146 -5.326345423802566 -1.603647911485593 36.000000000000000
-1.585661284827911 -5.312166459758280 -1.704865330053104 34.000000000000000
-1.602025889601430 -5.303524911846774 -1.808789804943464 32.000000000000000
-1.618173000752188 -5.292874839285766 -1.913041576989988 25.000000000000000
-1.632749966516757 -5.276853763439154 -2.015773277458941 21.000000000000000
-1.649230954470755 -5.265979410988772 -2.121613089575440 19.000000000000000
-1.663111228347415 -5.246184656183113 -2.224343407698915 7.000000000000000
-1.679009819973921 -5.231348598642409 -2.330438127029602 19.000000000000000
-1.700001588559059 -5.232004673552818 -2.444692556297854 18.000000000000000
-1.715432325339006 -5.212903088370638 -2.551399092348720 20.000000000000000
-1.731985092563379 -5.198625856328566 -2.662138397050443 18.000000000000000
-1.787682461131302 -5.296912870902205 -2.834559834654068 18.000000000000000
-1.811613302596301 -5.300503899086924 -2.961015308575833 18.000000000000000
-1.831126938011463 -5.291405571416407 -3.083125883851026 19.000000000000000
-1.734667126774798 -4.952356452386701 -3.007224555597848 2.000000000000000
-1.738037611399441 -4.896260323932220 -3.095830115114212 3.000000000000000
-1.532828955068825 -4.096551505940996 -3.028382596977334 54.000000000000000
-1.528093659091236 -5.513846921529085 -1.020669336753776 3.000000000000000
-1.553687902100610 -5.536221207697412 -1.129561260980394 14.000000000000000
-1.528755237496167 -5.379822838440675 -1.199505585989558 38.000000000000000
-1.543405660912776 -5.365161811790748 -1.299523643172609 39.000000000000000
-1.557855415424154 -5.348749580853041 -1.399107010188304 36.000000000000000
-1.575687939430078 -5.345695259236104 -1.502242894113746 34.000000000000000
-1.591048690984229 -5.333256614850112 -1.603808574323911 35.000000000000000
-1.604032223397572 -5.311663822288334 -1.702857617446486 33.000000000000000
-1.619415385073939 -5.299333444598296 -1.805586567724682 23.000000000000000
-1.635681376331822 -5.288655904913567 -1.909817047401163 21.000000000000000
-1.651482749797061 -5.276198323914123 -2.013899693095100 20.000000000000000
-1.669217260022208 -5.268829069280099 -2.121215212455576 18.000000000000000
-1.682065711297340 -5.245425193503676 -2.222559219061371 5.000000000000000
-1.699216134471352 -5.234037161212268 -2.330256535963640 19.000000000000000
-1.718097895096461 -5.227647134556910 -2.441361312756480 18.000000000000000
-1.737064868556856 -5.218848067311733 -2.553101347918279 19.000000000000000
-1.792820188445712 -5.320404899431932 -2.723359593957834 17.000000000000000
-1.814585769902063 -5.316017692443532 -2.843738802579500 19.000000000000000
-1.832948374657329 -5.302608212992707 -2.961246763669544 18.000000000000000
-1.850299274018767 -5.286789252524516 -3.079596726189469 18.000000000000000
-1.753943667584563 -4.951270644154355 -3.005878344057744 2.000000000000000
-1.757286016459775 -4.895143186145891 -3.094547308328698 3.000000000000000
-1.548586446439573 -4.092764089535904 -3.025485436307536 46.000000000000000
-1.551326561331718 -5.532479896629086 -1.021737781185434 12.000000000000000
-1.568614456659710 -5.524496886243295 -1.124849696735657 14.000000000000000
-1.545489119468358 -5.375732892135326 -1.196394271976960 37.000000000000000
-1.562418772212746 -5.368530152879202 -1.298203211313241 37.000000000000000
-1.575883718487122 -5.348334034246673 -1.396931481471410 36.000000000000000
-1.593861877843668 -5.345227124182148 -1.500109097787262 34.000000000000000
-1.609339557577986 -5.332741373134253 -1.601721460078781 35.000000000000000
-1.623528062065194 -5.314764399937193 -1.701992950880553 25.000000000000000
-1.640158704465326 -5.305995595874332 -1.806070364279535 20.000000000000000
-1.655431712456061 -5.291606631378499 -1.909172884823658 20.000000000000000
-1.671357567756052 -5.279071200823185 -2.013364134314464 20.000000000000000
-1.686955162136175 -5.264502766673465 -2.117921835344626 18.000000000000000
-1.702172134217053 -5.248138893214227 -2.222240352218254 12.000000000000000
-1.720602983681756 -5.240163811701922 -2.331598721708996 19.000000000000000
-1.744252429107413 -5.247532620056881 -2.449344578656064 17.000000000000000
-1.795803127935706 -5.334790679111737 -2.608584968092638 19.000000000000000
-1.813883042811463 -5.322649909587046 -2.723367446191211 19.000000000000000
-1.834650323595257 -5.314781528042499 -2.842033690741553 18.000000000000000
-1.853145844450718 -5.301306634304644 -2.959578086192797 18.000000000000000
-1.874133067482558 -5.295340610954930 -3.083740757479444 18.000000000000000
-1.775569570773700 -4.956666974873460 -3.008471572001520 3.000000000000000
-1.777714735900187 -4.897201618453235 -3.095278117711286 3.000000000000000
-1.565505333433329 -4.092006556124282 -3.024839069376698 5.000000000000000
-1.568233246507393 -5.528296262514613 -1.018568072548835 14.000000000000000
-1.584562009915873 -5.516509132544448 -1.120889926480317 30.000000000000000
-1.564391959197323 -5.379108401870973 -1.194928700349885 38.000000000000000
-1.580362260644664 -5.368101093655118 -1.295948214022771 35.000000000000000
-1.593919448122213 -5.347864834875409 -1.394728109991617 37.000000000000000
-1.612043193470966 -5.344704928119315 -1.497947253317366 32.000000000000000
-1.626515262112260 -5.328494384067633 -1.598502956229856 22.000000000000000
-1.643055003233467 -5.317804469570257 -1.701095494017919 22.000000000000000
-1.657551035739289 -5.301697113677116 -1.802812324882248 19.000000000000000
-1.674071996278153 -5.290889549925419 -1.907195512203006 20.000000000000000
-1.691263464289442 -5.281882537233007 -2.012795259640855 20.000000000000000
-1.708131616758674 -5.270788782049457 -2.118890274377371 18.000000000000000
-1.723466246889131 -5.254316817075019 -2.223380057848079 17.000000000000000
-1.750174288582371 -5.270704391594715 -2.343789490549304 19.000000000000000
-1.796201153890247 -5.343613351437782 -2.492860558695413 19.000000000000000
-1.816759598293570 -5.337065974675558 -2.608458422894378 19.000000000000000
-1.837322596880253 -5.331639379713550 -2.726822913150193 18.000000000000000
-1.857074595325708 -5.320229058069610 -2.843902374742777 19.000000000000000
-1.874528876225004 -5.303282881947286 -2.959741232987017 17.000000000000000
-1.798433202065895 -4.965261066774850 -3.013008555659425 3.000000000000000
-1.798174027565698 -4.899197194346058 -3.095974970425287 3.000000000000000
-1.583620936809663 -4.094270199805062 -3.026436891707194 47.000000000000000
-1.582950748045540 -5.516492472162446 -1.013983103329210 31.000000000000000
-1.604851737247693 -5.523560490121825 -1.119968934130861 4.000000000000000
-1.584429537179253 -5.386178416969795 -1.194263414110425 34.000000000000000
-1.597200714519316 -5.363883287832604 -1.292765234700046 35.000000000000000
-1.613082599577676 -5.351057936677945 -1.393464561894455 35.000000000000000
-1.630231683843419 -5.344128612525719 -1.495757343213453 22.000000000000000
-1.645943127362883 -5.331547668557899 -1.597462575267957 20.000000000000000
-1.662612808035455 -5.320783871841165 -1.700165180125567 21.000000000000000
-1.677221044676650 -5.304606145722262 -1.801995340188028 20.000000000000000
-1.693872367978141 -5.293720693908454 -1.906487245141052 20.000000000000000
-1.710041631985551 -5.281054223355457 -2.010830650963846 20.000000000000000
-1.727035256403127 -5.269904498021031 -2.116967596558410 18.000000000000000
-1.757670367697357 -5.299183758873529 -2.240870895033816 18.000000000000000
-1.799914911395944 -5.360540578180009 -2.382311277188618 19.000000000000000
-1.819387903557618 -5.352853241278329 -2.495834496460913 17.000000000000000
-1.838927955210795 -5.342710307626864 -2.609974433652926 19.000000000000000
-1.858469543292667 -5.333748665794001 -2.726756337994702 18.000000000000000
-1.878363757441808 -5.322236731856808 -2.843931392421986 18.000000000000000
-1.941224837656649 -5.431904507814875 -3.030563569312707 6.000000000000000
-1.817789612271371 -4.963989167280817 -3.011562463678445 3.000000000000000
-1.817466367380891 -4.897903205261084 -3.094599197849781 3.000000000000000
-1.600568855887859 -4.093409069615999 -3.025735865264401 71.000000000000000
-1.601997570822215 -5.519785763513829 -1.012158538960072 4.000000000000000
-1.627408769440527 -5.538080938110356 -1.120535684432582 17.000000000000000
-1.603405024328878 -5.389432952711719 -1.192731644663611 32.000000000000000
-1.616270703781818 -5.367082561938691 -1.291355019129228 34.000000000000000
-1.633408241930040 -5.357904338615913 -1.393134097434915 23.000000000000000
-1.647287942908462 -5.339805308055287 -1.492507187658736 19.000000000000000
-1.663109241535386 -5.327197691723669 -1.594192085042956 19.000000000000000
-1.681048254488770 -5.320053577352620 -1.698037308240856 21.000000000000000
-1.696921697767409 -5.307454046019224 -1.801145274829419 19.000000000000000
-1.712538376684513 -5.292889744740754 -1.904450172202183 20.000000000000000
-1.727656025834352 -5.276595163274699 -2.007477058226148 20.000000000000000
-1.769459958382738 -5.339926528670255 -2.143500903681593 28.000000000000000
-1.799275872352427 -5.365037720850340 -2.267199283041391 18.000000000000000
-1.819466167804351 -5.359384290019240 -2.380366126483553 18.000000000000000
-1.840273357815700 -5.355093489731972 -2.495538355694812 18.000000000000000
-1.858762454213577 -5.341422665260077 -2.608100851165818 20.000000000000000
-1.878448913654873 -5.332394189476401 -2.724917959650739 17.000000000000000
-1.939309161588475 -5.435239478266208 -2.903248489136863 6.000000000000000
-1.993212207927545 -5.516920937090279 -3.077022012931254 7.000000000000000
-1.838359312083729 -4.965920545160955 -3.012064438026410 3.000000000000000
-1.836764951154883 -4.896552071010437 -3.093193872050764 3.000000000000000
-1.619948346829149 -4.098628571662253 -3.029540424744213 71.000000000000000
-1.627731394208275 -5.545701389655592 -1.014450888451886 13.000000000000000
-1.644471662827112 -5.533701388881367 -1.117256411416404 15.000000000000000
-1.625793010153912 -5.403870663137440 -1.193651098192936 29.000000000000000
-1.635370931744870 -5.370222295513263 -1.289912559973033 22.000000000000000
-1.651500279693136 -5.357264789441607 -1.390840322245035 22.000000000000000
-1.667780364570972 -5.346503179874651 -1.492323156404725 19.000000000000000
-1.682574453446360 -5.330135948351160 -1.593090700714925 19.000000000000000
-1.698325552186890 -5.315622545541418 -1.694718640990557 21.000000000000000
-1.714310798832158 -5.302996126189623 -1.797806043661360 19.000000000000000
-1.731210967989612 -5.292003250164209 -1.902384341967712 19.000000000000000
-1.773631190332018 -5.357811319424020 -2.036686099067129 20.000000000000000
-1.800492048237489 -5.374319346581047 -2.155693843104403 129.000000000000000
-1.821067906680657 -5.370924217392901 -2.268159767362119 17.000000000000000
-1.840220564392723 -5.361658378446952 -2.379939433518365 18.000000000000000
-1.858785394672766 -5.350352126061965 -2.491985751102002 18.000000000000000
-1.881014110168965 -5.346931266367938 -2.609542479072187 19.000000000000000
-1.941964710605605 -5.453219562711149 -2.785488370757796 5.000000000000000
-1.991371054501154 -5.521074979655890 -2.948015670296318 8.000000000000000
-2.011789508608428 -5.508521413537385 -3.071366928527615 7.000000000000000
-1.858958872441640 -4.967788424192324 -3.012532171285686 3.000000000000000
-1.857290663731487 -4.898364225013395 -3.093793029522948 3.000000000000000
-1.639383124884725 -4.103785503972648 -3.033309662271091 69.000000000000000
-1.642422033031930 -5.533748386837821 -1.009791392605959 17.000000000000000
-1.660387274633495 -5.525512217315089 -1.113195775475649 25.000000000000000
-1.649419861584871 -5.421975251225210 -1.195350365085764 27.000000000000000
-1.654501162604850 -5.373302332720501 -1.288437792103138 21.000000000000000
-1.670754334879497 -5.360278227134884 -1.389479499735448 21.000000000000000
-1.687163692728645 -5.349447835823153 -1.491074285790358 19.000000000000000
-1.702069821717993 -5.333013490703412 -1.591956478667771 20.000000000000000
-1.719115662902414 -5.322070973663878 -1.694856303303621 22.000000000000000
-1.734048282888196 -5.305727446436601 -1.796894214121092 19.000000000000000
-1.778420747952348 -5.377328454934686 -1.931272723103177 19.000000000000000
-1.805828573073196 -5.396004080604793 -2.049494358803863 19.000000000000000
-1.816174036879787 -5.362547715407233 -2.149355686652264 44.000000000000000
-1.841708950450507 -5.373226469703244 -2.267598167028473 17.000000000000000
-1.862213731132868 -5.367353496140472 -2.381024247471842 19.000000000000000
-1.880919515504499 -5.355924762915651 -2.493233184076701 17.000000000000000
-1.944721943664024 -5.468798900145391 -2.667740458065625 6.000000000000000
-1.988029265919782 -5.522876112806520 -2.819879976246790 7.000000000000000
-2.010991526517183 -5.515987207600290 -2.944218437186010 7.000000000000000
-2.030323243770760 -5.500072157437115 -3.065689121354155 6.000000000000000
-1.882049848159010 -4.976101610232271 -3.016911853814832 3.000000000000000
-1.875379996066890 -4.893678144114359 -3.090294499262098 3.000000000000000
-1.657637729972384 -4.105820127920262 -3.034782073450557 66.000000000000000
-1.654784220269510 -5.514211115197559 -1.003743473890978 31.000000000000000
-1.679688157007814 -5.528556064787141 -1.111382712531112 4.000000000000000
-1.673169402184938 -5.439995692267845 -1.196999172806476 29.000000000000000
-1.673661159800223 -5.376322518432996 -1.286930650799197 21.000000000000000
-1.687703909638065 -5.355823686442934 -1.386168876121955 22.000000000000000
-1.703053332820981 -5.341281005157649 -1.486716707886689 19.000000000000000
-1.721595105969137 -5.335830162484680 -1.590789353818359 20.000000000000000
-1.738770865561892 -5.324812339475992 -1.693798520024551 21.000000000000000
-1.783683141777643 -5.398799089897519 -1.826534104981334 19.000000000000000
-1.806996248472576 -5.404986704089230 -1.939402817009577 19.000000000000000
-1.825025028969365 -5.394849127912716 -2.047337424728706 19.000000000000000
-1.837847696532897 -5.368431732648058 -2.150088504282111 17.000000000000000
-1.863595825521095 -5.378975768681331 -2.268482814358409 17.000000000000000
-1.883038892447714 -5.369495767277585 -2.380525936577333 18.000000000000000
-1.944771627993199 -5.478804644161007 -2.549052174058518 7.000000000000000
-1.983471643150265 -5.518534919459989 -2.690709308624685 6.000000000000000
-2.007472002207110 -5.517776029670857 -2.816087329388825 8.000000000000000
-2.030592270902420 -5.510843993064864 -2.940394108525633 8.000000000000000
-2.058728865911480 -5.518150807947387 -3.074798061241166 4.000000000000000
-1.905217787733947 -4.984338510516897 -3.021247886864028 3.000000000000000
-1.897185774325150 -4.898583829284655 -3.092859292817760 3.000000000000000
-1.673429631019180 -4.101685030855329 -3.031705325008408 68.000000000000000
-1.675046159451956 -5.521049070144636 -1.002483680046867 5.000000000000000
-1.702478328664256 -5.542805375402759 -1.111796793858853 14.000000000000000
-1.695878896200429 -5.454193128807618 -1.197776307617487 30.000000000000000
-1.691679973230120 -5.375562585718501 -1.284502142931480 21.000000000000000
-1.705815096424464 -5.355022021076620 -1.383791173044137 21.000000000000000
-1.723647185028051 -5.347794273079337 -1.486432236721446 19.000000000000000
-1.739956679132164 -5.334926736286047 -1.588499755493744 20.000000000000000
-1.784862594060411 -5.407495616446547 -1.718127084483369 21.000000000000000
-1.807395932276139 -5.412167326099540 -1.829160675909097 20.000000000000000
-1.827279576602705 -5.407420600511531 -1.938462225088266 18.000000000000000
-1.845445088602569 -5.397199531317662 -2.046501806521816 18.000000000000000
-1.863244654946075 -5.384852878322723 -2.155027339648936 16.000000000000000
-1.883078940332329 -5.377638716867571 -2.266371446900039 16.000000000000000
-1.942118907622625 -5.479422377283161 -2.427777699869420 9.000000000000000
-1.981028286316146 -5.522067770906006 -2.567783180554092 5.000000000000000
-2.006442844697001 -5.523680128314876 -2.691921423634717 9.000000000000000
-2.025649962396420 -5.509234870648989 -2.810540405307955 8.000000000000000
-2.052670259971829 -5.512351410424715 -2.940119509784564 4.000000000000000
-2.079773058295267 -5.516215279619436 -3.072753978905929 8.000000000000000
-1.930971752060937 -4.998995188399737 -3.029477050432796 4.000000000000000
-1.916530933536261 -4.896997265609128 -3.091330936896814 3.000000000000000
-1.694240402404867 -4.109718437151625 -3.037633919055257 67.000000000000000
-1.699982485848585 -5.542893333763248 -1.003916848315145 10.000000000000000
-1.718376584967132 -5.534462403788140 -1.107658707947669 11.000000000000000
-1.717513133588975 -5.464576384906564 -1.197688427543192 30.000000000000000
-1.709704766295490 -5.374748764392137 -1.282045760404708 21.000000000000000
-1.726313382241149 -5.361561463619797 -1.383293453364933 22.000000000000000
-1.743095931696517 -5.350563095216205 -1.485089605718603 20.000000000000000
-1.787247912288368 -5.421710228961187 -1.612273889014678 19.000000000000000
-1.809685016435825 -5.424577613950457 -1.721563780844394 21.000000000000000
-1.827553743106937 -5.414624553664119 -1.828083219909166 19.000000000000000
-1.846367588936848 -5.406206268555072 -1.936203632978564 18.000000000000000
-1.865894170387051 -5.399486350552525 -2.045631954950007 19.000000000000000
-1.886295165306773 -5.394119684085068 -2.157087708718934 17.000000000000000
-1.943495873361469 -5.491899509051744 -2.312939163208612 10.000000000000000
-1.977066188199713 -5.519569914060312 -2.444066539862959 4.000000000000000
-2.002607760094039 -5.523836548218581 -2.567203916282412 10.000000000000000
-2.021944613779960 -5.508262228718190 -2.683112222491398 10.000000000000000
-2.050068838703154 -5.517559871042693 -2.813596777443000 4.000000000000000
-2.077296776873619 -5.520490312644519 -2.943380506966179 9.000000000000000
-2.097030912801323 -5.504269941611938 -3.065138457006952 7.000000000000000
-1.956849537486855 -5.013562124361492 -3.037652829538847 5.000000000000000
-1.938418438556992 -4.901769144731557 -3.093822426840289 3.000000000000000
-1.710047082708678 -4.105481535830662 -3.034504297883438 72.000000000000000
-1.714557791964648 -5.530761325333039 -0.999173028165615 15.000000000000000
-1.733057453269951 -5.522328453070960 -1.102753063957828 28.000000000000000
-1.738036974159875 -5.471154482726263 -1.196742287461054 30.000000000000000
-1.727735336530693 -5.373881000304391 -1.279561487960096 21.000000000000000
-1.744459690968107 -5.360645085646293 -1.380855043921588 21.000000000000000
-1.787978141343175 -5.430428605756747 -1.505099107652994 18.000000000000000
-1.810770938215597 -5.435231129610469 -1.614210388092925 19.000000000000000
-1.830958973259337 -5.430681128575526 -1.721495779249766 20.000000000000000
-1.847740417927274 -5.417018842128180 -1.826971869511463 19.000000000000000
-1.866696957467520 -5.408516807543476 -1.935197253899775 18.000000000000000
-1.886372023048482 -5.401709431870583 -2.044727806897620 18.000000000000000
-1.945589921920299 -5.505658265040386 -2.200001573707314 12.000000000000000
-1.974650703925053 -5.521853280657766 -2.323952440214158 4.000000000000000
-2.000991263746861 -5.528327272781438 -2.446437313202546 12.000000000000000
-2.019170281815938 -5.511767646480927 -2.560192333446344 10.000000000000000
-2.043682132387117 -5.509867707235281 -2.682595979741911 5.000000000000000
-2.074562837227176 -5.525804191289938 -2.816607369499427 9.000000000000000
-2.096908580644443 -5.515161677052286 -2.939460848590012 7.000000000000000
-2.119321315425439 -5.505531983881915 -3.064881520782925 4.000000000000000
-1.989242911370257 -5.044247784799553 -3.055593710739045 6.000000000000000
-1.960358255480633 -4.906470625123084 -3.096274780276007 3.000000000000000
-1.730966172336506 -4.113387773098524 -3.040361349963236 73.000000000000000
-1.730248041145674 -5.522355983614575 -0.995093013917722 26.000000000000000
-1.753614707859689 -5.528888349711104 -1.101564829143971 4.000000000000000
-1.755021049883730 -5.466478962876486 -1.193316748769512 30.000000000000000
-1.746977124471211 -5.376669847110241 -1.277931250791621 20.000000000000000
-1.790531700452372 -5.444572807801034 -1.400222543108311 18.000000000000000
-1.811395256995254 -5.444020541093090 -1.506688943044189 18.000000000000000
-1.829478468664999 -5.434072511616020 -1.611769360420506 19.000000000000000
-1.848578071431067 -5.425834763423567 -1.717944188222805 20.000000000000000
-1.867955707596283 -5.419350038554505 -1.825826561883071 18.000000000000000
-1.888302955896006 -5.414342409876526 -1.935435923859751 18.000000000000000
-1.943235707802796 -5.506900962876517 -2.082757011508993 14.000000000000000
-1.971654745893116 -5.521728181591507 -2.204720266068988 4.000000000000000
-1.997175317979696 -5.527201509918718 -2.324593344652986 11.000000000000000
-2.016110078583362 -5.512719975301575 -2.438022687537092 10.000000000000000
-2.039484474411676 -5.509976172869315 -2.557954192913967 5.000000000000000
-2.071833746721253 -5.528447890065562 -2.690336940380629 7.000000000000000
-2.092727920730753 -5.517085333393570 -2.810970521696643 7.000000000000000
-2.115215525391648 -5.506434291814221 -2.933732890205678 6.000000000000000
-2.148073737985167 -5.523271818030491 -3.073796291286817 6.000000000000000
-2.020587535535650 -5.071571510305822 -3.071495470791433 6.000000000000000
-1.979765543974544 -4.904698453249829 -3.094647875539300 3.000000000000000
-1.746786814102508 -4.109048703462048 -3.037178720236014 78.000000000000000
-1.750657895407108 -5.528943857091080 -0.993696512212641 6.000000000000000
-1.776622285592295 -5.542866258924976 -1.101827069012128 13.000000000000000
-1.775613260241627 -5.472932280853482 -1.192302729698292 26.000000000000000
-1.791810028917200 -5.457253008478421 -1.294739518870477 19.000000000000000
-1.812633838378270 -5.454537043808024 -1.400514264722814 20.000000000000000
-1.831211578005090 -5.446527897903452 -1.505190358040972 18.000000000000000
-1.849431318664835 -5.436504164564985 -1.610379541042802 19.000000000000000
-1.871168258698580 -5.435433076527541 -1.718952186138194 21.000000000000000
-1.888199362224389 -5.421617990756050 -1.824647234619817 18.000000000000000
-1.937678024593217 -5.498753578432876 -1.963725275256233 12.000000000000000
-1.970441294189346 -5.526648449894979 -2.088420938754167 5.000000000000000
-1.996571296579831 -5.534183527845031 -2.207979107193329 10.000000000000000
-2.017199473467765 -5.525487136356388 -2.322256271431177 11.000000000000000
-2.036260253541467 -5.510942980850282 -2.435724048751058 7.000000000000000
-2.067512052508972 -5.528741077464442 -2.565250867086386 6.000000000000000
-2.091106845490984 -5.523091750106333 -2.686423957726723 9.000000000000000
-2.110848634064075 -5.508318104173962 -2.805311695213065 6.000000000000000
-2.143847224216390 -5.524378211088711 -2.942213530671760 5.000000000000000
-2.166580092409549 -5.514461409653705 -3.067935798646170 7.000000000000000
-2.052149421926144 -5.098777369376625 -3.087323774342590 7.000000000000000
-2.000481379451208 -4.906066724222837 -3.095008812256017 3.000000000000000
-1.765201960912091 -4.110745894279218 -3.038469060210859 78.000000000000000
-1.773521584600717 -5.542975571518159 -0.993609079320583 9.000000000000000
-1.791248883306492 -5.530587796770360 -1.096850974502926 12.000000000000000
-1.795036351048107 -5.475595738918915 -1.190441851729402 22.000000000000000
-1.812581399950898 -5.463556165781640 -1.293871203753090 19.000000000000000
-1.832336257489402 -5.457056997457737 -1.398874106554012 20.000000000000000
-1.851056042417763 -5.448973046160118 -1.503658295640736 18.000000000000000
-1.869412324577512 -5.438873228219505 -1.608956049143313 19.000000000000000
-1.890056004639284 -5.434094231316407 -1.716485998923591 20.000000000000000
-1.940110241441123 -5.513740029846828 -1.853663166360053 13.000000000000000
-1.964734026096424 -5.518653283476056 -1.968930202794877 5.000000000000000
-1.993960681994581 -5.535658859912942 -2.090009039532376 9.000000000000000
-2.013889979162740 -5.525436800998500 -2.202769917626296 12.000000000000000
-2.033363997408918 -5.513238291615968 -2.315489234244173 9.000000000000000
-2.064169123282267 -5.529881983350271 -2.442571407493788 5.000000000000000
-2.087904392702951 -5.526808685749252 -2.562936011307802 10.000000000000000
-2.107757134147275 -5.510877567204437 -2.679176795721810 9.000000000000000
-2.139360729671948 -5.526461004033776 -2.813354659340252 4.000000000000000
-2.162159876297904 -5.515526739383958 -2.936421879851053 8.000000000000000
-2.183730764446620 -5.502298968937036 -3.060216006239396 7.000000000000000
-2.019909162785404 -4.904175635467888 -3.093319949597632 3.000000000000000
-1.783646987593539 -4.112385282356524 -3.039728065650932 75.000000000000000
-1.790416374385464 -5.538166315807385 -0.990120732430586 15.000000000000000
-1.807033629137930 -5.522010358105178 -1.092600141013956 27.000000000000000
-1.815719060280119 -5.481917103116609 -1.189354938062260 20.000000000000000
-1.833403821869710 -5.469791215221301 -1.292964998691547 20.000000000000000
-1.852066551845039 -5.459514990531682 -1.397200613976633 19.000000000000000
-1.870928403219618 -5.451355835727858 -1.502092694310813 19.000000000000000
-1.889421237977663 -5.441179552181457 -1.607498823141515 19.000000000000000
-1.936908763989433 -5.512272347021457 -1.739095745565346 13.000000000000000
-1.961981385484355 -5.519390744587287 -1.853561666515868 7.000000000000000
-1.991935453081951 -5.538454729761661 -1.974076076835918 6.000000000000000
-2.012397948648850 -5.530418883708767 -2.086206477554744 14.000000000000000
-2.031164881110863 -5.516644199787414 -2.197539987962396 12.000000000000000
-2.057258454953951 -5.521879337869689 -2.317490070642867 4.000000000000000
-2.084397210153984 -5.527964709494072 -2.440196393917998 12.000000000000000
-2.105682406518324 -5.517956700091170 -2.557411085218440 10.000000000000000
-2.134842696130536 -5.525809680166405 -2.685123840972210 4.000000000000000
-2.161436115774118 -5.527669823161707 -2.812771630178090 9.000000000000000
-2.177787854445453 -5.499959906938859 -2.927060143402416 7.000000000000000
-2.211393508243467 -5.516488765009813 -3.067154130007028 4.000000000000000
-2.101339302295885 -5.117317171115283 -3.097263002529058 9.000000000000000
-2.040668648131812 -4.905418191091987 -3.093614041705218 3.000000000000000
-1.802121662547715 -4.113966713011791 -3.040955671759657 75.000000000000000
-1.803619309618462 -5.522062720870812 -0.984603825272011 20.000000000000000
-1.825244997974831 -5.520857099278773 -1.089804380020119 4.000000000000000
-1.840182484029179 -5.499317775315674 -1.190643704711552 20.000000000000000
-1.853024968120683 -5.472260436400088 -1.291148397254031 20.000000000000000
-1.871824475175901 -5.461910873949189 -1.395493725950810 20.000000000000000
-1.889560251417962 -5.450018386756476 -1.499487125745878 18.000000000000000
-1.934968268081431 -5.516147408804156 -1.627464151943490 13.000000000000000
-1.957345727805734 -5.514359811128249 -1.737656345556930 12.000000000000000
-1.990348757244614 -5.542920043336014 -1.859442179181353 5.000000000000000
-2.011510405455596 -5.536766027684496 -1.971545546880086 14.000000000000000
-2.028213119518393 -5.518047812620273 -2.079710527801909 16.000000000000000
-2.054927732362633 -5.525369033155722 -2.199280123633816 4.000000000000000
-2.082538523043191 -5.533925174503715 -2.320907034552465 12.000000000000000
-2.100679643665284 -5.515619417365914 -2.433216693487531 11.000000000000000
-2.126056943036365 -5.515909606064379 -2.555038765399376 5.000000000000000
-2.158075033230323 -5.530461630517571 -2.686068186833845 12.000000000000000
-2.178224879900745 -5.515357962519456 -2.805309772173943 8.000000000000000
-2.205308773625716 -5.514327262298027 -2.933629843256675 4.000000000000000
-2.235173329881656 -5.520694183653443 -3.068539704152578 8.000000000000000
-2.083929785579503 -5.024868410069826 -3.040683822803170 24.000000000000000
-2.061455484980080 -4.906596023452723 -3.093873421147586 3.000000000000000
-1.819285086445430 -4.112459479958495 -3.039911643442413 72.000000000000000
-1.821678552610362 -5.520913462361710 -0.981742222822595 7.000000000000000
-1.850934029695481 -5.542026106491785 -1.091387123196326 10.000000000000000
-1.862255597989722 -5.509205322861150 -1.190275933686933 24.000000000000000
-1.872673461908174 -5.474667787225780 -1.289298539740594 19.000000000000000
-1.891609780480902 -5.464244499373981 -1.393753381861431 20.000000000000000
-1.931232776815550 -5.514403226162147 -1.514923437354446 13.000000000000000
-1.956553115794078 -5.521892690090830 -1.626960670759423 16.000000000000000
-1.986870444452649 -5.541654498720678 -1.744136248625494 4.000000000000000
-2.008477426969717 -5.537651189524873 -1.855643750429180 15.000000000000000
-2.025860671408415 -5.520771639755136 -1.963916760383703 15.000000000000000
-2.050524592077962 -5.523318628537154 -2.079856779910087 5.000000000000000
-2.080082708169529 -5.537523223655787 -2.202370648788921 12.000000000000000
-2.099976647136212 -5.524995300461698 -2.315519166700788 10.000000000000000
-2.120878019386938 -5.513591772443379 -2.430787155167234 5.000000000000000
-2.154428273038973 -5.534337330842119 -2.562142292062960 11.000000000000000
-2.174674012665645 -5.518080661599060 -2.678739022510999 9.000000000000000
-2.201644937227925 -5.519802790535689 -2.806371451531867 4.000000000000000
-2.230262947388376 -5.521945220909386 -2.936604870046785 9.000000000000000
-2.252270971053515 -5.508360557101526 -3.060735768719317 8.000000000000000
-2.113090517523909 -5.045313889648948 -3.052433819047669 16.000000000000000
-2.083620662421816 -4.910893739875013 -3.096105878484340 3.000000000000000
-1.836454381482205 -4.110900741125270 -3.038840963484353 75.000000000000000
-1.847225517817759 -5.542162968110564 -0.982834432255407 7.000000000000000
-1.866708222738021 -5.533290950447102 -1.087056423955295 18.000000000000000
-1.881868944044492 -5.511599519915467 -1.188265967495688 26.000000000000000
-1.892349056963953 -5.477013120473896 -1.287415366058849 19.000000000000000
-1.926826562971928 -5.510570916416804 -1.403197623774729 19.000000000000000
-1.953956394092345 -5.523845160223723 -1.515220464440273 17.000000000000000
-1.979487076591719 -5.531196658250616 -1.627485926625354 4.000000000000000
-2.004831112862271 -5.536375894161290 -1.740343117735468 17.000000000000000
-2.025273313171905 -5.528747945977283 -1.850621019227240 16.000000000000000
-2.046713837222596 -5.522537967409471 -1.962600536798669 5.000000000000000
-2.076859789361225 -5.539114533507520 -2.083949999405033 10.000000000000000
-2.097355077299619 -5.528555843330273 -2.197051653217148 12.000000000000000
-2.116035211849992 -5.512541348360485 -2.308653907545893 6.000000000000000
-2.149118070481007 -5.532197829086397 -2.437444296590952 9.000000000000000
-2.170846196780389 -5.521890486779893 -2.554946622130066 9.000000000000000
-2.193901096836568 -5.512435259950566 -2.674681192619607 6.000000000000000
-2.226466091422846 -5.527528055721874 -2.809097067912006 7.000000000000000
-2.249868397929256 -5.516188036186170 -2.932466835521896 7.000000000000000
-2.277447626172595 -5.515719055922346 -3.063876565101134 4.000000000000000
-2.160113883057029 -5.107490463554484 -3.089426027100226 13.000000000000000
-2.100384185015277 -4.902394310199989 -3.090277059206257 3.000000000000000
-1.856357284086171 -4.115337963729583 -3.042214173608799 76.000000000000000
-1.865360982891338 -5.540884750075110 -0.979902336915142 23.000000000000000
-1.883708798486260 -5.528237144760289 -1.083436769635433 33.000000000000000
-1.902786904864115 -5.517637330443325 -1.187019917430159 12.000000000000000
-1.926205319599522 -5.519856356412742 -1.295014622047320 23.000000000000000
-1.950690735964958 -5.523741734592954 -1.404157719822286 17.000000000000000
-1.972843989524449 -5.522267396048596 -1.512476578177632 4.000000000000000
-2.003804827986360 -5.544048678504003 -1.629032369757141 13.000000000000000
-2.022771534505469 -5.531046486179600 -1.736525291181989 18.000000000000000
-2.040701091982084 -5.516220801759367 -1.844381500509148 8.000000000000000
-2.074245923789798 -5.542013086574083 -1.967559604150027 7.000000000000000
-2.095297659549500 -5.533641894046601 -2.080028631134374 14.000000000000000
-2.114582945324897 -5.519542833945025 -2.191712086836958 9.000000000000000
-2.145493793937330 -5.534792874838087 -2.316313496230149 5.000000000000000
-2.168040516971085 -5.526583024356516 -2.433420718179687 10.000000000000000
-2.189907355225378 -5.516234857731328 -2.550893719832252 7.000000000000000
-2.221267951067485 -5.527043040966718 -2.680445469108044 6.000000000000000
-2.244541635551193 -5.518407305810189 -2.803260539703349 8.000000000000000
-2.269451764537008 -5.510375396017818 -2.928301842946063 5.000000000000000
-2.304066187495948 -5.526279256235873 -3.068794647045479 7.000000000000000
-2.188390004234376 -5.124460619635256 -3.099068980706063 14.000000000000000
-2.123977536136079 -4.909739698157552 -3.094442683638703 3.000000000000000
-1.876312186776483 -4.119709792404337 -3.045550821135951 74.000000000000000
-1.879689805519909 -5.528345843715950 -0.974965880066119 22.000000000000000
-1.900690007704741 -5.523135246641131 -1.079793749714164 5.000000000000000
-1.930201202884566 -5.542116853589086 -1.189709249164180 24.000000000000000
-1.949955916942534 -5.533090563107153 -1.295625232247107 14.000000000000000
-1.968116561296867 -5.518506869030820 -1.400419629114307 10.000000000000000
-1.998308161058730 -5.538852825432690 -1.514686063724889 7.000000000000000
-2.016319201423899 -5.524213567857459 -1.620963088620113 18.000000000000000
-2.042020973055200 -5.529266109998408 -1.733811590232852 14.000000000000000
-2.070757188281125 -5.542993946806764 -1.851265181665131 5.000000000000000
-2.092525875221331 -5.536528081561585 -1.963641582267293 14.000000000000000
-2.111018491109041 -5.521065927160719 -2.073433856707434 14.000000000000000
-2.141240685340035 -5.534975391409137 -2.196069157367273 5.000000000000000
-2.165609317130419 -5.532638643372475 -2.313746297116327 10.000000000000000
-2.185578014116907 -5.517472724554460 -2.427856560426579 10.000000000000000
-2.215785682283411 -5.527585757881377 -2.554699492984409 5.000000000000000
-2.240522279598149 -5.521267705418402 -2.676319644535783 10.000000000000000
-2.259820646996056 -5.502540474558653 -2.794001247181928 6.000000000000000
-2.300044241179585 -5.531035104075262 -2.938202029490785 6.000000000000000
-2.323871950818815 -5.520338168628194 -3.064550482564168 7.000000000000000
-2.142098264205868 -4.904308539082872 -3.090561887418699 3.000000000000000
-1.893544390806194 -4.117982303539137 -3.044390150388892 77.000000000000000
-1.896516605603769 -5.523236854557299 -0.971328684395325 8.000000000000000
-1.929273814206673 -5.551427641633864 -1.082649384389934 14.000000000000000
-1.943470007297704 -5.525806948591677 -1.183620673032624 16.000000000000000
-1.964633533104824 -5.520478745343982 -1.290166463215261 14.000000000000000
-1.993432790790048 -5.535187734254512 -1.402221970716975 4.000000000000000
-2.018586181746070 -5.540784447136015 -1.512865340087965 16.000000000000000
-2.034055292676761 -5.518831946471122 -1.617131105675550 18.000000000000000
-2.065296437348786 -5.538216693878693 -1.734447023554703 4.000000000000000
-2.088874004452890 -5.537499044417675 -1.847352085173343 15.000000000000000
-2.108076953308259 -5.523895797738335 -1.957184399758827 15.000000000000000
-2.136189588382674 -5.533106281236825 -2.076074402092336 4.000000000000000
-2.161191862208716 -5.532836978391413 -2.193442204679072 13.000000000000000
-2.180245375200811 -5.516554815563703 -2.305352266096528 11.000000000000000
-2.208571064689135 -5.522069685029501 -2.428319634211298 4.000000000000000
-2.236241723275866 -5.525213021750435 -2.552155955140594 11.000000000000000
-2.259754492630292 -5.515437897619742 -2.672167365742110 9.000000000000000
-2.294427507323369 -5.533477329841586 -2.808502635527888 4.000000000000000
-2.318286328662594 -5.521770779279103 -2.932203942333405 7.000000000000000
-2.340868216159545 -5.507784162774082 -3.056640248846604 5.000000000000000
-2.167189126121240 -4.914679921356589 -3.096645372372538 3.000000000000000
-1.912180446543331 -4.119216291963927 -3.045430524552531 88.000000000000000
-1.921080579171639 -5.540450851393724 -0.971591360408333 7.000000000000000
-1.942410196380190 -5.535061263378444 -1.076770838965140 17.000000000000000
-1.963211658732244 -5.527945304225600 -1.181472258035674 23.000000000000000
-1.991136374892317 -5.540923216184280 -1.292412414413739 3.000000000000000
-2.016207431223099 -5.544462260397544 -1.402120478884788 17.000000000000000
-2.033538649036282 -5.528104348240662 -1.507044418004453 24.000000000000000
-2.057152488923017 -5.527861520414057 -1.617506305534363 4.000000000000000
-2.087291540334880 -5.543495358965437 -1.733913847564260 18.000000000000000
-2.105610462307134 -5.528383881043690 -1.842224808441965 15.000000000000000
-2.131753855403366 -5.532491372573118 -1.958239186712615 4.000000000000000
-2.158713593915982 -5.538021878114103 -2.076026323766609 15.000000000000000
-2.178390983072818 -5.523655660906154 -2.188018479036786 11.000000000000000
-2.205846082048310 -5.528149554907648 -2.308519343840652 4.000000000000000
-2.232999731509156 -5.530026458885903 -2.430250925954330 12.000000000000000
-2.253916555193707 -5.515969269001978 -2.546437351605084 11.000000000000000
-2.285942246033606 -5.526423098486139 -2.676157653113449 4.000000000000000
-2.311084201670452 -5.520835363659849 -2.800880343776233 8.000000000000000
-2.336482130614397 -5.512458109569855 -2.926184007125515 6.000000000000000
-2.352174056715497 -5.482089201933674 -3.041445575537524 7.000000000000000
-2.185326585847994 -4.909128378489363 -3.092702099571886 3.000000000000000
-1.929434116783166 -4.117381511032730 -3.044213770680207 101.000000000000000
-1.941848569229727 -5.546400344767625 -0.969847075441294 22.000000000000000
-1.956772369281381 -5.522376632225815 -1.071603577197833 31.000000000000000
-1.982979010047906 -5.530021033402635 -1.179290301763680 4.000000000000000
-2.011116095037941 -5.542902860516142 -1.290323963646849 21.000000000000000
-2.028321986584749 -5.524429019385344 -1.394595973215894 27.000000000000000
-2.051123021954554 -5.522655359092649 -1.503187324817926 5.000000000000000
-2.083035799446401 -5.544035707488994 -1.619947509122347 13.000000000000000
-2.103877893007918 -5.534345366920586 -1.728856029563247 15.000000000000000
-2.123673392925470 -5.522790126346873 -1.838264545843690 6.000000000000000
-2.155502898921308 -5.541006466036666 -1.959248477371284 11.000000000000000
-2.175753518397305 -5.528804383699527 -2.070672044039479 12.000000000000000
-2.196933616817268 -5.517916972606717 -2.183954891181799 5.000000000000000
-2.228754557373622 -5.532734854720735 -2.308747311930136 9.000000000000000
-2.249108039513778 -5.517313745505128 -2.423094315179394 11.000000000000000
-2.275754733054137 -5.516882689167872 -2.545405623656387 4.000000000000000
-2.310817683535056 -5.533947328576890 -2.678464597114993 11.000000000000000
-2.331903253947857 -5.518167714118818 -2.798320262779816 7.000000000000000
-2.360288267157518 -5.516317908102662 -2.927157671302391 5.000000000000000
-2.361899117885264 -5.453110765828184 -3.024440366835090 41.000000000000000
-2.204864397232499 -4.906689078790560 -3.090726657906521 3.000000000000000
-1.948114397943622 -4.118500952068818 -3.045192966025798 80.000000000000000
-1.954771826302552 -5.529952640468626 -0.964171614012698 23.000000000000000
-1.979022101368632 -5.531889482712192 -1.070726049628351 4.000000000000000
-2.005442173618892 -5.539410039451540 -1.178644180019664 18.000000000000000
-2.025744327011088 -5.530140590261881 -1.284791412455876 24.000000000000000
-2.044382710573371 -5.515325512463710 -1.389827264186304 11.000000000000000
-2.079574406809805 -5.546194274141939 -1.507197186839470 7.000000000000000
-2.099456877499366 -5.534859303588755 -1.614964181955014 16.000000000000000
-2.119043763270202 -5.521566417117339 -1.722660103069571 11.000000000000000
-2.150010819067328 -5.538515734223926 -1.841384517054342 7.000000000000000
-2.172378793489495 -5.531756094680091 -1.953965426144177 11.000000000000000
-2.194143156316695 -5.523053225502195 -2.066611448206560 8.000000000000000
-2.225257224995464 -5.536515748170496 -2.189511281739735 7.000000000000000
-2.246088964929933 -5.523419343813028 -2.303168928674586 11.000000000000000
-2.270788795951594 -5.518272192435042 -2.421939358113425 6.000000000000000
-2.304691297317996 -5.534715654450117 -2.552170967715818 10.000000000000000
-2.325830870692242 -5.517821688051696 -2.669323993036684 10.000000000000000
-2.355567721954834 -5.522107015216366 -2.799108933175469 4.000000000000000
-2.357049127257608 -5.457371922606061 -2.894815211726850 33.000000000000000
-2.384294058121074 -5.453535978192765 -3.023749853900882 27.000000000000000
-2.228703903928710 -4.913670968121575 -3.094691668915032 3.000000000000000
-1.968255780623850 -4.122563736579826 -3.048360447827287 79.000000000000000
-1.972914122977006 -5.528349824455468 -0.961073400839437 7.000000000000000
-2.004016326851889 -5.548728832752148 -1.071234289171167 8.000000000000000
-2.022589811456946 -5.533984045159269 -1.174825537053568 27.000000000000000
-2.044373070657124 -5.528341843244161 -1.281795308232836 19.000000000000000
-2.071315640564404 -5.535351814830920 -1.392377751618184 4.000000000000000
-2.093091753812645 -5.529738438551165 -1.500319869671544 16.000000000000000
-2.117213744718282 -5.529244334354244 -1.611011809450039 15.000000000000000
-2.146630282332544 -5.540987302550417 -1.726494177212293 5.000000000000000
-2.170889193133314 -5.539913878524798 -1.839722351243607 13.000000000000000
-2.189209567904934 -5.522461398556959 -1.948662507783686 11.000000000000000
-2.219543618042733 -5.534787371072093 -2.069081652479345 5.000000000000000
-2.242425579752097 -5.527165730827615 -2.184003320335917 12.000000000000000
-2.266212134652021 -5.520963711558757 -2.300447403529859 7.000000000000000
-2.301026761244492 -5.539705250785998 -2.429758337458837 7.000000000000000
-2.322357159829203 -5.525291619242292 -2.546360882616781 11.000000000000000
-2.346473833899410 -5.515115228707172 -2.666676688484684 5.000000000000000
-2.359201058922074 -5.479336556210896 -2.776227884621844 11.000000000000000
-2.377851571505773 -5.454551476803303 -2.892256228412421 38.000000000000000
-2.436958441919141 -5.522431924129486 -3.061013426255188 5.000000000000000
-2.366608660941123 -5.298711232950946 -3.067396080677865 2.000000000000000
-2.249725275728244 -4.914259694600703 -3.094635978232736 3.000000000000000
-1.987002487044709 -4.123560883578579 -3.049273152064077 70.000000000000000
-2.000425274878814 -5.552691411989641 -0.962453532822500 6.000000000000000
-2.019688531060702 -5.539590653995575 -1.066704093770500 29.000000000000000
-2.037000757344190 -5.521147984736027 -1.169424151120755 31.000000000000000
-2.067105270739638 -5.537473939908123 -1.281312672425750 3.000000000000000
-2.094260474720439 -5.544349098811572 -1.392124324380206 19.000000000000000
-2.113438899454666 -5.531366661431282 -1.498340039870253 19.000000000000000
