# This PCD file was generated using the MATLAB® pcwrite function
# from Computer Vision Toolbox®.
# .PCD v.7 - Point Cloud Data file format
VERSION .7
FIELDS x y z intensity
SIZE 8 8 8 8
TYPE F F F F
COUNT 1 1 1 1
WIDTH 630
HEIGHT 1
VIEWPOINT 0 0 0 1 0 0 0
POINTS 630
DATA ascii
-4.602572950285557 -5.322301173019393 -3.027380461880550 52.000000000000000
-6.393804729893245 -9.241102270806786 -1.024668676443483 27.000000000000000
-6.466559087031059 -9.235339607499681 -1.219719602238025 34.000000000000000
-6.523761123334733 -9.207060510315856 -1.411722906610455 74.000000000000000
-6.601862678972065 -9.207795839666163 -1.611533723824070 44.000000000000000
-6.713472006589380 -9.252800766475213 -1.821743009498449 29.000000000000000
-6.780790209280955 -9.237317178130242 -2.022214501070417 26.000000000000000
-6.542171203106767 -8.808257754144272 -2.125456959290852 73.000000000000000
-4.580640948764557 -6.094690795057780 -1.608644339541624 24.000000000000000
-4.517829556907000 -5.941135066295683 -1.704836126661234 48.000000000000000
-4.519579898078796 -5.873528466244908 -1.822768471609269 59.000000000000000
-4.517400775450316 -5.801642931830536 -1.937742378517245 59.000000000000000
-4.532932656693647 -5.752449317004202 -2.059978734156780 33.000000000000000
-4.501747714335307 -5.644732109146266 -2.159296860658569 3.000000000000000
-4.500360028315385 -5.574673364332059 -2.271570491212592 6.000000000000000
-4.557427688914327 -5.576886987985615 -2.414000907943850 14.000000000000000
-4.568164862786367 -5.520592123961664 -2.532771680838297 47.000000000000000
-4.596067023270575 -5.485918211123104 -2.662586204890395 75.000000000000000
-4.628303266757246 -5.454197771263368 -2.795162883066012 74.000000000000000
-4.571703511602253 -5.319524213026647 -2.873776113239664 24.000000000000000
-4.631392208859108 -5.321022929005236 -3.026201777264643 52.000000000000000
-6.430157686142710 -9.236452514298561 -1.015390113428145 28.000000000000000
-6.500941206340013 -9.227195278497442 -1.210179624760292 34.000000000000000
-6.565292333473599 -9.208427955764833 -1.403783159722858 78.000000000000000
-6.673883158072740 -9.250614196112949 -1.611155047494384 26.000000000000000
-6.732570007840551 -9.221550854853662 -1.808065518965940 60.000000000000000
-6.636228254481805 -8.984169073991525 -1.959790959350415 33.000000000000000
-6.574482526660280 -8.796595170135340 -2.116116471130603 35.000000000000000
-4.625915692353096 -6.116484681635810 -1.610097868626586 22.000000000000000
-4.520245387178545 -5.907093476710910 -1.691157088235888 53.000000000000000
-4.517159136098197 -5.833538159508774 -1.806743446292131 59.000000000000000
-4.519647451849482 -5.768007639870467 -1.923187660470608 79.000000000000000
-4.506448931189085 -5.682768604732002 -2.032014521517270 2.000000000000000
-4.508578929936363 -5.617548221827555 -2.146188250824231 4.000000000000000
-4.526368210681338 -5.571341821252103 -2.267801828225014 6.000000000000000
-4.566790035955960 -5.552818061173741 -2.401466291038882 13.000000000000000
-4.589593270939184 -5.511133535545294 -2.526629525818496 75.000000000000000
-4.627257219169015 -5.487840703799263 -2.662035130754712 75.000000000000000
-4.657188181859753 -5.453053566696059 -2.793424607446788 73.000000000000000
-4.573684769242425 -5.287610559302572 -2.855746173025851 38.000000000000000
-4.655399161011565 -5.314105371453896 -3.021820436878684 49.000000000000000
-6.468808579488006 -9.234937617354879 -1.006400897011809 32.000000000000000
-6.537616193293519 -9.222179241817216 -1.201003139455525 30.000000000000000
-6.616130729870888 -9.222542977637223 -1.397716420055380 40.000000000000000
-6.715955765657831 -9.251436488327043 -1.603370529908259 28.000000000000000
-6.770237152051196 -9.215746514974265 -1.799355739348207 61.000000000000000
-6.621779791953250 -8.908996253584954 -1.936399271970753 24.000000000000000
-6.609128745902185 -8.787967546220877 -2.107477076188021 27.000000000000000
-4.659505648942559 -6.122502157564015 -1.607350129279978 17.000000000000000
-4.517716731214561 -5.866906158859959 -1.675742122056702 58.000000000000000
-4.516903081562049 -5.796675947761349 -1.791711614189162 62.000000000000000
-4.538483466135136 -5.755681618172828 -1.915743442594914 26.000000000000000
-4.505976607060110 -5.646406838901987 -2.016002139440315 2.000000000000000
-4.503218481469430 -5.575460131773307 -2.127403024149050 5.000000000000000
-4.562051761836117 -5.579732611022735 -2.268789040835970 15.000000000000000
-4.583286976151429 -5.537518224467587 -2.392728235284989 70.000000000000000
-4.618269234762018 -5.510285156008553 -2.524429990061608 73.000000000000000
-4.653646624929093 -5.483921933559418 -2.658645767474865 75.000000000000000
-4.669093314019623 -5.432008361897838 -2.781493983680211 72.000000000000000
-4.604671017925886 -5.289263523103871 -2.855850171111260 48.000000000000000
-4.686700496450273 -5.315386409076717 -3.022105520787666 48.000000000000000
-6.502899469962084 -9.226767738676621 -0.996634125485961 32.000000000000000
-6.578922555075557 -9.223510912025722 -1.192597362927028 26.000000000000000
-6.676391999798105 -9.249328502975795 -1.393476267853678 27.000000000000000
-6.762751417397758 -9.258499794270609 -1.596606033427061 30.000000000000000
-6.817311266371409 -9.222521658864217 -1.793049176454978 58.000000000000000
-6.894886949268137 -9.219022995223787 -1.996498176895475 27.000000000000000
-6.653252191530774 -8.791755038972264 -2.101774157847788 17.000000000000000
-4.695548603169016 -6.131495573602208 -1.605343996212035 6.000000000000000
-4.519745137910797 -5.832951253672978 -1.662131029915075 63.000000000000000
-4.528436046451310 -5.775158647125457 -1.781435818022211 87.000000000000000
-4.509151054810926 -5.682654432383893 -1.888123768984757 2.000000000000000
-4.505300372432495 -5.610096189989777 -2.000028323104901 2.000000000000000
-4.526646688071486 -5.569168405117031 -2.122283919935710 5.000000000000000
-4.578429539800498 -5.564399970015404 -2.260119448784680 59.000000000000000
-4.611867950005125 -5.536763220653843 -2.390270078909575 72.000000000000000
-4.646979388308238 -5.509330040825136 -2.522173877015642 73.000000000000000
-4.682487519650627 -5.482763312262973 -2.656590501002986 75.000000000000000
-4.563748367909327 -5.275532885878983 -2.700250655849253 25.000000000000000
-4.638154031694497 -5.293584721120304 -2.857394613734295 46.000000000000000
-4.715612025163897 -5.313794046043391 -3.020760841967376 49.000000000000000
-6.541592206008618 -9.224982934300872 -0.987504568164098 26.000000000000000
-6.634196141686839 -9.244080542272254 -1.186598702852363 21.000000000000000
-6.720522604066240 -9.253364085682554 -1.385723286242598 30.000000000000000
-6.781476252452952 -9.227066511705143 -1.583168792639030 26.000000000000000
-6.857396293782402 -9.219597858558323 -1.784801220440570 62.000000000000000
-6.932938352263518 -9.212657742277704 -1.987788501668193 1.000000000000000
-6.776015944486104 -8.898553390591490 -2.120568667801824 2.000000000000000
-4.736464391206957 -6.146547714960417 -1.604877645972859 1.000000000000000
-4.519190240163479 -5.795956264436729 -1.647675500196501 62.000000000000000
-4.539864540075238 -5.753627134243774 -1.771159156558553 21.000000000000000
-4.510786211719734 -5.649171539732005 -1.873684249504455 2.000000000000000
-4.506843652092620 -5.576835760056419 -1.985160749397488 5.000000000000000
-4.559786923901754 -5.574677191054477 -2.121645923369764 12.000000000000000
-4.602046939863881 -5.557848731245253 -2.255012515239116 73.000000000000000
-4.640482905577597 -5.535901595487124 -2.387755416311564 74.000000000000000
-4.675723256395070 -5.508267971445341 -2.519861104179297 73.000000000000000
-4.713809302992836 -5.484344942869545 -2.655857376185598 75.000000000000000
-4.577415872208374 -5.257587703933798 -2.689947856055759 33.000000000000000
-4.659448983014926 -5.283868206077018 -2.851363174955027 45.000000000000000
-4.739650225703478 -5.306601012273335 -3.016236965911097 45.000000000000000
-4.523371338447896 -4.933702245398318 -3.098882038455110 24.000000000000000
-6.580314574173697 -9.223056512992768 -0.978300906193453 25.000000000000000
-6.680316656545473 -9.251514465315589 -1.178827157108923 26.000000000000000
-6.762377599933530 -9.254023357214070 -1.377402228854598 32.000000000000000
-6.823617463281051 -9.227467471760241 -1.575164998472390 27.000000000000000
-6.899878464558112 -9.219693193890221 -1.777087106717488 69.000000000000000
-6.846900836015148 -8.936106657587514 -2.122706467224125 15.000000000000000
-6.861368170531922 -8.848922932323150 -2.304086319176621 44.000000000000000
-4.530481832945041 -5.774370457683514 -1.637614172748516 89.000000000000000
-4.510077963759470 -5.680304213747077 -1.744975873786915 2.000000000000000
-4.507386235216195 -5.609689504749261 -1.857276766367781 2.000000000000000
-4.532532795782256 -5.573531820424907 -1.980957723392730 4.000000000000000
-4.597879252433963 -5.585980370768116 -2.123188563795172 4.000000000000000
-4.632993000673327 -5.560019581764236 -2.253432516431370 73.000000000000000
-4.671581069401906 -5.537837083608219 -2.386435573699690 73.000000000000000
-4.706954457850766 -5.509971500185275 -2.518804835406037 74.000000000000000
-4.727982259281313 -5.465919443465463 -2.645434632242380 47.000000000000000
-4.610681403711261 -5.262079412596667 -2.691124904012720 49.000000000000000
-4.688104697342302 -5.282407722673282 -2.849789290140365 43.000000000000000
-4.766144659932748 -5.302066961143353 -3.013229334144123 49.000000000000000
-4.524311816762588 -4.969502159950490 -2.971153793890482 31.000000000000000
-6.633010617358929 -9.240414482501430 -0.971064540379036 21.000000000000000
-6.721845631089733 -9.252327930128279 -1.170143232757418 29.000000000000000
-6.780752188934137 -9.222524967518879 -1.364264261701449 30.000000000000000
-6.863440279259630 -9.224530532109970 -1.566537581804985 28.000000000000000
-6.937651192288724 -9.213312384277545 -1.768076594453086 3.000000000000000
-6.853257184750383 -8.889277159522338 -2.104760684938244 21.000000000000000
-6.882111929717436 -8.820837395637403 -2.290363077454245 49.000000000000000
-4.544088917636234 -5.755836156619894 -1.628419493485225 15.000000000000000
-4.508989943711661 -5.643662144539007 -1.730107304708145 2.000000000000000
-4.511071272596453 -5.579311706281506 -1.843903700767795 5.000000000000000
-4.563121745586323 -5.576105651288316 -1.978825333531921 12.000000000000000
-4.628736963273513 -5.588253996121757 -2.121275889566157 20.000000000000000
-4.663992127918034 -5.562070482510531 -2.251788040270147 72.000000000000000
-4.700272448133997 -5.536754919584224 -2.383803656715947 73.000000000000000
-4.733310229875112 -5.505822103776087 -2.515065253493492 66.000000000000000
-4.564426483290966 -5.243398542833465 -2.536293082363304 17.000000000000000
-4.636609616751788 -5.258034607735319 -2.687933653515743 49.000000000000000
-4.719265555569576 -5.283608097913421 -2.849651572329202 49.000000000000000
-4.592339536060385 -5.076028534316894 -2.884360571138317 47.000000000000000
-4.539939096964508 -4.954644620034466 -2.962226474295405 63.000000000000000
-6.683515659001690 -9.254321728958807 -0.963371046274528 26.000000000000000
-6.761073257316394 -9.249772175399213 -1.160973346985885 33.000000000000000
-6.822605509155449 -9.222934537101807 -1.355815839550638 29.000000000000000
-6.910417189613701 -9.230967953458196 -1.559442499010228 28.000000000000000
-6.873830495104323 -8.861128331134378 -2.091249153912922 25.000000000000000
-6.912409497211024 -8.805043520906620 -2.279820066980542 40.000000000000000
-4.511452284107357 -5.679168872566717 -1.602817271273234 2.000000000000000
-4.507699884304504 -5.607073858590780 -1.715278548034999 2.000000000000000
-4.541495089368889 -5.582026685332651 -1.841462581067677 4.000000000000000
-4.603574382453868 -5.590473990177613 -1.980850188773012 4.000000000000000
-4.644893893292121 -5.572707246774067 -2.112588616321064 10.000000000000000
-4.692579182818284 -5.561080397997634 -2.248897823376363 73.000000000000000
-4.731465805342419 -5.538456092318360 -2.382358379072517 77.000000000000000
-4.739887770811495 -5.478702842051840 -2.500834878316583 19.000000000000000
-4.580194076482384 -5.228225413442006 -2.527508110371726 26.000000000000000
-4.665031500928894 -5.256691447000742 -2.686122135415726 49.000000000000000
-4.700839391221695 -5.229466648654568 -2.819674376332843 47.000000000000000
-4.536128159391641 -4.981860502722394 -2.830454248524217 62.000000000000000
-4.572880164920268 -4.958592341523596 -2.964549373490398 63.000000000000000
-6.720084537120503 -9.248673056372262 -0.953569352636537 27.000000000000000
-6.783822517677376 -9.224628395084725 -1.148932992497802 30.000000000000000
-6.866877176049654 -9.226373536154101 -1.347749687591724 29.000000000000000
-6.936012343016816 -9.208720253951084 -1.547458581671712 1.000000000000000
-6.899116430540626 -8.839140445172214 -2.079183654313663 25.000000000000000
-4.510175814867761 -5.709721635475079 -1.474167210451284 1.000000000000000
-4.510069581629717 -5.642399228168371 -1.588527405751411 2.000000000000000
-4.506208187875041 -5.570540151342223 -1.700489985213701 5.000000000000000
-4.564605634958449 -5.575625066277176 -1.835994694329806 11.000000000000000
-4.626921115718436 -5.583867350424848 -1.975419550824139 23.000000000000000
-4.690609996472046 -5.592441322537194 -2.117257167888431 7.000000000000000
-4.723672962015228 -5.562897199298713 -2.247128055532396 72.000000000000000
-4.737918014761330 -5.511197016411645 -2.368454418327578 20.000000000000000
-4.746320020470352 -5.451596419354591 -2.486619943570493 59.000000000000000
-4.605844660293063 -5.224297084406312 -2.524159055827031 47.000000000000000
-4.688506412664626 -5.249665922145211 -2.681406221420011 48.000000000000000
-4.537548138098850 -5.015718445259150 -2.703679228814464 47.000000000000000
-4.564032514815285 -4.980525191893983 -2.829302390452155 68.000000000000000
-4.595924772558463 -4.951667205249473 -2.960378923962322 62.000000000000000
-6.761366556816777 -9.249331116961329 -0.944358074657353 29.000000000000000
-6.825404940385499 -9.225030603384718 -1.140035861881803 29.000000000000000
-6.906450552094075 -9.223280648398044 -1.338669060061367 30.000000000000000
-6.944323633569093 -8.948181586778825 -1.894378938408615 4.000000000000000
-6.934032244800228 -8.829461465489892 -2.069991076671544 18.000000000000000
-4.511130138828996 -5.675858633238765 -1.461215126542855 1.000000000000000
-4.508485859962017 -5.605684634915655 -1.574277937466272 2.000000000000000
-4.538919632170775 -5.576329610115289 -1.698617276506447 4.000000000000000
-4.607431417069341 -5.593085003858105 -1.838355753552610 5.000000000000000
-4.647788881529434 -5.574216149583108 -1.968901427308700 10.000000000000000
-4.709231504915999 -5.579671083350123 -2.109599306677232 21.000000000000000
-4.744881256958944 -5.552963940685528 -2.240601109257502 40.000000000000000
-4.754181537476557 -5.495460134549970 -2.359507537239296 56.000000000000000
-4.598010284944213 -5.248050494111481 -2.391995700414923 33.000000000000000
-4.636502345160324 -5.225904676923525 -2.523479801986066 47.000000000000000
-4.549492591454141 -5.061782631668474 -2.584351707884063 33.000000000000000
-4.557897247890518 -5.006224828152597 -2.697819424583594 68.000000000000000
-4.591970525259438 -4.979084867602420 -2.828094866930945 68.000000000000000
-4.626469971470986 -4.952699344877217 -2.960972948598150 55.000000000000000
-6.781435344978213 -9.220927363053249 -0.932142278397504 28.000000000000000
-6.864655585101243 -9.222082517357721 -1.130664291902498 28.000000000000000
-6.943658733862812 -9.216868871746575 -1.329055148848121 0.000000000000000
-6.969563075359060 -8.925953423216114 -1.882271506761994 9.000000000000000
-4.507733664085776 -5.704843516062242 -1.332952238795685 1.000000000000000
-4.514352992976981 -5.645100773381220 -1.449081886288872 1.000000000000000
-4.514077470561108 -5.578140492626972 -1.562622550166213 5.000000000000000
-4.569235637437983 -5.578974589463908 -1.695757122845937 11.000000000000000
-4.628132220155956 -5.583485886209390 -1.831796252658809 26.000000000000000
-4.690967991129754 -5.591123233588059 -1.971740422324365 9.000000000000000
-4.735271277322811 -5.575637330249831 -2.105235923046660 4.000000000000000
-4.758580124571090 -5.534261936943216 -2.230534467641893 33.000000000000000
-4.780374017612926 -5.491164906697770 -2.355469426501247 65.000000000000000
-4.578512679315902 -5.192997906998729 -2.365132212636393 28.000000000000000
-4.597028699704574 -5.148785291095775 -2.484800426651662 31.000000000000000
-4.557260509719354 -5.038389878148762 -2.571322632872155 61.000000000000000
-4.588266617452009 -5.007630264343624 -2.697834795313699 67.000000000000000
-4.622453922779476 -4.980245970193662 -2.828368753919904 68.000000000000000
-4.654555626268433 -4.950940727649875 -2.959905713577817 60.000000000000000
-6.822722219026247 -9.221331967050396 -0.922801319602449 26.000000000000000
-6.906318199075712 -9.222176905943330 -1.121605121511625 29.000000000000000
-4.510857953962915 -5.673969358279353 -1.321232848697192 1.000000000000000
-4.512496336662037 -5.608259774269806 -1.435409041325457 2.000000000000000
-4.536805389108728 -5.571832810916546 -1.556913609853749 4.000000000000000
-4.611987854138741 -5.596528889876993 -1.697391062203679 4.000000000000000
-4.651291137129973 -5.576800157196643 -1.826180375633158 9.000000000000000
-4.711869971686503 -5.581278918517472 -1.965121625658691 23.000000000000000
-4.776311106271889 -5.589048622853748 -2.107437236901829 14.000000000000000
-4.789719212871775 -5.535790014672419 -2.228614541660381 36.000000000000000
-4.801560594759963 -5.481048150730628 -2.348928058545150 64.000000000000000
-4.603911509055083 -5.189081710041566 -2.361570202916325 46.000000000000000
-4.544478434782029 -5.057922929022273 -2.439530159656125 51.000000000000000
-4.582540257663553 -5.034374067533722 -2.568185845112616 67.000000000000000
-4.613646308112473 -5.003448701902895 -2.694841151360573 66.000000000000000
-4.645423679918085 -4.973188434765417 -2.823979395528908 42.000000000000000
-4.685195264660437 -4.951741519405536 -2.960375864142722 59.000000000000000
-6.864053099408410 -9.221580126459138 -0.913377807807751 27.000000000000000
-6.943232872371520 -9.215753587931411 -1.111695590775121 0.000000000000000
-4.510963833930451 -5.707195217896889 -1.193948086721676 1.000000000000000
-4.513821551231347 -5.643125012497585 -1.309538505338264 1.000000000000000
-4.512908886536523 -5.574525326139639 -1.422555717730393 5.000000000000000
-4.569438775370954 -5.577545953281891 -1.554537364351597 13.000000000000000
-4.632508820282281 -5.586906274566577 -1.690752586635753 29.000000000000000
-4.694397586339852 -5.593813384913386 -1.828296233144512 11.000000000000000
-4.742750423102235 -5.583147115665494 -1.962611196594889 4.000000000000000
-4.794908706386952 -5.576037283044155 -2.099657761521186 10.000000000000000
-4.828448873597305 -5.545857597230830 -2.230112325936523 43.000000000000000
-4.601100782351206 -5.219461677038413 -2.234715953443405 39.000000000000000
-4.551116857667570 -5.097478268051714 -2.318125677049145 37.000000000000000
-4.572171272575126 -5.056792748853692 -2.437559629912567 69.000000000000000
-4.612891384058069 -5.035788372911318 -2.567817077233896 65.000000000000000
-4.641569946784049 -5.001902637647619 -2.693268355104058 55.000000000000000
-4.678513432700929 -4.976824758066254 -2.825666538630442 13.000000000000000
-4.713354851654901 -4.949764537736005 -2.959192637080638 64.000000000000000
-6.905427286725049 -9.221671543562062 -0.903871633812458 27.000000000000000
-4.516303819595011 -5.679320803449091 -1.183308506105611 1.000000000000000
-4.511688521424541 -5.606177423633575 -1.296451071343323 1.000000000000000
-4.545360548672242 -5.580390795667402 -1.419800003593644 4.000000000000000
-4.612092996399380 -5.595198357953529 -1.555445122052826 5.000000000000000
-4.650506746253019 -5.574226362473595 -1.683178975320079 10.000000000000000
-4.712610709692771 -5.580983754030435 -1.820633031705547 26.000000000000000
-4.778703101223738 -5.590770213203807 -1.962098135544626 17.000000000000000
-4.843668758415420 -5.597886771915761 -2.104982814077340 6.000000000000000
-4.869809499666603 -5.558642600028889 -2.232677290183464 49.000000000000000
-4.553117506645011 -5.132862649959234 -2.195554141290117 19.000000000000000
-4.571175252700113 -5.087952457913237 -2.312033000438514 67.000000000000000
-4.597361086407587 -5.052770531764574 -2.434190829519495 67.000000000000000
-4.640755625374293 -5.034329601189820 -2.565980649214019 65.000000000000000
-4.677147334741751 -5.008412411141198 -2.696032998508168 8.000000000000000
-4.706591033364949 -4.974955418950585 -2.824231474950819 11.000000000000000
-4.741545814721063 -4.947681424929870 -2.957953313408632 63.000000000000000
-6.932446475726213 -9.202493786342242 -0.892429254072048 0.000000000000000
-4.512459967135536 -5.707495956186738 -1.055508860744997 1.000000000000000
-4.516569584163842 -5.645297271374484 -1.171406807739245 1.000000000000000
-4.516790071613165 -5.578468180453513 -1.285520987243848 5.000000000000000
-4.572906106768775 -5.580052394364234 -1.415432447991366 12.000000000000000
-4.632418435429932 -5.585563689783967 -1.548734227185478 33.000000000000000
-4.696023057560453 -5.594332530923701 -1.685475296855283 11.000000000000000
-4.743345451034483 -5.582895034908988 -1.817762625135372 5.000000000000000
-4.797098174687984 -5.577727636463300 -1.954315101471289 11.000000000000000
-4.862287218213109 -5.584686780561167 -2.097105760477225 18.000000000000000
-4.901164852726265 -5.559757588603290 -2.230533264125165 55.000000000000000
-4.562954013099443 -5.111962185415666 -2.184526788396056 63.000000000000000
-4.598834525660204 -5.086798559189342 -2.309739687459370 69.000000000000000
-4.627654729909418 -5.054216965980205 -2.433451573700380 67.000000000000000
-4.668651770889099 -5.032765202016880 -2.564088349402586 65.000000000000000
-4.700063296935039 -5.001207072818147 -2.691415393356784 47.000000000000000
-4.734699897366879 -4.972979979005683 -2.822740337027604 63.000000000000000
-4.769767677594554 -4.945491973415126 -2.956657816295422 63.000000000000000
-4.515101771306366 -5.676452706657897 -1.044664857177817 1.000000000000000
-4.514180476001622 -5.608242312716023 -1.158903271178134 1.000000000000000
-4.541648568771954 -5.575202885611281 -1.280217583867413 4.000000000000000
-4.612970364234833 -5.594754476972668 -1.414839482445073 5.000000000000000
-4.650210023176719 -5.572860049572280 -1.541161123383291 9.000000000000000
-4.716549383747397 -5.584452609571853 -1.678705144484337 27.000000000000000
-4.779176072976858 -5.590589059679338 -1.816746000210042 17.000000000000000
-4.843280562218571 -5.596797904286702 -1.957759590503318 6.000000000000000
-4.901152096970622 -5.594599532766479 -2.097891367618816 4.000000000000000
-4.932568404674677 -5.560750133026816 -2.228323785101112 62.000000000000000
-4.595614479857890 -5.116579318311649 -2.184399146663903 68.000000000000000
-4.623973965042147 -5.082734360662090 -2.306117991247918 69.000000000000000
-4.655444402278867 -5.052770941421735 -2.431313889816465 14.000000000000000
-4.699137395078056 -5.033835214136753 -2.563535601292828 64.000000000000000
-4.730651361791960 -5.002043375173487 -2.691126858039009 61.000000000000000
-4.767960880863070 -4.976243282979994 -2.824226589202071 60.000000000000000
-4.798019962942606 -4.943195977208458 -2.955306069786065 61.000000000000000
-4.513887378704776 -5.709655847074785 -0.917358621442251 1.000000000000000
-4.517584616034635 -5.645441178112690 -1.033846768838017 1.000000000000000
-4.514079828518407 -5.574316208034714 -1.147073718034160 4.000000000000000
-4.571512269595204 -5.577939501662125 -1.276261135010308 15.000000000000000
-4.635610907345085 -5.588127011921598 -1.408816529692730 35.000000000000000
-4.700668661463182 -5.599071167745062 -1.544312207315572 13.000000000000000
-4.744623170968338 -5.583421799819402 -1.674576952788918 4.000000000000000
-4.794830367926650 -5.574575776508225 -1.808007371327919 12.000000000000000
-4.861685969416192 -5.583574136861253 -1.949883430607029 21.000000000000000
-4.929936793892331 -5.592793101437309 -2.094259900953519 19.000000000000000
-4.971676179460272 -5.570198283886342 -2.229482236927884 67.000000000000000
-4.618116948251474 -5.109746341720925 -2.179372426994089 65.000000000000000
-4.651687180704113 -5.081376661371724 -2.303717343369142 68.000000000000000
-4.685830171339703 -5.053985491768519 -2.430450627837531 29.000000000000000
-4.727105555959763 -5.032052012042687 -2.561527202844323 63.000000000000000
-4.761289335400965 -5.002759574429384 -2.690773960230060 56.000000000000000
-4.796150075695502 -4.974041203640891 -2.822614843702327 11.000000000000000
-4.823732276400339 -4.938162351604270 -2.952325103170682 61.000000000000000
-4.516301843715925 -5.678537743968610 -0.906956860480159 1.000000000000000
-4.519908776665366 -5.614461981451564 -1.023054890735766 1.000000000000000
-4.543743567478879 -5.577188954884253 -1.142809588037920 3.000000000000000
-4.616462628458478 -5.598794762503586 -1.276398843390522 4.000000000000000
-4.653210049736005 -5.575390810525744 -1.401238574597822 11.000000000000000
-4.715965384101904 -5.583185573201740 -1.535816835154679 30.000000000000000
-4.780330212833640 -5.591177899272719 -1.673053721478839 18.000000000000000
-4.840927854008152 -5.593779179100722 -1.810665073321754 8.000000000000000
-4.897890703375728 -5.590669704437816 -1.949085660936121 4.000000000000000
-4.951081358708159 -5.582232175388900 -2.087338333741197 8.000000000000000
-5.005765073759543 -5.573776740302423 -2.228269480020951 69.000000000000000
-4.648312403072389 -5.111302860069227 -2.177914340852621 63.000000000000000
-4.676860383949243 -5.077122153001125 -2.299996433160575 34.000000000000000
-4.716266020429629 -5.055080229844942 -2.429523141353402 25.000000000000000
-4.752526874494724 -5.027436157145351 -2.558075447095530 63.000000000000000
-4.786818454366679 -4.997969639756255 -2.687460616457352 10.000000000000000
-4.824369050160840 -4.971732351831451 -2.820946771848542 62.000000000000000
-4.854613886429368 -4.938283534754815 -2.952433529151270 62.000000000000000
-4.900665455723026 -4.916849865786034 -3.093228974454184 24.000000000000000
-4.518538688722264 -5.716146043200331 -0.779786208729865 1.000000000000000
-4.518558273620617 -5.647452248710098 -0.896581410934845 1.000000000000000
-4.519581656624669 -5.580437713369023 -1.011731474409346 4.000000000000000
-4.573456301908596 -5.579943698762388 -1.138482223477584 15.000000000000000
-4.636418467489680 -5.589122278587195 -1.269535328110619 37.000000000000000
-4.701075937599224 -5.598705477036026 -1.402682433886007 15.000000000000000
-4.746408864300907 -5.585163962932229 -1.532217478052298 4.000000000000000
-4.803402448500385 -5.583997208335385 -1.667034521251170 12.000000000000000
-4.861667066374729 -5.583468108285641 -1.803739787076980 22.000000000000000
-4.931621682214794 -5.594711875505376 -1.947195576614749 21.000000000000000
-4.995286710228741 -5.597478393400859 -2.090045530131500 10.000000000000000
-5.034776793919318 -5.571526833571514 -2.224710178473615 65.000000000000000
-4.678557918460698 -5.112739860024902 -2.176392181414284 59.000000000000000
-4.709787152222374 -5.081128292858875 -2.300008750476858 17.000000000000000
-4.746751396089932 -5.056054867683706 -2.428531317214209 21.000000000000000
-4.783132748803778 -5.028166571299937 -2.557341987021412 61.000000000000000
-4.825301473070893 -5.006516414145737 -2.691318466638459 49.000000000000000
-4.857796211419261 -4.974619958153804 -2.822231074922552 67.000000000000000
-4.885543617942383 -4.938283687006336 -2.952477228333786 61.000000000000000
-4.515792657449739 -5.678723527895906 -0.768980993682216 1.000000000000000
-4.510699553221049 -5.604029043248350 -0.884280511489652 1.000000000000000
-4.546602480921714 -5.580243191651696 -1.006536538085627 2.000000000000000
-4.615787714194083 -5.597824778217189 -1.137188431999139 3.000000000000000
-4.656346837189774 -5.579385990666232 -1.262640922412295 13.000000000000000
-4.718695562120395 -5.585785283934754 -1.395009302407414 35.000000000000000
-4.779445005802616 -5.589998456814546 -1.529368068621616 22.000000000000000
-4.841787053864702 -5.594441048565335 -1.666248324576907 7.000000000000000
-4.900308097489440 -5.593558784371448 -1.803381455893466 4.000000000000000
-4.950005757286696 -5.581239500279231 -1.939193812735436 9.000000000000000
-5.013881975215078 -5.583852248794456 -2.081952353500542 19.000000000000000
-5.066396185958361 -5.572005773388627 -2.222225314460796 61.000000000000000
-4.703681219460512 -5.108440297258772 -2.172417251597209 52.000000000000000
-4.737601812395986 -5.079446024477821 -2.297436212737738 21.000000000000000
-4.772098679643296 -5.051418446965433 -2.424839348370123 61.000000000000000
-4.811190822566577 -5.026063925824199 -2.555165020576903 60.000000000000000
-4.848300699256193 -4.998826886684465 -2.686448601137273 64.000000000000000
-4.880894416709377 -4.966793523649828 -2.817441354556535 67.000000000000000
-4.919119497382268 -4.940772549067061 -2.954016585745417 27.000000000000000
-4.513686494001682 -5.711480803174535 -0.642250160634915 1.000000000000000
-4.515337426013559 -5.644468351412403 -0.758636249559030 1.000000000000000
-4.515102127586543 -5.576123970143128 -0.874458830968446 5.000000000000000
-4.571141034818545 -5.576880435175104 -1.000736854302456 13.000000000000000
-4.638073443299585 -5.591182035025615 -1.130867890500897 45.000000000000000
-4.701593004964114 -5.599773401161516 -1.262521711225794 12.000000000000000
-4.746448107016928 -5.584792722661942 -1.390295152943300 4.000000000000000
-4.797220634520269 -5.576880725038401 -1.521584556450317 14.000000000000000
-4.864896385674448 -5.587059541586068 -1.660124343362192 24.000000000000000
-4.931339376429680 -5.594734430405695 -1.800117387202065 23.000000000000000
-4.994123462635350 -5.596607633010434 -1.941189800633739 10.000000000000000
-5.050520494523536 -5.590199136030202 -2.081291030568502 4.000000000000000
-5.100651356468530 -5.575192272407692 -2.220802302196507 51.000000000000000
-4.734006121762055 -5.109651468446366 -2.170774956121268 44.000000000000000
-4.765446118208676 -5.077657467381514 -2.294807603786122 52.000000000000000
-4.794853160942057 -5.043951193110141 -2.419785843112312 14.000000000000000
-4.844489838313007 -5.029265116008758 -2.555681239783127 63.000000000000000
-4.879113704403100 -4.999073869458656 -2.685845473440629 65.000000000000000
-4.911808347056952 -4.966800853959500 -2.817099934132412 58.000000000000000
-4.520618292415366 -5.686478129459191 -0.633435661659388 1.000000000000000
-4.517201213780308 -5.613360621174194 -0.748740095675780 1.000000000000000
-4.541937962203797 -5.575950014301132 -0.868974674836509 3.000000000000000
-4.610815491828142 -5.591771038833965 -0.998164890975095 3.000000000000000
-4.655284617953675 -5.578391997542306 -1.123286182412960 14.000000000000000
-4.719015672729161 -5.586828086972390 -1.254847802385998 40.000000000000000
-4.781891974385982 -5.592656429668963 -1.387748970450110 23.000000000000000
-4.843150997242790 -5.596300366440412 -1.522644615951170 8.000000000000000
-4.895713050751977 -5.588408301232734 -1.656571876922288 4.000000000000000
-4.949513710398125 -5.581238003383911 -1.792116173735444 10.000000000000000
-5.015091726065814 -5.585841872660176 -1.934096572765292 21.000000000000000
-5.082053703113490 -5.590686449438378 -2.078425168904707 15.000000000000000
-5.134970272223542 -5.578240455503936 -2.219304783926651 45.000000000000000
-4.766984382476946 -5.113536601181665 -2.170254207597891 38.000000000000000
-4.788100951295562 -5.070236277292240 -2.289627343615603 40.000000000000000
-4.830661384842789 -5.050061610093093 -2.421240244018076 48.000000000000000
-4.870008993483945 -5.024236080422209 -2.552012580605584 64.000000000000000
-4.909973886006203 -4.999199384077049 -2.685177453536505 65.000000000000000
-4.509263054200258 -5.708345670142111 -0.504579446860806 1.000000000000000
-4.514986002030770 -5.645920152618597 -0.622914947421706 1.000000000000000
-4.516404991997583 -5.579194923434852 -0.738461884309588 6.000000000000000
-4.576354191919548 -5.584888385034954 -0.864863016206628 17.000000000000000
-4.640490429248702 -5.594286345748030 -0.993330185702797 47.000000000000000
-4.700412674581210 -5.598861170833752 -1.122359246572329 9.000000000000000
-4.744051072750747 -5.582847132102836 -1.249168250758731 4.000000000000000
-4.802036819870017 -5.582488438349728 -1.380698814479196 18.000000000000000
-4.866080896958378 -5.588914542796875 -1.516372954642211 29.000000000000000
-4.931739557859617 -5.595494244773130 -1.654687006703507 24.000000000000000
-4.993538932745903 -5.596718118366805 -1.793393216976024 10.000000000000000
-5.049015304125919 -5.589385287383092 -1.931940104632561 4.000000000000000
-5.105820353264241 -5.582509468657667 -2.072322984609321 6.000000000000000
-5.169352285775731 -5.581149969074622 -2.217732618744551 33.000000000000000
-4.797415111286676 -5.114499759859441 -2.168478834666356 28.000000000000000
-4.826459358700139 -5.079272645499737 -2.291868986546557 18.000000000000000
-4.858688780114611 -5.047850122610231 -2.418697268707326 63.000000000000000
-4.903412040777726 -5.027187523353589 -2.552394946593106 64.000000000000000
-4.940880683299002 -4.999203152133537 -2.684444433602767 9.000000000000000
-4.519135421372238 -5.617860496187592 -0.613803298030940 1.000000000000000
-4.543074562138631 -5.579021577212060 -0.732677121146234 3.000000000000000
-4.613380596842057 -5.596746140045264 -0.861143491277543 3.000000000000000
-4.654974530077826 -5.578422984186181 -0.985207152750145 19.000000000000000
-4.720184310216244 -5.588916521635792 -1.115290182766302 55.000000000000000
-4.781908408931842 -5.593762832080552 -1.246781996590066 21.000000000000000
-4.842737963698828 -5.596043604735712 -1.379481420261488 7.000000000000000
-4.896747898452849 -5.590294892087073 -1.512454640147199 4.000000000000000
-4.952300028177109 -5.584894632949609 -1.647547380128312 12.000000000000000
-5.011708910812411 -5.583046757633519 -1.785302970187778 24.000000000000000
-5.083002164894544 -5.592790937304239 -1.929709440119144 19.000000000000000
-5.150479272932457 -5.596968141384592 -2.074600415361730 12.000000000000000
-5.214272433381525 -5.595161368541007 -2.220546835908633 25.000000000000000
-4.848883987574927 -5.137582625825249 -2.176059015251657 29.000000000000000
-4.849152107029678 -5.071652059881413 -2.286584620430709 62.000000000000000
-4.886744071015488 -5.045531437752977 -2.416097865369145 62.000000000000000
-4.926342813366351 -5.019266604967442 -2.547255235238962 38.000000000000000
-5.543884370228751 -5.574271229398642 -2.992422154481539 5.000000000000000
-4.518133112572518 -5.583625348811820 -0.604040678416481 7.000000000000000
-4.572293961108824 -5.581823657408185 -0.727239019034386 25.000000000000000
-4.637829835762356 -5.593153637360935 -0.854998715430998 67.000000000000000
-4.699978942142430 -5.598960612339944 -0.983470388412199 7.000000000000000
-4.739927268631575 -5.578908435069476 -1.108190489579059 4.000000000000000
-4.799291436469507 -5.580590475784572 -1.238994612342199 22.000000000000000
-4.865481412964694 -5.588656445446690 -1.373064366612952 34.000000000000000
-4.930051865464387 -5.594494797990628 -1.509264906862580 26.000000000000000
-4.996237653752138 -5.600467829753786 -1.648097507771383 9.000000000000000
-5.045482058350675 -5.586655234810476 -1.782719856350438 4.000000000000000
-5.103971264155932 -5.581753618363797 -1.922477536553583 7.000000000000000
-5.171672868651442 -5.585738294912962 -2.067334380403277 8.000000000000000
-5.240931358485922 -5.589354670861399 -2.215474860827531 21.000000000000000
-4.921616864588868 -5.182613482501376 -2.192893278112139 48.000000000000000
-4.879747889336397 -5.072178069934751 -2.284966118652522 63.000000000000000
-4.917467733792452 -5.045815250045872 -2.414738816003638 59.000000000000000
-5.493893292475573 -5.562719968196840 -2.821812723466257 5.000000000000000
-5.595446544390647 -5.590986667628523 -3.000574286910241 6.000000000000000
-4.539605073296349 -5.577264706122086 -0.597294045129351 2.000000000000000
-4.606621315580263 -5.590651786185915 -0.722532117250025 3.000000000000000
-4.654652995432635 -5.580317680411822 -0.847417298497749 28.000000000000000
-4.719559309970921 -5.589001950656507 -0.976328384932319 80.000000000000000
-4.782771309729022 -5.595899342344419 -1.106410931427486 19.000000000000000
-4.845020300849160 -5.600187713559390 -1.238442512698098 5.000000000000000
-4.893397270505604 -5.587109023458612 -1.368056984557166 5.000000000000000
-4.947810638237612 -5.580952846334441 -1.501265870901694 14.000000000000000
-5.014210831786696 -5.586764374456815 -1.640002914233116 29.000000000000000
-5.081935876298693 -5.593007535644984 -1.780980195119153 20.000000000000000
-5.151163147596574 -5.599187540479671 -1.925024964352452 14.000000000000000
-5.219153500118476 -5.602694515511491 -2.070476975978852 7.000000000000000
-5.286059183004378 -5.603022587012376 -2.218101035391367 8.000000000000000
-4.997339467895594 -5.230058971867286 -2.210696133213127 66.000000000000000
-4.907742615562145 -5.069847911457164 -2.282051834224780 60.000000000000000
-4.956188243439902 -5.054085292524710 -2.417192576414534 6.000000000000000
-5.542618494010578 -5.577192099773275 -2.827904615095510 9.000000000000000
-5.623284571790822 -5.583746427692453 -2.995868898314991 7.000000000000000
-4.571169761147212 -5.583167471786651 -0.591817536709406 17.000000000000000
-4.638490155980796 -5.596269282892622 -0.717352902149114 78.000000000000000
-4.699524378708056 -5.600917232442484 -0.844864941429983 6.000000000000000
-4.733976311638828 -5.572935943835782 -0.968106010076171 5.000000000000000
-4.797380827203945 -5.579701019706060 -1.098031752485853 24.000000000000000
-4.867590114947087 -5.592790527819131 -1.231875231022205 43.000000000000000
-4.931743200420647 -5.597262810068896 -1.365874825935508 28.000000000000000
-4.994237598013391 -5.599558168639389 -1.501879865572922 8.000000000000000
-5.045231783525569 -5.587514877639936 -1.636132556566173 4.000000000000000
-5.102704897083619 -5.581961441694319 -1.773677872872281 8.000000000000000
-5.169527020589727 -5.585097987763858 -1.916709380805762 12.000000000000000
-5.243016959000830 -5.594075893206728 -2.064143422505572 14.000000000000000
-5.312792570701817 -5.596971784111634 -2.212899895737223 15.000000000000000
-5.068121890162796 -5.271620234562567 -2.225959705161615 75.000000000000000
-4.935764067481117 -5.067410254307569 -2.279081039520265 28.000000000000000
-5.487063945063608 -5.560861481924179 -2.657903843564520 7.000000000000000
-5.599483575993887 -5.599437700230586 -2.837926201191840 6.000000000000000
-5.672438573064206 -5.597439191259421 -3.002394233768511 8.000000000000000
-4.907300166022731 -4.585090964926350 -3.040021368988055 35.000000000000000
-4.605331984394500 -5.592016624905514 -0.586593027825399 3.000000000000000
-4.652576309789825 -5.580350495026151 -0.709381444812222 41.000000000000000
-4.721480941535889 -5.593980966449272 -0.838104209341927 115.000000000000000
-4.784397216717382 -5.599046871800883 -0.967161517040310 16.000000000000000
-4.842985223810119 -5.599380291388132 -1.096672455371702 4.000000000000000
-4.890148259793854 -5.585314922023128 -1.225268631386983 5.000000000000000
-4.949305153774374 -5.583691904255455 -1.357873047517510 22.000000000000000
-5.011999666502820 -5.585835610062952 -1.493788432251452 34.000000000000000
-5.081553364689268 -5.593929935881316 -1.633887166932291 19.000000000000000
-5.155084319694589 -5.605254583638121 -1.777252573339762 14.000000000000000
-5.216925324157074 -5.602189472759002 -1.919069376931649 7.000000000000000
-5.280119185697038 -5.599429921726416 -2.062946905887046 4.000000000000000
-5.342186038053916 -5.593605272757936 -2.208747243891076 5.000000000000000
-5.362789415072509 -5.543954396267039 -2.338516483092994 64.000000000000000
-5.046453093473008 -5.149188651492978 -2.313947148642904 5.000000000000000
-5.530386481888564 -5.570152000938397 -2.660672104447715 10.000000000000000
-5.616476218429622 -5.581594314872348 -2.827625115180438 8.000000000000000
-5.695005564272255 -5.584697046079360 -2.994740477306929 8.000000000000000
-4.952071820992763 -4.728536368851059 -2.827789328818936 40.000000000000000
-4.935359233434881 -4.646705298670237 -2.928107768552759 9.000000000000000
-4.916406673672657 -4.564433061558347 -3.027291899639022 57.000000000000000
-4.637031008083985 -5.597649563494923 -0.580970562397703 114.000000000000000
-4.697298763066379 -5.601006017311911 -0.706011277906267 5.000000000000000
-4.738281901207595 -5.580908425364526 -0.830403379318632 7.000000000000000
-4.796224986962742 -5.579804353350088 -0.958336711584002 33.000000000000000
-4.867962411446390 -5.594968634105286 -1.090542958403329 49.000000000000000
-4.933566184839006 -5.601458207187648 -1.223800087000830 27.000000000000000
-4.995633616859436 -5.602386441356380 -1.357679979895892 7.000000000000000
-5.045487130347412 -5.589538520267505 -1.490333770651523 5.000000000000000
-5.099487586272850 -5.579985727607455 -1.625672057072461 11.000000000000000
-5.173254327916048 -5.591129093364558 -1.768930501752481 15.000000000000000
-5.240595697250134 -5.593579542266490 -1.912596309287762 19.000000000000000
-5.311979744799083 -5.599021931885532 -2.059603990360543 13.000000000000000
-5.382264559033931 -5.601223980638633 -2.208912432688537 16.000000000000000
-5.357550907564845 -5.504646775940827 -2.319501701869461 43.000000000000000
-5.042713616688059 -5.113756171871326 -2.296113497786371 7.000000000000000
-5.576501108903966 -5.581937688563769 -2.664618363553060 5.000000000000000
-5.670932997765750 -5.600782769163599 -2.836080271693958 8.000000000000000
-5.744365536796765 -5.598030162223104 -3.001069623068080 8.000000000000000
-4.908490538847366 -4.719881971845503 -2.674563665702070 2.000000000000000
-4.929043958982390 -4.676969241498909 -2.797067815497561 2.000000000000000
-4.917617261820033 -4.600762343579544 -2.899698316058085 20.000000000000000
-4.928090694725372 -4.546242710078687 -3.016206777662568 55.000000000000000
-4.648370539850251 -5.578642529536408 -0.572760728314983 84.000000000000000
-4.716498539905109 -5.591022267346681 -0.698724215342912 175.000000000000000
-4.783431246677074 -5.601037238198555 -0.827593719542698 11.000000000000000
-4.836509728760910 -5.593550821589997 -0.955143366145077 3.000000000000000
-4.885125511027216 -5.581529443985643 -1.082632812837483 6.000000000000000
-4.945700865893622 -5.581948245440415 -1.214509254935410 29.000000000000000
-5.015826720562735 -5.591566207007007 -1.350293916873700 42.000000000000000
-5.081673702142751 -5.596009415473716 -1.487577563315707 19.000000000000000
-5.154434258075823 -5.606302472710849 -1.629148263250026 13.000000000000000
-5.217927248282775 -5.605478090568890 -1.769590519804034 6.000000000000000
-5.280227710718091 -5.601837476275015 -1.911867205735157 4.000000000000000
-5.335872881593438 -5.590098670645456 -2.053113110357941 5.000000000000000
-5.403713052426010 -5.589303633718212 -2.201356431190818 10.000000000000000
-5.346731625279493 -5.459942608251216 -2.298235767243868 12.000000000000000
-5.022668396225243 -5.062155973254906 -2.271042730553483 21.000000000000000
-5.585118767783430 -5.556089617701510 -2.650596255528706 8.000000000000000
-5.698670151860839 -5.593317350622218 -2.831032234984054 9.000000000000000
-5.766950544623385 -5.585072308167972 -2.993304650115542 9.000000000000000
-4.928161167155500 -4.709173820585367 -2.668203410172091 5.000000000000000
-4.932613987432934 -4.650957540213332 -2.781635707657228 5.000000000000000
-4.915738650790805 -4.569974791955631 -2.880843612210056 60.000000000000000
-4.942380011044502 -4.530498608338085 -3.006753429577224 57.000000000000000
-4.698051845466757 -5.605462889121124 -0.569201770896982 4.000000000000000
-4.733092433871415 -5.577940118742010 -0.691031145577057 15.000000000000000
-4.797646100822215 -5.584774263613477 -0.819360919098501 50.000000000000000
-4.866494856209046 -5.595144935153125 -0.949819440273377 61.000000000000000
-4.933630771540566 -5.603695493768031 -1.081582277606246 22.000000000000000
-4.994531861004182 -5.603685919380839 -1.214154687981323 4.000000000000000
-5.033350118852026 -5.577757756275706 -1.342173235226539 6.000000000000000
-5.096757357563805 -5.579141896608209 -1.478593972539514 13.000000000000000
-5.172395927864264 -5.592153780857663 -1.620827090300665 18.000000000000000
-5.238751317041635 -5.594021099491285 -1.762075076902467 22.000000000000000
-5.314611593598356 -5.604290929744256 -1.909126183356201 14.000000000000000
-5.375821456231119 -5.597827909128765 -2.052717800990730 15.000000000000000
-5.344595309577457 -5.494524404424681 -2.161203032115275 10.000000000000000
-5.515841059262854 -5.598222697496301 -2.353936285923491 7.000000000000000
-5.029251073701356 -5.037692859769537 -2.258164805389716 34.000000000000000
-5.623274215254217 -5.559575514459236 -2.650567335323215 6.000000000000000
-5.742606097037781 -5.601552979915783 -2.833927209273568 7.000000000000000
-5.816513281055408 -5.598043925414417 -2.999436857217834 7.000000000000000
-4.950504205394882 -4.700968418411590 -2.663266423297605 5.000000000000000
-4.922534483142001 -4.612312462961590 -2.758654020765761 34.000000000000000
-4.927189080299669 -4.551717578047338 -2.869893875506649 59.000000000000000
-4.951203224482256 -4.509802300853134 -2.994021682803298 58.000000000000000
-4.714501412446980 -5.592410349957765 -0.561532643504088 255.000000000000000
-4.775494132269468 -5.595103282676040 -0.687036424687704 7.000000000000000
-4.835190745993867 -5.595552674984079 -0.815058716494578 3.000000000000000
-4.880844842959863 -5.578699621672166 -0.941407536674182 11.000000000000000
-4.945555088601995 -5.584143308391798 -1.072438518958555 36.000000000000000
-5.014531475195362 -5.592854439967300 -1.206696854066132 45.000000000000000
-5.082589452440295 -5.598892102049686 -1.342420086093878 19.000000000000000
-5.148967663692410 -5.602711726814419 -1.480289601553058 11.000000000000000
-5.216964076809631 -5.606602518125092 -1.620764642084475 5.000000000000000
-5.272911219019051 -5.596687779726000 -1.758987541914004 5.000000000000000
-5.335647470844609 -5.592552312290768 -1.901532198297128 5.000000000000000
-5.399738125941668 -5.588695875246453 -2.046118907897397 12.000000000000000
-5.371083593171784 -5.488191745267810 -2.155873002367056 13.000000000000000
-5.540209463983247 -5.588631006583989 -2.347387178851942 15.000000000000000
-5.038413011387614 -5.015929555417634 -2.246504177999201 35.000000000000000
-5.770397528715072 -5.593843040996545 -2.828751030630568 9.000000000000000
-5.844535793669689 -5.590055169137629 -2.994338084203501 10.000000000000000
-4.980970035086465 -4.700361304861888 -2.662638750061260 4.000000000000000
-4.914933026903840 -4.576289001458576 -2.737246119036270 61.000000000000000
-4.938554420092652 -4.533441176369027 -2.858939548186557 61.000000000000000
-4.968049434609643 -4.496456265367994 -2.986178472380330 59.000000000000000
-4.733483046753169 -5.582352759423233 -0.554144309237350 38.000000000000000
-4.794676987304788 -5.584876425217741 -0.679626296178256 66.000000000000000
-4.862396991432609 -5.594163163688315 -0.808931391243940 73.000000000000000
-4.931834667896344 -5.603929286661002 -0.939978382006137 19.000000000000000
-4.989002828494530 -5.600051629597251 -1.070069401075808 3.000000000000000
-5.029208080026410 -5.576092109140740 -1.197947777733003 8.000000000000000
-5.100121757626512 -5.584895752649651 -1.334202941617400 19.000000000000000
-5.169372982579613 -5.591436852279671 -1.472736532426880 23.000000000000000
-5.240264256051897 -5.597992849604657 -1.614002039193256 27.000000000000000
-5.312495285837753 -5.604875984464372 -1.757600363201544 17.000000000000000
-5.383553131087476 -5.608776207337669 -1.903418277930808 16.000000000000000
-5.380486403871489 -5.535089544591379 -2.023252280638585 6.000000000000000
-5.513796283333178 -5.599797075709243 -2.196798410591977 6.000000000000000
