# This PCD file was generated using the MATLAB® pcwrite function
# from Computer Vision Toolbox®.
# .PCD v.7 - Point Cloud Data file format
VERSION .7
FIELDS x y z intensity
SIZE 8 8 8 8
TYPE F F F F
COUNT 1 1 1 1
WIDTH 629
HEIGHT 1
VIEWPOINT 0 0 0 1 0 0 0
POINTS 629
DATA ascii
-0.824590980325945 -5.488520763659600 -2.392932414850558 6.000000000000000
-0.839195010436774 -5.499020230341617 -2.513034866600870 4.000000000000000
-0.853544421491561 -5.507129046655242 -2.633987012881187 7.000000000000000
-0.866622510583750 -5.501941322125494 -2.750736467209734 6.000000000000000
-0.878792463292987 -5.494316017537074 -2.868416864037548 4.000000000000000
-0.890513010495699 -5.477258827337806 -2.982720623271305 6.000000000000000
-0.702116027356045 -5.505243831773617 -1.111271090620245 4.000000000000000
-0.716039567763615 -5.522250360705058 -1.217389950299309 11.000000000000000
-0.726329776168961 -5.510373472645476 -1.317259749713538 23.000000000000000
-0.738161885543072 -5.511911924169132 -1.421810103682497 10.000000000000000
-0.748019402648951 -5.496255967634091 -1.522215921447203 18.000000000000000
-0.758709752284977 -5.490435918771950 -1.625315025970804 11.000000000000000
-0.773054286392146 -5.509079162166840 -1.737244328029266 5.000000000000000
-0.786497268112412 -5.518011046449875 -1.847528115755989 10.000000000000000
-0.797683240252745 -5.513596170538625 -1.954782524078240 11.000000000000000
-0.807809090477600 -5.499665793847928 -2.059685565643646 7.000000000000000
-0.819354596811571 -5.495000198570613 -2.168623264283742 13.000000000000000
-0.831392769355845 -5.491805074025224 -2.279666443138912 6.000000000000000
-0.846683201595439 -5.508386070513046 -2.400298826045195 4.000000000000000
-0.859826074647020 -5.507885184782934 -2.515821120947546 9.000000000000000
-0.871550950812373 -5.498022537230946 -2.628399345654812 5.000000000000000
-0.884202284367734 -5.489338412643570 -2.743237159232618 6.000000000000000
-0.897082204605272 -5.485304591710014 -2.862548000356605 5.000000000000000
-0.912955088615438 -5.492634724627628 -2.989962673343258 3.000000000000000
-0.720603064249108 -5.515116272531908 -1.111668891463887 22.000000000000000
-0.733200878894355 -5.520433666129054 -1.215412937670767 15.000000000000000
-0.743079589355191 -5.504687415829248 -1.314348955907384 9.000000000000000
-0.754532725929952 -5.502388446556921 -1.417824301067528 24.000000000000000
-0.765542763540490 -5.494401503816662 -1.520197484555210 10.000000000000000
-0.779589758795890 -5.511374709288063 -1.630027184374690 4.000000000000000
-0.792005768771802 -5.514750646332755 -1.737569616160647 15.000000000000000
-0.803449163454886 -5.508588802344280 -1.842936474334060 9.000000000000000
-0.813108060617681 -5.493004942846272 -1.946075019012624 10.000000000000000
-0.825550950474033 -5.494025361903214 -2.056192342884215 10.000000000000000
-0.838358093869329 -5.496739739389450 -2.167955706157437 6.000000000000000
-0.852815171946880 -5.508132898123674 -2.285115808685615 7.000000000000000
-0.866633600705590 -5.513663784003024 -2.401298373609892 7.000000000000000
-0.877649235148332 -5.498684148276576 -2.510352257659362 4.000000000000000
-0.888920425842780 -5.485296267458286 -2.621083999937372 7.000000000000000
-0.904613161428578 -5.494390092297926 -2.744561265818016 5.000000000000000
-0.919418023215722 -5.500800869969188 -2.869467596529420 4.000000000000000
-0.933151474954783 -5.494042367097309 -2.989599102443253 7.000000000000000
-0.737593611491754 -5.513268999592967 -1.109686713633054 9.000000000000000
-0.748247952429383 -5.503077975619483 -1.210005700786987 12.000000000000000
-0.759797193431864 -5.498955403936203 -1.311416673057760 20.000000000000000
-0.771924274330432 -5.500498128971276 -1.415795623627554 6.000000000000000
-0.785780710759460 -5.511595442070561 -1.523433082726435 7.000000000000000
-0.798408731770238 -5.517049426484802 -1.630206466297064 15.000000000000000
-0.808777588344373 -5.505252610618153 -1.733106028456969 7.000000000000000
-0.820903868084843 -5.502877352471132 -1.839580844383755 15.000000000000000
-0.832921876736225 -5.502238802434824 -1.947928465892628 7.000000000000000
-0.846678259901450 -5.510586138842832 -2.060997896797446 5.000000000000000
-0.860249093433019 -5.516838738898675 -2.174517377772487 11.000000000000000
-0.871459468123987 -5.506114428980057 -2.282945091410368 6.000000000000000
-0.882544402845501 -5.493484020482695 -2.391209880731374 5.000000000000000
-0.894826838213962 -5.485835480037102 -2.503219929526388 7.000000000000000
-0.909753396226827 -5.493943190592083 -2.623980368943454 4.000000000000000
-0.925064761361051 -5.499382258697636 -2.745852501502896 6.000000000000000
-0.937677534240784 -5.491681387501296 -2.863545421318120 6.000000000000000
-0.950953051837751 -5.481497372137569 -2.981647003327087 5.000000000000000
-0.754043945506342 -5.507487202736042 -1.106899471471530 22.000000000000000
-0.765345007109340 -5.501170116338723 -1.207986080712276 11.000000000000000
-0.779206935029524 -5.512451864740596 -1.313054070219434 5.000000000000000
-0.792061600990356 -5.517744363956075 -1.418675281474785 13.000000000000000
-0.803905199093249 -5.513453797071169 -1.522412446885647 13.000000000000000
-0.814457737652964 -5.503677550920103 -1.624748598730066 8.000000000000000
-0.826626617946877 -5.503263966462735 -1.730999176757333 16.000000000000000
-0.838325460487846 -5.497117956745883 -1.836202764380830 6.000000000000000
-0.852800971198230 -5.511413466700667 -1.949747702292247 6.000000000000000
-0.865591844495890 -5.512253918074749 -2.060221226327840 12.000000000000000
-0.876413419773382 -5.500055069013667 -2.166534042072310 6.000000000000000
-0.888912871808968 -5.496734020818761 -2.277719256340857 9.000000000000000
-0.901894278089504 -5.495027542447453 -2.390577130923267 6.000000000000000
-0.916717523930633 -5.501727812398783 -2.509198290210678 4.000000000000000
-0.931255297420903 -5.506096662990804 -2.628544675067752 7.000000000000000
-0.944341490337987 -5.497239768255564 -2.743579792886612 5.000000000000000
-0.955878223276111 -5.482512677930074 -2.857601714480611 5.000000000000000
-0.966825869399486 -5.458488516346565 -2.968011936494293 6.000000000000000
-0.928658141356050 -5.164226240774130 -2.926503953626754 7.000000000000000
-0.934619162399921 -5.121631755537850 -3.022544488000326 20.000000000000000
-0.771006210345493 -5.505545717806878 -1.104870930356588 6.000000000000000
-0.785186876126813 -5.518563956459934 -1.210185699807881 5.000000000000000
-0.797590977763597 -5.518181829012265 -1.312822125860521 21.000000000000000
-0.810060013111562 -5.519584980226102 -1.417575543390937 10.000000000000000
-0.819201054719013 -5.496175994379151 -1.516099954078755 14.000000000000000
-0.831573477034234 -5.497857878170152 -1.621514200904694 14.000000000000000
-0.845046591387024 -5.505000823453532 -1.730053811926412 5.000000000000000
-0.859808105110640 -5.517584952701672 -1.841571696162311 9.000000000000000
-0.872155418974088 -5.516798556867284 -1.950213990335725 10.000000000000000
-0.882143472558083 -5.499045082695209 -2.053879760918053 7.000000000000000
-0.894865876088140 -5.497950668581854 -2.164331192228522 14.000000000000000
-0.908117993384529 -5.498266820832617 -2.277012006341303 5.000000000000000
-0.923082922877795 -5.507392484948838 -2.394644427513287 5.000000000000000
-0.937499096029346 -5.510359186919655 -2.511856101784955 8.000000000000000
-0.948535619801204 -5.493215966869279 -2.621155950969106 4.000000000000000
-0.960508481990346 -5.477362723053645 -2.732459891037187 7.000000000000000
-0.958430626828554 -5.385694220165717 -2.805995812618155 3.000000000000000
-0.931719465906674 -5.154298047111003 -2.801555010774958 15.000000000000000
-0.942841537790864 -5.138047785153290 -2.910655388756550 19.000000000000000
-0.955135307695760 -5.129715785533429 -3.026343751731137 21.000000000000000
-0.790740455198717 -5.522976251744470 -1.106709923683134 8.000000000000000
-0.803452554746549 -5.524289957539025 -1.209805131955027 22.000000000000000
-0.813169510028744 -5.504597220085508 -1.307983483300350 8.000000000000000
-0.826348874865463 -5.509870831233947 -1.413497421336850 21.000000000000000
-0.837296169752110 -5.497936973229920 -1.515031406443404 14.000000000000000
-0.851002030676651 -5.507173020913193 -1.622731296767913 4.000000000000000
-0.865257711292189 -5.518007474115128 -1.732635740327143 13.000000000000000
-0.877248889079449 -5.511719974437211 -1.838138544832446 9.000000000000000
-0.887938128622429 -5.499754863592180 -1.942746077111640 10.000000000000000
-0.900432378787633 -5.496905649487965 -2.051669030779121 11.000000000000000
-0.914531856100654 -5.503151501200347 -2.164996775751287 6.000000000000000
-0.929185944187329 -5.510700056211861 -2.280810025318042 7.000000000000000
-0.941881046168925 -5.505196183912412 -2.392373522572078 6.000000000000000
-0.953975320498137 -5.493760817801585 -2.503011618963950 5.000000000000000
-0.963847190521132 -5.469593405539006 -2.608647651832026 7.000000000000000
-0.929738855720773 -5.195884419650941 -2.590901533789277 9.000000000000000
-0.938045644915921 -5.166308999072998 -2.690598761270739 18.000000000000000
-0.949471708124993 -5.148678262879950 -2.797447340133090 20.000000000000000
-0.961343761070992 -5.135884874720857 -2.908419626990475 20.000000000000000
-0.973779220526693 -5.127538096984493 -3.024091779963543 20.000000000000000
-0.807745542897518 -5.520932141291464 -1.104626375379492 14.000000000000000
-0.818309691685267 -5.506759310409662 -1.204320200656971 8.000000000000000
-0.830991366927173 -5.506375118843295 -1.306784756061994 24.000000000000000
-0.843754802193591 -5.507779093791814 -1.411365044120441 9.000000000000000
-0.857779582010463 -5.514901350101891 -1.518134805387949 5.000000000000000
-0.870494838554397 -5.516429653787096 -1.623914594696573 16.000000000000000
-0.881933299279521 -5.508315253484229 -1.728078911350670 7.000000000000000
-0.894046600871780 -5.502056630507639 -1.833433257622584 13.000000000000000
-0.906684743362462 -5.501307640382000 -1.941842687250536 7.000000000000000
-0.920569298862726 -5.505822664611808 -2.053575650381140 5.000000000000000
-0.934237896495754 -5.508294521497165 -2.165630397181269 11.000000000000000
-0.946574657554974 -5.501166645693313 -2.275510042602768 6.000000000000000
-0.958139958985093 -5.488456011591299 -2.383782378453069 6.000000000000000
-0.955698676442752 -5.394460950240648 -2.456511163454040 7.000000000000000
-0.933510331072667 -5.192884294848887 -2.475498972347269 15.000000000000000
-0.945367157223849 -5.179571360712287 -2.581630774787821 20.000000000000000
-0.956312940388483 -5.164122211964239 -2.688365179796659 19.000000000000000
-0.968494293158436 -5.149945642407666 -2.797083960907473 19.000000000000000
-0.980492070355066 -5.137103791452040 -2.908101775354489 21.000000000000000
-0.992413745115513 -5.125307944119244 -3.021813600547520 21.000000000000000
-0.823001902128526 -5.507197050717213 -1.100192943835060 11.000000000000000
-0.834235249719811 -5.496923462028455 -1.200511557931043 22.000000000000000
-0.848235280473159 -5.504252400589049 -1.304646473022602 5.000000000000000
-0.863548840242161 -5.520963738689384 -1.413130849070020 8.000000000000000
-0.875954031953138 -5.516551851961609 -1.517005009393174 14.000000000000000
-0.887608151169527 -5.510457612382677 -1.620602564514579 7.000000000000000
-0.899167064352364 -5.502350029694346 -1.724685113609606 16.000000000000000
-0.912651094581806 -5.503595738785419 -1.832453525626668 7.000000000000000
-0.927326317675387 -5.513983363591264 -1.944853044984472 6.000000000000000
-0.940770686812831 -5.514679169697695 -2.055447437940473 12.000000000000000
-0.951439820539424 -5.498677197472251 -2.160455356143844 6.000000000000000
-0.960702051113654 -5.473342346103732 -2.262647814250752 9.000000000000000
-0.933668019987287 -5.243537740855330 -2.276145862786212 9.000000000000000
-0.941815369785437 -5.212564675782329 -2.372460602417285 19.000000000000000
-0.952851228454655 -5.197798899473590 -2.476662499627994 20.000000000000000
-0.964173269277526 -5.180877274528600 -2.581144043458985 20.000000000000000
-0.975231576285884 -5.165383598361957 -2.687927018054661 19.000000000000000
-0.987532179698149 -5.151158287333724 -2.796691705013927 20.000000000000000
-0.999655600936853 -5.138267631496272 -2.907754877329463 21.000000000000000
-1.012379597676370 -5.129819812275906 -3.023513890126886 21.000000000000000
-0.839953450253018 -5.505061760481849 -1.098066124916226 13.000000000000000
-0.854294466640791 -5.514094351209348 -1.202584071999991 5.000000000000000
-0.868496247749007 -5.521319194682978 -1.307038108882526 15.000000000000000
-0.880373682735049 -5.514938138203094 -1.409964364989594 12.000000000000000
-0.891056023594101 -5.499095461631117 -1.510613208827698 8.000000000000000
-0.904064723362241 -5.500647816650644 -1.616154872884547 16.000000000000000
-0.918252546778759 -5.507646977436157 -1.724811013494721 5.000000000000000
-0.932538548377462 -5.512576157238007 -1.833938921131540 9.000000000000000
-0.944862358998758 -5.507975092616788 -1.941262862587235 11.000000000000000
-0.955886745981154 -5.493878224650691 -2.046260633831021 6.000000000000000
-0.958858030315286 -5.433903485587026 -2.133621378554561 8.000000000000000
-0.938742282370825 -5.244883331775992 -2.166902342826640 17.000000000000000
-0.947616960670978 -5.219574819931414 -2.264483339525077 18.000000000000000
-0.959758056528810 -5.210313443221551 -2.370213976904371 20.000000000000000
-0.970235794073638 -5.191973464392451 -2.472706624115150 20.000000000000000
-0.983664231218340 -5.185659062893319 -2.582386641007506 20.000000000000000
-0.994838487686103 -5.170088523577726 -2.689279651094011 20.000000000000000
-1.006585167071493 -5.152316115419193 -2.796270542744983 20.000000000000000
-1.018834150951753 -5.139376312837140 -2.907378903394422 19.000000000000000
-1.031019482719216 -5.127481700490936 -3.021180272241956 21.000000000000000
-0.859915280897771 -5.522268744064403 -1.099777081052276 6.000000000000000
-0.872632509695859 -5.519614035417493 -1.202093758008969 23.000000000000000
-0.885782089406899 -5.519091669192592 -1.304843759664307 9.000000000000000
-0.897788461587000 -5.512694834792548 -1.407754075360044 13.000000000000000
-0.909199702320821 -5.500648685406593 -1.509435636598810 15.000000000000000
-0.922368829746406 -5.502162566975075 -1.615025333699289 4.000000000000000
-0.937377339889838 -5.512887456440599 -1.724905683010222 12.000000000000000
-0.950551266883342 -5.510258716869329 -1.831654214690116 9.000000000000000
-0.959759629075159 -5.487028646986953 -1.932406293081773 7.000000000000000
-0.936758369837343 -5.280745423743094 -1.965491166644113 10.000000000000000
-0.944707228160694 -5.251613051806091 -2.060700998971190 20.000000000000000
-0.955151755488723 -5.235314317549147 -2.161644078115479 19.000000000000000
-0.966764184157985 -5.224525297831001 -2.265364964978763 17.000000000000000
-0.978364965709816 -5.211600963676392 -2.369574094490176 19.000000000000000
-0.989619455593331 -5.196778709488243 -2.473811710240063 20.000000000000000
-1.001830999603317 -5.183326461909321 -2.580084773317424 20.000000000000000
-1.012428718476193 -5.164246372325120 -2.685146457072966 19.000000000000000
-1.025653054212619 -5.153419044996459 -2.795820444708871 21.000000000000000
-1.038027518142955 -5.140429754032898 -2.906973824345735 20.000000000000000
-1.050344546939694 -5.128485222563734 -3.020819699131255 21.000000000000000
-0.876908161957264 -5.520030185768595 -1.097595018071899 26.000000000000000
-0.890386512960339 -5.521218226968658 -1.200733587323761 6.000000000000000
-0.900541256250650 -5.501437600985105 -1.298994137114461 23.000000000000000
-0.913922631977792 -5.502749171838478 -1.403567231944990 12.000000000000000
-0.929283392941834 -5.513572559329334 -1.511361640578815 4.000000000000000
-0.943277279633602 -5.518775440673831 -1.618310727005914 15.000000000000000
-0.953929511194207 -5.503004876823999 -1.720259228524603 7.000000000000000
-0.957360811126890 -5.444237178759192 -1.808202925209063 6.000000000000000
-0.941354685172151 -5.280000689872894 -1.858068909283563 19.000000000000000
-0.952306174251623 -5.267350161148971 -1.959115930803010 21.000000000000000
-0.963660167538115 -5.256642611774212 -2.061322763077145 21.000000000000000
-0.974212162042531 -5.240278414619598 -2.162382205023044 19.000000000000000
-0.985269240530228 -5.225802694272834 -2.264648035389999 18.000000000000000
-0.996300662598664 -5.209247125039002 -2.367275518392052 21.000000000000000
-1.009042739518164 -5.201526719663637 -2.474885155810452 19.000000000000000
-1.020682219764589 -5.184469572015564 -2.579512175412472 20.000000000000000
-1.032775571678065 -5.172335303949958 -2.688256334886602 19.000000000000000
-1.044735639664593 -5.154466994970726 -2.795341381830145 20.000000000000000
-1.056530676196974 -5.138000255635146 -2.904601918223553 23.000000000000000
-1.068976673332551 -5.126040584031652 -3.018432176268220 23.000000000000000
-0.892636126842472 -5.509994148157825 -1.093850644431037 7.000000000000000
-0.905616433744384 -5.507333448522236 -1.195993796689713 28.000000000000000
-0.919683944753937 -5.510647810536166 -1.299476105973018 8.000000000000000
-0.933884592308449 -5.515711267393534 -1.405209159875100 5.000000000000000
-0.948146546448998 -5.518821897265981 -1.511166103614811 15.000000000000000
-0.957701802463383 -5.497460902584585 -1.610464182188560 6.000000000000000
-0.941157294811696 -5.327420284987339 -1.663855779065048 9.000000000000000
-0.948989863381309 -5.295882063585015 -1.757455947612354 22.000000000000000
-0.958752004681432 -5.277663603099215 -1.855811813207672 21.000000000000000
-0.969812238949674 -5.264999590790326 -1.956845300518445 21.000000000000000
-0.981282058260503 -5.254277621475364 -2.059037687513081 20.000000000000000
-0.992622242300373 -5.241543563916102 -2.161586952139622 19.000000000000000
-1.003094904767199 -5.223411787643077 -2.262337266797643 18.000000000000000
-1.014924919157021 -5.210428773598740 -2.366580529736616 20.000000000000000
-1.027100364853807 -5.199104990780594 -2.472544465799856 19.000000000000000
-1.038841382380754 -5.182033059148872 -2.577157728223366 21.000000000000000
-1.051766069000369 -5.173376579487533 -2.687701416249468 20.000000000000000
-1.064546703273866 -5.158919925012653 -2.796709052414315 24.000000000000000
-1.076457893078683 -5.142370593104381 -2.906076235683417 24.000000000000000
-1.088318259574364 -5.126934321845583 -3.018014550223177 24.000000000000000
-0.910225752421346 -5.511536393373476 -1.092391717356319 24.000000000000000
-0.923351219877292 -5.508841238552911 -1.194585590558472 5.000000000000000
-0.938889035755756 -5.519799617393768 -1.299924444864873 8.000000000000000
-0.952613894444769 -5.520964409406148 -1.404868235167053 15.000000000000000
-0.959722105056214 -5.482166545104366 -1.499493065274037 5.000000000000000
-0.945125489177750 -5.324734783997740 -1.558307187235903 17.000000000000000
-0.954346125106987 -5.302471042155772 -1.654545351627683 21.000000000000000
-0.965605102831719 -5.289765594436092 -1.753944908286895 22.000000000000000
-0.976827396057397 -5.278995137053641 -1.854836537616115 20.000000000000000
-0.988694107401118 -5.269985837763529 -1.957293343309106 21.000000000000000
-0.999591546930151 -5.255530519717484 -2.058164156626935 20.000000000000000
-1.011046948078459 -5.242755446862196 -2.160763613442710 19.000000000000000
-1.021617017679798 -5.224583822358391 -2.261565509185621 18.000000000000000
-1.033563732604275 -5.211556571932301 -2.365857161409866 20.000000000000000
-1.046577547216197 -5.203741357966483 -2.473557623556013 20.000000000000000
-1.058428371875085 -5.186592420672874 -2.578280908556815 25.000000000000000
-1.070048417546226 -5.170871531865477 -2.685304449229174 26.000000000000000
-1.082217777074935 -5.152939286089912 -2.792422138011045 26.000000000000000
-1.094965004025213 -5.139833558126504 -2.903649192777376 23.000000000000000
-1.108406073472876 -5.131161398730858 -3.019562000764819 25.000000000000000
-0.929132563250642 -5.520770582884607 -1.092438030765704 4.000000000000000
-0.943734380434474 -5.525721757898832 -1.196490064091382 12.000000000000000
-0.955494751738424 -5.513534704776212 -1.296726971505028 13.000000000000000
-0.947869428860945 -5.392402652375686 -1.370501069128553 8.000000000000000
-0.949369677795018 -5.323805343164651 -1.454576874206002 21.000000000000000
-0.960852401276945 -5.314770848267003 -1.553825438513469 21.000000000000000
-0.972205342183632 -5.303824772410915 -1.653438706511349 21.000000000000000
-0.984271266376486 -5.294821687782536 -1.754129233771935 23.000000000000000
-0.994917273645621 -5.280274281045238 -1.853833632107734 21.000000000000000
-1.005499637838467 -5.263841944851641 -1.953600383376087 21.000000000000000
-1.017205648145393 -5.253064605311612 -2.055828037994297 20.000000000000000
-1.028771658580532 -5.240274903586380 -2.158413261945960 19.000000000000000
-1.040153535072929 -5.225702245897144 -2.260765503253453 18.000000000000000
-1.052940077975820 -5.216213003919241 -2.366730886673868 20.000000000000000
-1.063912068865756 -5.197661778939657 -2.469475074073766 27.000000000000000
-1.076591523266011 -5.184050225927479 -2.575872269172719 29.000000000000000
-1.089055113210622 -5.171804753756323 -2.684693380893486 26.000000000000000
-1.102069565494629 -5.157280164950979 -2.793730118141994 26.000000000000000
-1.114203286819073 -5.140666960816645 -2.903129041846010 24.000000000000000
-1.126299182355730 -5.125166888709137 -3.015098425375914 24.000000000000000
-0.946773920621002 -5.522207194428862 -1.090922016016749 21.000000000000000
-0.959533389361043 -5.515556648752722 -1.192521081197704 9.000000000000000
-0.945647783043308 -5.357550900762107 -1.258353931200761 19.000000000000000
-0.956679268647332 -5.344125047076090 -1.356579617329694 24.000000000000000
-0.968384435873718 -5.332780495139349 -1.455413266058429 23.000000000000000
-0.978608790012438 -5.316108778756702 -1.552639136611059 21.000000000000000
-0.989377167531761 -5.301366832599101 -1.651133709481155 21.000000000000000
-1.000854195788181 -5.288609542824770 -1.750571330256485 23.000000000000000
-1.013021444419727 -5.281500955652402 -1.852803067945576 21.000000000000000
-1.024422537034042 -5.268720991182853 -1.953991193093228 20.000000000000000
-1.035531568907926 -5.254213116761855 -2.054900214960026 20.000000000000000
-1.046485998900256 -5.237744448886055 -2.156038066052880 19.000000000000000
-1.058704259591303 -5.226766978753298 -2.259937220485856 23.000000000000000
-1.070148739984132 -5.210069494723385 -2.362701321467271 28.000000000000000
-1.084169536787196 -5.205738786719582 -2.472115713300244 30.000000000000000
-1.096231470903251 -5.188496908059352 -2.576934690142503 28.000000000000000
-1.108075781226182 -5.172683001681017 -2.684053394994267 26.000000000000000
-1.120457944698595 -5.154652536124371 -2.791264091050575 25.000000000000000
-1.133455376907591 -5.141444759524946 -2.902579661837507 24.000000000000000
-1.147183655183766 -5.132666064779520 -3.018576606405730 25.000000000000000
-0.963078200294428 -5.515856389208938 -1.087853240901812 6.000000000000000
-0.975956838864180 -5.509202850623863 -1.189366301587589 17.000000000000000
-0.962406256517886 -5.355100227208706 -1.256077925116303 24.000000000000000
-0.974236179168883 -5.345478391806078 -1.355258141437534 23.000000000000000
-0.984652376405242 -5.326500456926935 -1.452073200633032 23.000000000000000
-0.997087431141057 -5.321174361058025 -1.552528284405550 21.000000000000000
-1.007252610537621 -5.302618590853426 -1.649974017522934 20.000000000000000
-1.018841450858000 -5.289823771834591 -1.749463506606303 22.000000000000000
-1.030415091137163 -5.278962731280357 -1.850443520270160 21.000000000000000
-1.041924766389233 -5.266168051338013 -1.951617492300049 21.000000000000000
-1.053871561979397 -5.255308472984550 -2.053944396673848 21.000000000000000
-1.065667835585073 -5.242435168996530 -2.156629213162928 31.000000000000000
-1.077268993496255 -5.227777941985102 -2.259080632679049 29.000000000000000
-1.088817717038539 -5.211037059470272 -2.361894312599615 27.000000000000000
-1.100730879002200 -5.196008291647110 -2.466297906812055 28.000000000000000
-1.114397836746822 -5.185848853762202 -2.574471815224874 28.000000000000000
-1.127110219346932 -5.173506197207100 -2.683384463863397 26.000000000000000
-1.139598668999403 -5.155426187667590 -2.790641449044648 25.000000000000000
-1.152721069847056 -5.142166876271404 -2.902001025449137 24.000000000000000
-1.165823785931690 -5.129950455218001 -3.016050269336457 25.000000000000000
-0.978661125442944 -5.505595019890509 -1.084002711483497 24.000000000000000
-0.993040443155419 -5.506655245610262 -1.187020928311993 8.000000000000000
-0.979154554068137 -5.352602354409682 -1.253778447260737 24.000000000000000
-0.991099016268135 -5.342964253856093 -1.352943355047926 23.000000000000000
-1.003029063095816 -5.331568467955038 -1.451814853930308 24.000000000000000
-1.014883944923133 -5.322407223688537 -1.551285893562286 21.000000000000000
-1.025141972461737 -5.303818391200764 -1.648786950899901 20.000000000000000
-1.036842625424787 -5.290985734865546 -1.748328150992122 23.000000000000000
-1.047798195031605 -5.276375519173911 -1.848059610280672 21.000000000000000
-1.058674502856294 -5.259879847577128 -1.947854277417587 23.000000000000000
-1.070732081229791 -5.249029773006418 -2.050101278551261 35.000000000000000
-1.084136792408501 -5.243435017905836 -2.155694929331382 34.000000000000000
-1.095847538667855 -5.228735057216539 -2.258195711941363 30.000000000000000
-1.106740339895460 -5.208373312622189 -2.359438334946062 28.000000000000000
-1.120288747214761 -5.200423662127268 -2.467193315743781 29.000000000000000
-1.134089908917518 -5.190182403157830 -2.575473296394718 28.000000000000000
-1.146158224947693 -5.174274262480557 -2.682686560151232 26.000000000000000
-1.158752882236124 -5.156144419841558 -2.789989691673831 25.000000000000000
-1.171221423168099 -5.139416068721340 -2.899465269749056 24.000000000000000
-1.184452634215903 -5.127182347676603 -3.013497823289816 24.000000000000000
-0.995584336690272 -5.503022077846532 -1.081654214280437 6.000000000000000
-1.012938992468965 -5.519455492264725 -1.187965347324876 6.000000000000000
-0.996605900445546 -5.353889726292399 -1.252351978438100 24.000000000000000
-1.009391374935717 -5.348031765357744 -1.352534394730841 23.000000000000000
-1.019990633683068 -5.328990242762524 -1.449461313640563 24.000000000000000
-1.031229349398910 -5.316037116377941 -1.547817626928446 21.000000000000000
-1.042306883842193 -5.301211756807798 -1.646406471494191 21.000000000000000
-1.054857526602278 -5.292095354228446 -1.747165235552783 23.000000000000000
-1.067417779864853 -5.284865377240944 -1.849545140749028 34.000000000000000
-1.077651368205921 -5.264598430632967 -1.948159873516750 40.000000000000000
-1.089075106169541 -5.250022302387027 -2.049092784029221 34.000000000000000
-1.101855811476345 -5.240749397337817 -2.153240238575136 33.000000000000000
-1.114439696606976 -5.229638246638796 -2.257282430693874 28.000000000000000
-1.126196780632567 -5.212809714855915 -2.360194841108812 29.000000000000000
-1.139108259358458 -5.201235299692661 -2.466375423712365 30.000000000000000
-1.153039375901943 -5.190942833922560 -2.574699340227453 28.000000000000000
-1.164435463401002 -5.171504625529952 -2.680154838753989 26.000000000000000
-1.177920380395421 -5.156807155584429 -2.789308792077768 25.000000000000000
-1.192083475459476 -5.146859056181463 -2.902682008649812 24.000000000000000
-1.205450761591792 -5.134502327066735 -3.016877577019665 24.000000000000000
-1.167018192691113 -4.834739297043232 -3.076112557686062 7.000000000000000
-1.016052041808921 -5.519714671892276 -1.083071645475525 7.000000000000000
-1.031485670081288 -5.524498567231118 -1.187218974359096 18.000000000000000
-1.014070705230766 -5.355126234951985 -1.250898721928257 24.000000000000000
-1.026257287365021 -5.345418931101220 -1.350169037992979 24.000000000000000
-1.038418685117015 -5.333951651705192 -1.449145407359557 23.000000000000000
-1.050517896579607 -5.324717529544959 -1.548719270727460 21.000000000000000
-1.060961685560663 -5.306061808435661 -1.646330582487234 23.000000000000000
-1.073642047076709 -5.296882751907972 -1.747205158900565 42.000000000000000
-1.084054636847607 -5.278467812768731 -1.845811229214325 42.000000000000000
-1.096666226687563 -5.269260241463193 -1.948434164907327 39.000000000000000
-1.107431629797988 -5.250961512057135 -2.048056245374529 35.000000000000000
-1.119563738599461 -5.238013864428837 -2.150760747099612 33.000000000000000
-1.132264934230525 -5.226885168939393 -2.254786807978386 28.000000000000000
-1.144906467791801 -5.213614650581976 -2.359302323833357 28.000000000000000
-1.157941079724784 -5.201992313291067 -2.465528833403989 27.000000000000000
-1.172002071908084 -5.191648284158474 -2.573896508610539 28.000000000000000
-1.184294126205234 -5.175644693754499 -2.681203727180514 26.000000000000000
-1.197100959089921 -5.157414318418559 -2.788598723717203 25.000000000000000
-1.210597715687825 -5.143998363717896 -2.900089309803930 24.000000000000000
-1.224899166929859 -5.135001911377117 -3.016252211107007 24.000000000000000
-1.184907942930620 -4.831979152893484 -3.073609381945385 7.000000000000000
-1.033013188865998 -5.517037044227165 -1.080667388355035 14.000000000000000
-1.046417985043172 -5.510259603625657 -1.182316582489402 9.000000000000000
-1.032286127631587 -5.360140476472183 -1.250311730403234 24.000000000000000
-1.043856460268080 -5.346569395064455 -1.348741411137332 24.000000000000000
-1.056133559832037 -5.335065887375534 -1.447769968316244 24.000000000000000
-1.068354951603322 -5.325794819642225 -1.547394983983309 28.000000000000000
-1.079654119645311 -5.310855876261813 -1.646223813309807 45.000000000000000
-1.090927735365655 -5.294157253958797 -1.744756615280596 44.000000000000000
-1.102202961953472 -5.279434813819531 -1.844645406925500 42.000000000000000
-1.114940269695191 -5.270184803268558 -1.947317214633804 40.000000000000000
-1.125801455278624 -5.251847325250133 -2.046991635438590 35.000000000000000
-1.138048521252381 -5.238856463118719 -2.149745222605342 32.000000000000000
-1.151664054908080 -5.231282539665236 -2.255370677921106 29.000000000000000
-1.163629324979647 -5.214365222675658 -2.358381249628235 30.000000000000000
-1.176787006876492 -5.202694626454983 -2.464653518104138 22.000000000000000
-1.190977794246221 -5.192298677585614 -2.573064775001803 28.000000000000000
-1.203381614734859 -5.176246906952251 -2.680418744820551 26.000000000000000
-1.216294413560396 -5.157965832451948 -2.787859460374582 25.000000000000000
-1.230731362091543 -5.147908454680231 -2.901316055964273 24.000000000000000
-1.244360245358970 -5.135445118085114 -3.015597290572124 24.000000000000000
-1.176827384656561 -4.659149377754456 -3.080368221900211 8.000000000000000
-1.049963341981111 -5.514311630259503 -1.078239409816132 10.000000000000000
-1.064236283937962 -5.511357275421227 -1.180693912329284 16.000000000000000
-1.049039937552295 -5.357446360400831 -1.247911737603327 24.000000000000000
-1.061468738718907 -5.347668508572105 -1.347286769455073 23.000000000000000
-1.073098870349941 -5.332338587339574 -1.445340099915267 40.000000000000000
-1.085436414231724 -5.323050234410252 -1.544949187709659 47.000000000000000
-1.097609368902433 -5.311845126030861 -1.644925235492421 45.000000000000000
-1.108982655306541 -5.295109381717643 -1.743510856253859 44.000000000000000
-1.121150099219782 -5.284051858854161 -1.844744537316581 41.000000000000000
-1.132436622969586 -5.267377817095208 -1.944814188278808 39.000000000000000
-1.145775740597119 -5.259985200765195 -2.048744405725186 32.000000000000000
-1.157346752383362 -5.243271326353505 -2.150188431972147 34.000000000000000
-1.168686095932213 -5.224826759427245 -2.251271228250321 28.000000000000000
-1.182365151570207 -5.215061355113657 -2.357431591956059 28.000000000000000
-1.194832474487956 -5.199802474748143 -2.462073431380973 22.000000000000000
-1.209148795031095 -5.189385226384657 -2.570466137426346 28.000000000000000
-1.222481856494512 -5.176793684294785 -2.679604683677682 26.000000000000000
-1.236325305392680 -5.161905188215701 -2.788951517527246 25.000000000000000
-1.250074259238379 -5.148349044960102 -2.900588984611235 24.000000000000000
-1.263003412224087 -5.132457475692854 -3.012931901141287 24.000000000000000
-1.173769490504583 -4.510026221086877 -3.097925865521874 30.000000000000000
-1.066155726211678 -5.507681537044159 -1.075034908255978 10.000000000000000
-1.085083370740031 -5.527768516663484 -1.182330454960644 5.000000000000000
-1.067305261303443 -5.362354616753310 -1.247267590927645 26.000000000000000
-1.078325894355997 -5.344909281349991 -1.344847217976844 45.000000000000000
-1.090827747210825 -5.333351376839943 -1.443912018467347 47.000000000000000
-1.102506636002815 -5.320257519951550 -1.542479510064477 48.000000000000000
-1.114790840381243 -5.309035328576967 -1.642440033037355 45.000000000000000
-1.127050526572260 -5.296008860594082 -1.742237429015391 43.000000000000000
-1.140134554972017 -5.288611980023492 -1.844812326853536 41.000000000000000
-1.150724495160921 -5.268197874890602 -1.943643045220696 38.000000000000000
-1.163388131011360 -5.257109228260805 -2.046199066258456 34.000000000000000
-1.176682350821642 -5.247628327666036 -2.150599818641726 32.000000000000000
-1.189757614121774 -5.236306574398461 -2.254893850838816 29.000000000000000
-1.201113746567120 -5.215702972448470 -2.356453324596032 29.000000000000000
-1.213691733294031 -5.200397163354123 -2.461142360756916 20.000000000000000
-1.228137682546711 -5.189927284176958 -2.569578295686740 28.000000000000000
-1.240761361997210 -5.173810262955538 -2.676963691481599 25.000000000000000
-1.256393203834661 -5.165784737719425 -2.790010781503026 25.000000000000000
-1.269429516666703 -5.148733463154676 -2.899832482680093 24.000000000000000
-1.283319590492542 -5.136162100347875 -3.014198684162700 24.000000000000000
-1.251215260190511 -4.872884099913222 -3.097406160237838 4.000000000000000
-1.183973791338875 -4.481478032764089 -3.077768136698338 8.000000000000000
-1.087622264641385 -5.527992280494326 -1.077067851275625 4.000000000000000
-1.102974225221225 -5.528754155417085 -1.180646156753141 22.000000000000000
-1.084060742425911 -5.359562131760111 -1.244817280782199 50.000000000000000
-1.095171778240284 -5.342102552743945 -1.342384107516413 51.000000000000000
-1.108569371056926 -5.334312379044882 -1.442456721126489 48.000000000000000
-1.121151235194564 -5.324948455534220 -1.542167258673788 46.000000000000000
-1.132759675318675 -5.309921771756437 -1.641088143823761 45.000000000000000
-1.144326424160391 -5.293133299714051 -1.739712880456579 42.000000000000000
-1.156726012345173 -5.282018322165101 -1.840981090798110 41.000000000000000
-1.169840319530957 -5.272638917791165 -1.943798464191622 38.000000000000000
-1.183449162153226 -5.265129842668918 -2.047886671775567 35.000000000000000
-1.193580496246564 -5.241061232017557 -2.146529003116988 32.000000000000000
-1.206768310042349 -5.229748294465765 -2.250742771266843 28.000000000000000
-1.218207273734090 -5.209159049707560 -2.352226399195277 28.000000000000000
-1.233401409103411 -5.204472607338868 -2.461854959879050 19.000000000000000
-1.247981086798638 -5.193918762942086 -2.570395901597853 28.000000000000000
-1.260719781381659 -5.177720632240908 -2.677889222372690 25.000000000000000
-1.273949978503246 -5.159285731642314 -2.785466243116871 25.000000000000000
-1.288796927216537 -5.149061635426358 -2.899046525148857 24.000000000000000
-1.304527174961935 -5.143176457522122 -3.017409613654737 25.000000000000000
-1.302066424786747 -5.068175781832194 -3.095903304351203 24.000000000000000
-1.269241541439441 -4.869892149678716 -3.094776302090678 4.000000000000000
-1.177333887613520 -4.333837431275256 -3.091284852024207 34.000000000000000
-1.104597621457161 -5.525113633774168 -1.074560109325672 20.000000000000000
-1.118543694833054 -5.518175313019452 -1.176480011530955 8.000000000000000
-1.101590011538529 -5.360543199842270 -1.243229684774039 51.000000000000000
-1.113590278559996 -5.346854117336235 -1.341806148227534 50.000000000000000
-1.125524739112731 -5.331437674959816 -1.439952214368341 47.000000000000000
-1.138222616159896 -5.322055473873867 -1.539646325969482 46.000000000000000
-1.151552031019911 -5.314498330075016 -1.640864229448551 45.000000000000000
-1.163224343727068 -5.297649572616348 -1.739607464895044 43.000000000000000
-1.175747936223547 -5.286470242337160 -1.840991354501637 41.000000000000000
-1.187338239609205 -5.269677932810891 -1.941216729066498 37.000000000000000
-1.200242171451144 -5.258501770231660 -2.043869335926527 34.000000000000000
-1.213790560587311 -5.248928129988484 -2.148363554253498 30.000000000000000
-1.227108987702475 -5.237512914232624 -2.252750764187263 30.000000000000000
-1.238648435955209 -5.216822362906123 -2.354410857515800 29.000000000000000
-1.252297741615116 -5.204955365665318 -2.460864483830327 18.000000000000000
-1.266152526242328 -5.190845583120505 -2.567715699311066 27.000000000000000
-1.279857054434572 -5.178100654726963 -2.676987771681123 25.000000000000000
-1.293192881124392 -5.159613903315575 -2.784609944125356 25.000000000000000
-1.309040907479266 -5.152736881452907 -2.900146639923718 23.000000000000000
-1.322327131359613 -5.136652683127269 -3.012681558112586 24.000000000000000
-1.281538150119709 -4.915088866936872 -3.001593143632391 32.000000000000000
-1.282026419907538 -4.847078854232575 -3.079560169814917 11.000000000000000
-1.188590420523727 -4.311987458771220 -3.075256244224039 8.000000000000000
-1.119997033360840 -5.514485349177559 -1.070533502030163 8.000000000000000
-1.134053820817238 -5.507556406593549 -1.172297044131803 22.000000000000000
-1.119131605430582 -5.361472958714350 -1.241615142748011 51.000000000000000
-1.131241093733464 -5.347749152873061 -1.340244972306994 49.000000000000000
-1.144090092355071 -5.336078726340562 -1.439464374991840 48.000000000000000
-1.156916297108022 -5.326637878875985 -1.539275670180433 44.000000000000000
-1.168734856713834 -5.311537116464835 -1.638301649611122 44.000000000000000
-1.180500895590273 -5.294672488739192 -1.737031051103837 43.000000000000000
-1.194806540579349 -5.290864809420740 -1.840970097264494 41.000000000000000
-1.206503315658582 -5.274007936199951 -1.941312452493098 37.000000000000000
-1.219532298093618 -5.262761940800111 -2.044077720726965 33.000000000000000
-1.231513830435405 -5.245878987227503 -2.145723033574290 31.000000000000000
-1.244095332466894 -5.230854079982153 -2.248549843269690 28.000000000000000
-1.257434126520739 -5.217299988025802 -2.353346606942331 29.000000000000000
-1.271206168187987 -5.205383049913903 -2.459845153994423 17.000000000000000
-1.286911287833475 -5.198222650191522 -2.570202446556033 27.000000000000000
-1.299876325047331 -5.181893414613252 -2.677849543788682 24.000000000000000
-1.313321430243909 -5.163321399141584 -2.785577668999498 24.000000000000000
-1.328444238116793 -5.152950237112182 -2.899299874117852 24.000000000000000
-1.343607101141402 -5.143545281837460 -3.015825905361585 24.000000000000000
-1.291616088648723 -4.882024344677476 -2.980614395979497 8.000000000000000
-1.289350333448101 -4.804481943900895 -3.051790452892783 23.000000000000000
-1.185405915957483 -4.177947396793639 -3.093508099882437 40.000000000000000
-1.136131231447100 -5.507666370750088 -1.067236137618592 22.000000000000000
-1.155115733394843 -5.523730500056145 -1.173799388828083 4.000000000000000
-1.136685333901608 -5.362351335950585 -1.239973629365542 50.000000000000000
-1.148904069336859 -5.348592503042911 -1.338656668400964 48.000000000000000
-1.161045951968992 -5.333104262361666 -1.436908912978219 48.000000000000000
-1.173988097246387 -5.323644471934240 -1.536703446982474 45.000000000000000
-1.187575958912853 -5.316004270792269 -1.638018905486309 44.000000000000000
-1.198606497115989 -5.295362753429155 -1.735648517029453 43.000000000000000
-1.212208574303544 -5.287816628521811 -1.838349715237336 42.000000000000000
-1.224853109343873 -5.274612106341854 -1.940027316344435 37.000000000000000
-1.237145426378778 -5.259679087835202 -2.041426728290569 32.000000000000000
-1.250086261908352 -5.246395600556502 -2.144535740026122 30.000000000000000
-1.262776974225318 -5.231325269561522 -2.247410562717330 27.000000000000000
-1.276231777845651 -5.217722802038800 -2.352253644975665 29.000000000000000
-1.291875809232386 -5.212814238748264 -2.462130907531832 16.000000000000000
-1.305094284109473 -5.195040646903410 -2.567465985481833 27.000000000000000
-1.319049501213914 -5.182159758451021 -2.676887866765846 24.000000000000000
-1.332600056128276 -5.163535317709267 -2.784660861429264 25.000000000000000
-1.347859089689430 -5.153107094421120 -2.898423562519513 24.000000000000000
-1.363164276055093 -5.143644400902442 -3.014989458282094 24.000000000000000
-1.316647086664218 -4.905524032737844 -2.994176082565964 6.000000000000000
-1.290994026039664 -4.742140386201672 -3.011500453641830 29.000000000000000
-1.291856875458230 -4.680730660957592 -3.090857857117147 16.000000000000000
-1.193373369393872 -4.146952135376617 -3.070222139864937 7.000000000000000
-1.157064313036926 -5.523884185455640 -1.068382740954509 4.000000000000000
-1.173843787078442 -5.528341915011285 -1.172821569662966 23.000000000000000
-1.153430059734143 -5.359363765889750 -1.237424390486030 48.000000000000000
-1.166579013710822 -5.349384095737410 -1.337041211422124 49.000000000000000
-1.178824634302973 -5.333859523388104 -1.435346322781539 46.000000000000000
-1.191888916500822 -5.324360430339331 -1.535190808518365 44.000000000000000
-1.205605984262029 -5.316678163216063 -1.636554771308633 44.000000000000000
-1.216724081199013 -5.296000034471297 -1.734238203105453 42.000000000000000
-1.230456926361712 -5.288409840903753 -1.836986964298013 39.000000000000000
-1.244078779195937 -5.278828473019086 -1.940061324700155 36.000000000000000
-1.255615011141270 -5.260186854517831 -2.040163032542871 34.000000000000000
-1.268670557428683 -5.246857946816553 -2.143320018718990 30.000000000000000
-1.281470434207226 -5.231741893281104 -2.246242704682687 28.000000000000000
-1.295923969108902 -5.221647713128942 -2.352734627250662 29.000000000000000
-1.310832280598743 -5.213127204173182 -2.461050077761485 15.000000000000000
-1.324155484541795 -5.195303555834552 -2.566431221656008 27.000000000000000
-1.337339647983705 -5.178906039919867 -2.674108243062039 24.000000000000000
-1.351890105573606 -5.163693038255261 -2.783714667333260 24.000000000000000
-1.367285253482189 -5.153207381951582 -2.897517681431793 23.000000000000000
-1.382732645560869 -5.143686562906407 -3.014123251208602 23.000000000000000
-1.343671369114249 -4.935590393675599 -3.011742139971445 6.000000000000000
-1.298543495871705 -4.702847544075474 -2.985868343800941 6.000000000000000
-1.298418049012269 -4.638617506725270 -3.062450358177421 20.000000000000000
-1.175650580664352 -5.528499212132437 -1.067261061612665 27.000000000000000
-1.190130954637516 -5.521409535465602 -1.169379772564553 8.000000000000000
-1.170995575976009 -5.360141324752900 -1.235730690612177 48.000000000000000
-1.184265734841591 -5.350123859400799 -1.335398576586928 47.000000000000000
-1.196615109942961 -5.334562666778913 -1.433756406390169 45.000000000000000
-1.209801529307885 -5.325023932283189 -1.533650670881603 44.000000000000000
-1.222788486690343 -5.313565182386442 -1.633914737478084 44.000000000000000
-1.234853451404538 -5.296584259747219 -1.732800084531479 42.000000000000000
-1.248717036924272 -5.288949636417171 -1.835596226063277 39.000000000000000
-1.261588295593539 -5.275659404730549 -1.937372658447387 37.000000000000000
-1.274977418819568 -5.264278660715643 -2.040281050207082 34.000000000000000
-1.286380578961290 -5.243654621477398 -2.140601601590064 31.000000000000000
-1.299284979187729 -5.228520246267636 -2.243508541821616 28.000000000000000
-1.314757152616070 -5.221958478057952 -2.351582293495927 28.000000000000000
-1.331598458803159 -5.220434687402721 -2.463266777893841 12.000000000000000
-1.342324762496515 -5.192016863940608 -2.563642158442751 27.000000000000000
-1.359243717272959 -5.189448521852808 -2.678450402022353 23.000000000000000
-1.373012342079843 -5.170652118449556 -2.786434599711530 24.000000000000000
-1.385809000980243 -5.149856265352700 -2.894674050564189 23.000000000000000
-1.402311999250826 -5.143671697355416 -3.013227261024630 23.000000000000000
-1.363585430321191 -4.938972739154361 -3.013024901341809 5.000000000000000
-1.322377024876624 -4.722710733197165 -2.997803585064029 3.000000000000000
-1.297299091449360 -4.570520375624333 -3.016909439033176 34.000000000000000
-1.299088717687082 -4.512066137393936 -3.095642691810718 14.000000000000000
-1.191783576054962 -5.521530548124586 -1.063887359626316 8.000000000000000
-1.204707546480083 -5.506779658190505 -1.164299584983697 25.000000000000000
-1.189417419467191 -5.364677461816171 -1.234887012219988 47.000000000000000
-1.202815892978506 -5.354603935450191 -1.334673975943051 46.000000000000000
-1.214417185473341 -5.335213621340508 -1.432139139291185 45.000000000000000
-1.227725741033263 -5.325634906432665 -1.532083009562559 43.000000000000000
-1.240829810700022 -5.314135595449669 -1.632397088349809 43.000000000000000
-1.253871858008872 -5.300824822241317 -1.732546555681456 41.000000000000000
-1.266988707915320 -5.289435943478308 -1.834177476106065 39.000000000000000
-1.279973290139528 -5.276102389186102 -1.936003087640642 36.000000000000000
-1.292589095853524 -5.261040242708082 -2.037550734064468 34.000000000000000
-1.304975811138434 -5.244010458273877 -2.139330840673737 31.000000000000000
-1.318892000272123 -5.232411155405863 -2.243821158738478 27.000000000000000
-1.333601678453969 -5.222214181542730 -2.350401158381000 29.000000000000000
-1.348779411851809 -5.213586983148375 -2.458801510352250 12.000000000000000
-1.362311854340323 -5.195662364686704 -2.564274362017839 27.000000000000000
-1.375718291810690 -5.179163343078236 -2.672042336358493 24.000000000000000
-1.392349036715213 -5.170692739500607 -2.785425776005154 24.000000000000000
-1.405244959788358 -5.149845444914488 -2.893710852259242 22.000000000000000
-1.421902126367807 -5.143599734361565 -3.012301464944429 23.000000000000000
-1.381675430257731 -4.935652307821002 -3.010223463752039 4.000000000000000
-1.381798767238773 -4.867296109742136 -3.088890536575628 3.000000000000000
-1.305023947379784 -4.534925367665186 -2.992842863645211 7.000000000000000
-1.300191116804770 -4.454423755485667 -3.055609279071349 37.000000000000000
-1.226544201814706 -4.033321549971373 -3.098665938033858 80.000000000000000
-1.207880423191312 -5.514518472105578 -1.060493707702944 26.000000000000000
-1.225992624686366 -5.522711645021912 -1.165664690275035 4.000000000000000
-1.206161128646043 -5.361541686104435 -1.232262179857722 48.000000000000000
-1.219673737558943 -5.351447616182559 -1.332031675735604 45.000000000000000
-1.232230667127227 -5.335812316437678 -1.430494497278184 44.000000000000000
-1.246538582998153 -5.329944122355891 -1.531565608670049 43.000000000000000
-1.259765958097503 -5.318382666561838 -1.631996183461613 42.000000000000000
-1.271146762669091 -5.297593257361138 -1.729840335787585 40.000000000000000
-1.285271740905402 -5.289868691075024 -1.832730690312737 40.000000000000000
-1.298369619696305 -5.276491502245323 -1.934605323414201 36.000000000000000
-1.311998646073937 -5.265019275246044 -2.037608299940835 34.000000000000000
-1.325402920727672 -5.251525481570354 -2.140972492617271 31.000000000000000
-1.338534625739456 -5.236242764705798 -2.244101326759267 27.000000000000000
-1.351537929062570 -5.218864504852758 -2.347594195403720 28.000000000000000
-1.368693206160910 -5.217254069294590 -2.459293167525580 11.000000000000000
-1.381406611448285 -5.195758123206136 -2.563152219237951 26.000000000000000
-1.396786449076967 -5.186122726466928 -2.674531488260739 23.000000000000000
-1.411696512462658 -5.170676882066282 -2.784387461896438 23.000000000000000
