# This PCD file was generated using the MATLAB® pcwrite function
# from Computer Vision Toolbox®.
# .PCD v.7 - Point Cloud Data file format
VERSION .7
FIELDS x y z intensity
SIZE 8 8 8 8
TYPE F F F F
COUNT 1 1 1 1
WIDTH 632
HEIGHT 1
VIEWPOINT 0 0 0 1 0 0 0
POINTS 632
DATA ascii
-6.038848718553292 -5.617445145820136 -1.032453479886156 5.000000000000000
-6.129730669070325 -5.627008917359095 -1.179147390541101 5.000000000000000
-6.204110435164143 -5.620891308186117 -1.325583120685069 9.000000000000000
-5.739602314472135 -5.131352128739072 -1.347607733203954 22.000000000000000
-5.364538919330049 -4.732545292992482 -1.371638885701292 19.000000000000000
-5.366799181651833 -4.671154284657068 -1.483781720048843 68.000000000000000
-5.367394042113446 -4.608756172435183 -1.594349942680612 45.000000000000000
-5.327945171472417 -4.512270613075119 -1.691824507495519 19.000000000000000
-5.378709175679373 -4.492633956212108 -1.817505911669193 15.000000000000000
-5.467108268993934 -4.502180633208493 -1.958111519056182 6.000000000000000
-5.619027576630690 -4.562351014974719 -2.126832929316026 8.000000000000000
-5.531673979365709 -4.426459766255038 -2.205320140871555 7.000000000000000
-5.540459388829509 -4.369496029787465 -2.320775345957152 5.000000000000000
-5.460617087330191 -4.244116667731401 -2.398235754933626 13.000000000000000
-5.514104589252474 -4.159127999252647 -2.645207149660963 4.000000000000000
-5.417712000407960 -4.024009266986813 -2.708824486717407 3.000000000000000
-5.364983183347556 -3.921893187338775 -2.791231496938874 42.000000000000000
-5.398251257563921 -3.885428371116823 -2.920278365692220 42.000000000000000
-5.431165604074754 -3.845347128400388 -3.049286087466736 38.000000000000000
-5.838498031119634 -5.616630416427782 -0.603969788872302 26.000000000000000
-5.913765114791262 -5.614242059216038 -0.742302005660462 11.000000000000000
-5.998587135000006 -5.621044830405213 -0.883533473269279 22.000000000000000
-6.073471992522070 -5.616895997252682 -1.025823236282357 15.000000000000000
-6.150029267864186 -5.612729275451723 -1.169988925118974 24.000000000000000
-6.227546940920506 -5.609047473714819 -1.317004759385873 15.000000000000000
-5.791180558323226 -5.146938440953926 -1.346754775721938 23.000000000000000
-5.388553843126297 -4.725541756981712 -1.365415168639564 22.000000000000000
-5.367129834802254 -4.643577936435840 -1.471259761096515 69.000000000000000
-5.364704970996097 -4.578806920934955 -1.580649156191187 63.000000000000000
-5.322114481359264 -4.480122166238628 -1.676883664087435 21.000000000000000
-5.414687133947618 -4.495212623756296 -1.816053608427946 18.000000000000000
-5.497375231796522 -4.499431632628248 -1.954841309194794 9.000000000000000
-5.536186561063698 -4.467432047874444 -2.080969307491595 14.000000000000000
-5.580053620640245 -4.437517973743646 -2.209690436120355 2.000000000000000
-5.561934120061849 -4.359080115207425 -2.314606963027428 1.000000000000000
-5.481853183451190 -4.233869836696374 -2.392324367847865 20.000000000000000
-5.619186312126131 -4.211390440429550 -2.679401378642798 4.000000000000000
-5.396931847956886 -3.982849390430245 -2.682575881808023 5.000000000000000
-5.379895560177283 -3.907359072679487 -2.782900077030087 44.000000000000000
-5.413245678151362 -3.870823240920624 -2.911905675931889 50.000000000000000
-5.860788438420273 -5.605912128535876 -0.595258000545644 17.000000000000000
-5.930480153433374 -5.597821926087520 -0.732897560063257 8.000000000000000
-6.021342761647872 -5.609834273911908 -0.874852425266116 5.000000000000000
-6.108133411346619 -5.616200569221281 -1.019115987250558 3.000000000000000
-6.193755355366476 -5.619680086187026 -1.165215141843807 4.000000000000000
-6.280398492659217 -5.623484739008946 -1.314548653925484 8.000000000000000
-5.842900199600951 -5.162282934806728 -1.345769727147397 25.000000000000000
-5.400714908499715 -4.708115205700525 -1.356168753127874 21.000000000000000
-5.364353767793818 -4.613484870150295 -1.457958163614647 65.000000000000000
-5.326136916109744 -4.518602689425434 -1.556544662375674 24.000000000000000
-5.328047373899667 -4.458029146510683 -1.665720057615350 8.000000000000000
-5.447739970662921 -4.495167532096919 -1.813522007151620 17.000000000000000
-5.530664102383930 -4.498991195671979 -1.952561601555189 7.000000000000000
-5.554605069236484 -4.454700233299287 -2.073418519319155 23.000000000000000
-5.583581142322886 -4.412802991973701 -2.196245746979197 1.000000000000000
-5.580387262975234 -4.346250186992974 -2.307160009034338 1.000000000000000
-5.518071637852107 -4.235060989667968 -2.392881069615609 19.000000000000000
-5.682727533379027 -4.231856758157071 -2.693398626237163 5.000000000000000
-5.423845772379582 -3.976996361023605 -2.680111374895665 6.000000000000000
-5.400742892912824 -3.897102454228898 -2.777629324783045 45.000000000000000
-5.425198187217200 -3.854051414000743 -2.901915286091943 52.000000000000000
-5.911961927682742 -5.622608515977783 -0.589389210695154 7.000000000000000
-5.990715222078508 -5.622252590521823 -0.728773583719584 13.000000000000000
-6.073255211904590 -5.625575612739864 -0.870313826398399 15.000000000000000
-6.148693762408810 -5.620716767054170 -1.013297607157487 26.000000000000000
-6.222856486243111 -5.613164959730194 -1.157599363544739 17.000000000000000
-6.297953853778274 -5.606136816736895 -1.304619196434916 15.000000000000000
-5.906608784893910 -5.187791711129838 -1.347355121765090 24.000000000000000
-5.406864166266409 -4.685512429382636 -1.345434190752220 17.000000000000000
-5.370360729826285 -4.591085546565058 -1.447101632803002 35.000000000000000
-5.340955322282386 -4.503966246367634 -1.548166753603913 18.000000000000000
-5.426614797615085 -4.513067502669898 -1.683332871018056 0.000000000000000
-5.486831930628402 -4.499895746115222 -1.812895374568184 14.000000000000000
-5.566999169100641 -4.500834530763645 -1.951258255054511 6.000000000000000
-5.581998353024427 -4.449091216965873 -2.069179965578085 24.000000000000000
-5.586987262513817 -4.388108734837126 -2.182819062532325 1.000000000000000
-5.433335114212794 -4.205291194356559 -2.231719406047596 6.000000000000000
-5.554351963323150 -4.236093823075367 -2.393353168596520 18.000000000000000
-5.725428249299979 -4.236442304029595 -2.697310506179477 6.000000000000000
-5.453777477287034 -3.973224318067761 -2.679066954473448 6.000000000000000
-5.412564452339395 -3.880314080901022 -2.767716149252519 48.000000000000000
-5.452067772509995 -3.847829430678849 -2.899886493702742 15.000000000000000
-5.925583207849740 -5.603426160166786 -0.579702436089147 13.000000000000000
-6.007432964036927 -5.605615136722021 -0.719258035447260 12.000000000000000
-6.090183737399648 -5.608731428104739 -0.860679854593454 5.000000000000000
-6.174629006960926 -5.611698866402141 -1.004991770721359 5.000000000000000
-6.263762852077209 -5.617118066005649 -1.152095293580597 4.000000000000000
-6.350976435171169 -5.620179799715676 -1.301951358065410 6.000000000000000
-5.973492482932728 -5.215585414455667 -1.349441492197232 24.000000000000000
-5.433763494149289 -4.680879205242685 -1.339850796013167 8.000000000000000
-5.322502213932676 -4.523005360707240 -1.421891940231513 21.000000000000000
-5.370689289061455 -4.501833959319629 -1.544073690947785 27.000000000000000
-5.459596777791127 -4.513049938746357 -1.680352128071449 0.000000000000000
-5.522997229552113 -4.501999486872408 -1.811189173598459 6.000000000000000
-5.597376514827126 -4.497682378357111 -1.947775493910337 9.000000000000000
-5.618440546458340 -4.450531136964885 -2.068211407187131 25.000000000000000
-5.584241685233517 -4.358728589863843 -2.167070345144309 1.000000000000000
-5.421090081421461 -4.169587747912070 -2.212162819861008 26.000000000000000
-5.563539455281594 -4.216389077740497 -2.382114160705907 13.000000000000000
-5.759175322987884 -4.234185088614423 -2.696882688298223 6.000000000000000
-5.492777169272753 -3.975870554821295 -2.682371394870775 5.000000000000000
-5.424316720958562 -3.863499205666355 -2.757793683099734 53.000000000000000
-5.599167938950416 -3.925789222351543 -2.961385043032772 2.000000000000000
-5.982734900820958 -5.625212337413728 -0.574189224478484 7.000000000000000
-6.064991279562927 -5.626875604954265 -0.714540205444200 9.000000000000000
-6.148136777922028 -5.629457670299822 -0.856749962512428 17.000000000000000
-6.218233652568438 -5.618559656577407 -0.999478677884688 15.000000000000000
-6.298820259296031 -5.615615277326850 -1.145418874532447 18.000000000000000
-6.380380244269335 -5.613080362325694 -1.294331018175505 8.000000000000000
-6.046552878213548 -5.248223808602962 -1.352680725737035 21.000000000000000
-5.508470431166721 -4.717066048488862 -1.345889075353389 21.000000000000000
-5.337140857605659 -4.508356314119058 -1.413518592385381 14.000000000000000
-5.367431322794876 -4.472064066591354 -1.530499258210486 13.000000000000000
-5.543759821369044 -4.554905165429997 -1.692911686093931 0.000000000000000
-5.565249691407220 -4.508826533483510 -1.811359479299158 4.000000000000000
-5.621745956331322 -4.489583833047421 -1.942141449151341 9.000000000000000
-5.648901235240297 -4.447055180951718 -2.064949164524673 25.000000000000000
-5.554130883948973 -4.308295391528321 -2.140870136953669 2.000000000000000
-5.429818227011338 -4.150173945988445 -2.201256513824356 38.000000000000000
-5.542386185964824 -4.173890039878360 -2.358003668493867 8.000000000000000
-5.826222617921815 -4.256079560045744 -2.711859285615146 8.000000000000000
-5.519769314046390 -3.969651859234582 -2.679715439405321 5.000000000000000
-5.442036287138646 -3.850929735626493 -2.750913524764797 43.000000000000000
-5.999240438099648 -5.608571061409589 -0.564684704050711 20.000000000000000
-6.078771739679144 -5.607325870469289 -0.704578398224101 9.000000000000000
-6.167999179791435 -5.615080905656477 -0.847412851580754 14.000000000000000
-6.244191508236113 -5.609296213209599 -0.991046114438933 6.000000000000000
-6.333912504446217 -5.613964298067579 -1.138664676734295 4.000000000000000
-6.436580045366065 -5.629298404916441 -1.292029716376749 9.000000000000000
-6.066102125224895 -5.234114291013705 -1.343811219981477 7.000000000000000
-5.562482286935738 -4.735031566773454 -1.346644299429171 22.000000000000000
-5.366742625566853 -4.506273496921240 -1.409069466658408 10.000000000000000
-5.379072238024619 -4.454815125685943 -1.521219265613126 4.000000000000000
-6.321973971830531 -5.162873974423802 -1.915419907935251 8.000000000000000
-5.598531100249291 -4.508162461965751 -1.808497922604377 2.000000000000000
-5.724779562323589 -4.543833165692180 -1.963441653107599 2.000000000000000
-5.694533466992072 -4.455301468304389 -2.067118143656039 13.000000000000000
-5.526750634686063 -4.260403028942532 -2.115953083831136 15.000000000000000
-5.435426982629838 -4.128446678192796 -2.189128945909392 39.000000000000000
-5.533115680600961 -4.140625453393943 -2.339116867493793 7.000000000000000
-5.902585784668818 -4.284250731688883 -2.730864464349863 24.000000000000000
-5.558890226276280 -3.971982785201791 -2.682851506563615 5.000000000000000
-5.468798318732095 -3.844684443592460 -2.748568805438776 16.000000000000000
-6.056608876084474 -5.629922142104745 -0.558936128706587 8.000000000000000
-6.133600960035341 -5.625462785214332 -0.699293725999434 8.000000000000000
-6.214373195574337 -5.624676035911937 -0.841642012476295 10.000000000000000
-6.296804358749557 -5.623752535613845 -0.986743272492622 13.000000000000000
-6.380938070119898 -5.622650005839605 -1.133947202089421 10.000000000000000
-6.457104011236478 -5.614105791646119 -1.282469472650049 9.000000000000000
-6.076622676833128 -5.212233860036239 -1.332940745753204 5.000000000000000
-5.604636785714729 -4.742572602598015 -1.344376290069105 21.000000000000000
-5.402395595903599 -4.509092746565706 -1.406122479811039 12.000000000000000
-5.417808000193086 -4.459902061844643 -1.519549298903358 0.000000000000000
-6.260465529310791 -5.081685244052787 -1.881873119178740 10.000000000000000
-5.671239059498655 -4.538875166229693 -1.818186941818743 1.000000000000000
-5.776654416954476 -4.556871285125123 -1.966886839114659 2.000000000000000
-5.770645168714351 -4.486953264693817 -2.080121327530494 5.000000000000000
-5.526445432739790 -4.233657824332537 -2.101553307774375 18.000000000000000
-5.447015869041454 -4.111317694938580 -2.179445097655705 37.000000000000000
-5.529743416315612 -4.111973478262661 -2.322842195195062 7.000000000000000
-5.918421769567503 -4.268202899436675 -2.721703835238109 13.000000000000000
-5.592011904622803 -3.969826433345463 -2.682979118008277 5.000000000000000
-5.598746555814840 -3.910392610216484 -2.797725261299933 2.000000000000000
-6.076036485358334 -5.615780873537488 -0.549590583075127 14.000000000000000
-6.156175992507045 -5.613793157181291 -0.690234407766218 29.000000000000000
-6.237175236994752 -5.612757915251826 -0.832596929971187 12.000000000000000
-6.313892776360987 -5.606303408993129 -0.976790711938124 6.000000000000000
-6.425078711144346 -5.628508112668104 -1.128590262774325 4.000000000000000
-6.513499911741870 -5.629893231989097 -1.279936364098621 13.000000000000000
-6.522483147892662 -5.561626004964467 -1.416641721240488 21.000000000000000
-5.646881933240214 -4.749920918989342 -1.342004357441768 21.000000000000000
-5.410933493732514 -4.489207586641715 -1.396079500043647 11.000000000000000
-5.492937418142258 -4.494529965538297 -1.527887073461572 0.000000000000000
-6.419845018107877 -5.179481813235345 -1.914570993679719 8.000000000000000
-5.686485635585903 -4.523318591783728 -1.809313138596762 0.000000000000000
-5.813457587806601 -4.557740235241265 -1.965057460441490 1.000000000000000
-5.822663756094310 -4.499402311007714 -2.084195198911114 5.000000000000000
-5.526004268834718 -4.206952682518726 -2.087182298667023 17.000000000000000
-5.473782198922413 -4.105599273871365 -2.175813190774206 25.000000000000000
-5.590264729651605 -4.130701956967121 -2.333337865616821 3.000000000000000
-7.070359060675663 -5.146878157854099 -3.092546520478864 30.000000000000000
-5.943343379258555 -4.258661122288089 -2.716702950588350 25.000000000000000
-5.603857086469929 -3.952491419203514 -2.672863134457758 6.000000000000000
-6.113052898119015 -5.617780781258149 -0.541777960538529 3.000000000000000
-6.199395807426652 -5.620787483264207 -0.683414728288237 3.000000000000000
-6.292581736196198 -5.629956446663750 -0.827805231898971 8.000000000000000
-6.375606996830546 -5.628255311175394 -0.973641399177008 9.000000000000000
-6.457336588922429 -5.623748482047248 -1.121050038149459 13.000000000000000
-6.537025434314364 -5.617046121222343 -1.270840408229187 10.000000000000000
-6.491833259491358 -5.502782191386953 -1.396017580518390 6.000000000000000
-5.692236527315343 -4.759601022231275 -1.340239316790832 20.000000000000000
-5.386081791803072 -4.441848527224952 -1.377519725157113 6.000000000000000
-6.627383339554749 -5.390115277176570 -1.828152993964096 5.000000000000000
-6.433974518460341 -5.159409061849643 -1.903619192040989 7.000000000000000
-5.719950618427401 -4.522165793507373 -1.806190869975770 0.000000000000000
-5.883869594598231 -4.584591032593943 -1.974401088335818 1.000000000000000
-5.874820053942911 -4.511606644868274 -2.088135727334468 5.000000000000000
-5.531539645153786 -4.184912318156742 -2.075133259198521 19.000000000000000
-5.580056350285372 -4.159024025129150 -2.203517707221437 47.000000000000000
-5.638742947123207 -4.140157487293044 -2.338599999290097 3.000000000000000
-7.086058300952625 -5.125414048312695 -3.080242293855996 21.000000000000000
-5.962143411590646 -4.244672758246366 -2.708877094854515 41.000000000000000
-5.652274887290457 -3.960807787028804 -2.680113108194808 6.000000000000000
-6.150118891386388 -5.619618686966407 -0.533879607130865 36.000000000000000
-6.224928018517103 -5.611568203519231 -0.674564645925556 20.000000000000000
-6.309460783807949 -5.612492250527353 -0.817857784312141 12.000000000000000
-6.398663392653585 -5.615827309792388 -0.964476238227218 4.000000000000000
-6.507603645141651 -5.634435152558346 -1.116528239389355 7.000000000000000
-6.593621550162148 -5.632392842609845 -1.268070076831196 16.000000000000000
-6.527281135983548 -5.500121719338638 -1.389664004100520 7.000000000000000
-5.734668154811586 -4.766554132917840 -1.337654234902928 20.000000000000000
-5.403465742497264 -4.429503143177044 -1.369839360743865 9.000000000000000
-5.528386936506601 -4.469192295923723 -1.512310187203407 0.000000000000000
-6.350465408184554 -5.061545631739365 -1.864019559251341 2.000000000000000
-5.756510120049327 -4.523268438006946 -1.803949521328096 0.000000000000000
-6.009564577838234 -4.653725652635181 -2.001891888888417 2.000000000000000
-5.905682149937939 -4.507209711353720 -2.084378795176898 5.000000000000000
-5.555357064976349 -4.176702113206284 -2.069944766933535 25.000000000000000
-5.613185641113828 -4.157412205132100 -2.202055111710918 45.000000000000000
-5.610694748871167 -4.093465039690659 -2.312152331447880 1.000000000000000
-7.089411771472295 -5.095101162711032 -3.062627773048947 17.000000000000000
-5.977837164489245 -4.228454959010708 -2.699638400687936 6.000000000000000
-5.817157492283107 -4.049896743481799 -2.742082252068677 11.000000000000000
-6.181324195529706 -5.615925324969608 -0.525393123407654 4.000000000000000
-6.274200089424708 -5.623542650930379 -0.668195548496035 3.000000000000000
-6.365051682941449 -5.629271940850495 -0.812840998866028 5.000000000000000
-6.448644495831431 -5.626838212194444 -0.959280928702019 12.000000000000000
-6.530919746177906 -5.621595337652951 -1.107292702343021 14.000000000000000
-6.608116551882524 -5.611599492370313 -1.257118440706942 11.000000000000000
-6.708061367374999 -5.619022803959764 -1.413856930566609 5.000000000000000
-5.783259188247669 -4.778329687155020 -1.336367674856705 22.000000000000000
-5.420812196029662 -4.417099576634942 -1.362131588895682 31.000000000000000
-5.420977816237150 -4.355932103848320 -1.470550584824691 7.000000000000000
-5.774222537976547 -4.574315468408200 -1.681406577067299 0.000000000000000
-6.420816386369670 -5.014412331789303 -1.996829962547158 5.000000000000000
-6.013126985610419 -4.627814644092674 -1.988459573349465 6.000000000000000
-5.933497142401131 -4.500355853881190 -2.079478985119814 6.000000000000000
-5.585312636322757 -4.172990131427785 -2.066983337508954 25.000000000000000
-5.627914343336607 -4.142084163478378 -2.193329643881126 35.000000000000000
-5.582365997036747 -4.046963743270122 -2.285819401393083 2.000000000000000
-5.534575433365745 -3.952225671568287 -2.376131943596773 0.000000000000000
-5.786310244768670 -4.002242334847939 -2.711506969276689 2.000000000000000
-6.221433902808426 -5.620130993316933 -0.517578796845783 20.000000000000000
-6.299765241092742 -5.614062328306591 -0.659210194860845 21.000000000000000
-6.384897699672409 -5.614232350542867 -0.803166532442601 6.000000000000000
-6.483720288588535 -5.624591283732631 -0.951756329269362 4.000000000000000
-6.581335886054696 -5.631891189575389 -1.102562281103317 7.000000000000000
-6.661859583478429 -5.623974611004019 -1.253555130338831 8.000000000000000
-6.753059567198627 -5.623242448962388 -1.409017686920417 14.000000000000000
-5.841100450730583 -4.797376907906245 -1.337047616191327 23.000000000000000
-5.453379396954390 -4.416996596958391 -1.358196677705905 7.000000000000000
-5.416866720052529 -4.326359437390480 -1.457129011340338 3.000000000000000
-5.777113379315460 -4.548795294205965 -1.668838630288734 0.000000000000000
-6.428432888538337 -4.989641206943012 -1.983962505576892 5.000000000000000
-6.050383928184845 -4.627791860084371 -1.986147230519273 5.000000000000000
-5.945929938530778 -4.481791024195545 -2.069166591051487 11.000000000000000
-5.618373812118439 -4.171438933940244 -2.065088116209379 24.000000000000000
-5.648751096869080 -4.131221161380106 -2.186972053178909 13.000000000000000
-5.547593820263566 -3.996214487397236 -2.257093834134935 6.000000000000000
-5.542817474963217 -3.932775297707748 -2.364924712751364 7.000000000000000
-6.246754519768619 -5.610817251912708 -0.508460161063855 5.000000000000000
-6.340239724406305 -5.617708626521091 -0.651710077082404 3.000000000000000
-6.440677105108993 -5.630583203330591 -0.797919305504164 7.000000000000000
-6.524848262927397 -5.627388842478708 -0.945025905104976 17.000000000000000
-6.604656308356601 -5.618809664658773 -1.093203092212297 18.000000000000000
-6.685394030480558 -5.610641880801918 -1.244210730787376 7.000000000000000
-6.801177007086415 -5.629778999728881 -1.404699160849303 5.000000000000000
-5.889951734374145 -4.808670383664828 -1.335499048299076 24.000000000000000
-5.550241456512782 -4.468481449570303 -1.370047192345195 5.000000000000000
-5.400339446257641 -4.287108710936099 -1.440475187502206 1.000000000000000
-5.779883020203354 -4.523298712758017 -1.656290140019740 1.000000000000000
-6.439015734032642 -4.967246406402366 -1.972045515438940 5.000000000000000
-6.035292887249671 -4.587773030771485 -1.966672922282540 2.000000000000000
-5.967544893743128 -4.470132235684174 -2.062043097672193 6.000000000000000
-5.651475723747309 -4.169744501859592 -2.063117285349170 23.000000000000000
-5.654115892452425 -4.109055146354258 -2.174635435868852 2.000000000000000
-5.534141243034435 -3.961174243239146 -2.237247263233112 9.000000000000000
-5.572596369297728 -3.928560729743556 -2.362887279919749 4.000000000000000
-6.374790276982290 -5.615901016564281 -0.643509670979656 10.000000000000000
-6.466533418212381 -5.620539134242509 -0.788860818897059 8.000000000000000
-6.556980546632911 -5.622238020766528 -0.936904343529716 4.000000000000000
-6.655217967573040 -5.628713205407221 -1.088263504564650 4.000000000000000
-6.745388022375137 -5.627672368422920 -1.241542645778696 11.000000000000000
-6.831079794643456 -5.621033226347696 -1.396520786636970 13.000000000000000
-5.954217991228148 -4.832150037611875 -1.337262175843837 25.000000000000000
-5.632140211898419 -4.507195326808040 -1.377868977630522 16.000000000000000
-5.408195989035104 -4.267394175556278 -1.430405220422854 3.000000000000000
-5.819500445892850 -4.526581573270863 -1.654270177684890 0.000000000000000
-6.452588920845950 -4.947202962440572 -1.961064778888072 5.000000000000000
-6.066337799214066 -4.582897346551968 -1.962269506666597 4.000000000000000
-6.001507176414795 -4.467606555078969 -2.059126824762658 5.000000000000000
-5.697002468515000 -4.176986977038638 -2.065561102311818 20.000000000000000
-5.529276648942023 -3.992945801727672 -2.112601136970686 7.000000000000000
-5.535980604950999 -3.937260651722268 -2.223690918721822 11.000000000000000
-5.611691001766079 -3.930728366730452 -2.364699263686226 4.000000000000000
-6.427374455933536 -5.629715072364849 -0.637016331973601 4.000000000000000
-6.516484849060578 -5.631233412188656 -0.782649007802387 12.000000000000000
-6.598205957958117 -5.624694611786199 -0.929993903479644 22.000000000000000
-6.681578685571899 -5.617944087260121 -1.079271282361548 10.000000000000000
-6.778094028558996 -5.621657186713402 -1.233724367549901 4.000000000000000
-6.885448608346844 -5.632185491101340 -1.393233668715355 22.000000000000000
-6.009475614885080 -4.847891218953340 -1.336805731322509 25.000000000000000
-5.671274591375862 -4.511245318154830 -1.375022250234759 18.000000000000000
-5.434462253934711 -4.262178419000990 -1.425187403523153 6.000000000000000
-5.865364717433628 -4.534461262066809 -1.653896548850690 0.000000000000000
-6.466082446220758 -4.927128290991891 -1.950072973707162 6.000000000000000
-6.097402321883738 -4.577891821086352 -1.957798610561743 4.000000000000000
-6.032404178979381 -4.462640241661052 -2.055077101945201 5.000000000000000
-5.963024897245499 -4.344593751555787 -2.147252944758189 20.000000000000000
-5.527890883957133 -3.966695341682943 -2.098130225065753 8.000000000000000
-5.565654654176007 -3.933126970007078 -2.221311438824351 6.000000000000000
-5.641542738305849 -3.926237033321346 -2.362516093076306 4.000000000000000
-6.453005189681892 -5.619701755907219 -0.627754885757103 12.000000000000000
-6.539345705351707 -5.618328522433394 -0.773096604513039 9.000000000000000
-6.630387082719134 -5.619252459268210 -0.921720636808911 4.000000000000000
-6.732290108719758 -5.627445431496113 -1.074117222451818 7.000000000000000
-6.823038793238590 -5.625588847892029 -1.228037353028862 11.000000000000000
-6.909270940602830 -5.618147527456326 -1.383668106547830 6.000000000000000
-6.052576646820143 -4.853502971076315 -1.333494973414153 18.000000000000000
-5.710479100642004 -4.515117653179841 -1.372080543945826 20.000000000000000
-5.460737943603911 -4.256854468882675 -1.419913779790207 7.000000000000000
-5.917522344179853 -4.546886432728520 -1.655140197687641 0.000000000000000
-6.460885909018247 -4.892928746022363 -1.933500855184063 6.000000000000000
-6.140910548453093 -4.582026940509867 -1.957220159394268 5.000000000000000
-6.063320888472894 -4.457544453442002 -2.050960079815484 11.000000000000000
-6.174254121828142 -4.470225942250472 -2.208112783423684 24.000000000000000
-5.526371683012801 -3.940488846438539 -2.083689917499175 12.000000000000000
-5.576670724933243 -3.915749516337253 -2.211457743430131 15.000000000000000
-5.680756277647425 -3.928076732715800 -2.364153399393984 3.000000000000000
-6.505762823760705 -5.633094070277858 -0.621035648230904 6.000000000000000
-6.592468536096030 -5.631220177750685 -0.767029276023681 15.000000000000000
-6.677791271745918 -5.626493540969206 -0.915463906675624 11.000000000000000
-6.761727649132818 -5.618945930908441 -1.065467889933923 9.000000000000000
-6.871121240263456 -5.631829797124596 -1.222787813899000 22.000000000000000
-6.960726679556642 -5.626390887456308 -1.379545459220882 13.000000000000000
-6.055675604311968 -4.826966926895325 -1.321332381348296 8.000000000000000
-5.749752862863745 -4.518811938140031 -1.369043711396134 22.000000000000000
-5.508710389837270 -4.268226238850680 -1.420175557769351 8.000000000000000
-5.910826526277687 -4.514018499019026 -1.639884985834696 0.000000000000000
-6.464843888147199 -4.865822076048602 -1.919746083763135 9.000000000000000
-6.140903459874544 -4.553635651685408 -1.942743176078729 3.000000000000000
-6.097373960653566 -4.454596411227524 -2.047822647843974 16.000000000000000
-6.196102434636797 -4.457819274312513 -2.200749403511403 26.000000000000000
-5.549689849355090 -3.932018680556041 -2.078633125812110 7.000000000000000
-5.578251561239909 -3.891814642331907 -2.197906346789030 32.000000000000000
-5.716919278014436 -3.927595356831157 -2.364405354770041 3.000000000000000
-6.531426058894739 -5.622808752379868 -0.611633363503903 18.000000000000000
-6.609262942589249 -5.612907805578418 -0.756654030448110 13.000000000000000
-6.706983855044085 -5.618187390114986 -0.906616797622299 4.000000000000000
-6.821778403213937 -5.635623443827704 -1.061523347281394 10.000000000000000
-6.891638623134706 -5.615319306355433 -1.212555225872159 23.000000000000000
-7.006120437909289 -5.629442962138318 -1.374086003691583 6.000000000000000
-6.061742964374269 -4.802903529485779 -1.309857213711516 3.000000000000000
-5.792194086540714 -4.524748728740380 -1.366642822980860 23.000000000000000
-5.777333508132608 -4.449205385057933 -1.476681745461649 48.000000000000000
-6.594884607332743 -5.005650577889485 -1.814809992269252 5.000000000000000
-6.474909999762124 -4.843400139113341 -1.907846845901759 7.000000000000000
-6.159488531387830 -4.539088380494520 -1.934177268442952 3.000000000000000
-6.131461198197240 -4.451501451925472 -2.044608128348093 16.000000000000000
-6.202282512309743 -4.434152872103891 -2.187830876532631 27.000000000000000
-5.588646221929778 -3.934471702307270 -2.079351300250480 7.000000000000000
-5.589103085165714 -3.874415223545449 -2.188051502810286 44.000000000000000
-5.746879013457445 -3.922682667436741 -2.362000485875003 2.000000000000000
-6.578290296795140 -5.630588135935998 -0.604130792583604 5.000000000000000
-6.668621763339451 -5.630541155015037 -0.751059304713918 6.000000000000000
-6.751459944644661 -5.622496464392263 -0.899747811197800 14.000000000000000
-6.851282359971416 -5.626803961340967 -1.052706608976182 10.000000000000000
-6.949066048472635 -5.628681114767704 -1.208720795809472 10.000000000000000
-7.039224252333156 -5.622418039145130 -1.366119071845550 16.000000000000000
-7.090349988297421 -5.584270577680878 -1.517222185013922 4.000000000000000
-5.844039023226328 -4.537726804782031 -1.366315973766871 23.000000000000000
-5.888372584400206 -4.507183298912834 -1.492133712937705 57.000000000000000
-6.605185776107648 -4.982803449342393 -1.802835169483540 6.000000000000000
-6.484880824640035 -4.820965283530234 -1.895946841346625 6.000000000000000
-6.193676961877174 -4.535939405643032 -1.930459893457172 2.000000000000000
-6.178113566182915 -4.457300508983705 -2.045465457044001 18.000000000000000
-6.214625659659846 -4.414947840970992 -2.177119076165331 27.000000000000000
-5.621398798620358 -3.932358754997618 -2.077655931299303 8.000000000000000
-5.606158473806213 -3.861313994037463 -2.180629589366622 47.000000000000000
-5.792541314641594 -3.928277431030109 -2.365934391108451 2.000000000000000
-6.603967939261801 -5.620046792206502 -0.594596931216149 25.000000000000000
-6.688443807078155 -5.614575873552381 -0.740913759948732 7.000000000000000
-6.805203401137839 -5.634217537529558 -0.893979534965071 3.000000000000000
-6.890011573266859 -5.625403948747769 -1.045230564833298 36.000000000000000
-6.972657634009845 -5.614419904716752 -1.198898933357010 9.000000000000000
-7.094020370234452 -5.632473760604256 -1.362246058097867 9.000000000000000
-6.800519724622091 -5.323913945646085 -1.440974591858244 7.000000000000000
-5.892897986344122 -4.548053270933129 -1.365133241590675 21.000000000000000
-5.924916078765087 -4.507589501027323 -1.488445615338089 55.000000000000000
-6.615390430567587 -4.959942771793906 -1.790859333304591 6.000000000000000
-6.479091273533109 -4.786943971612144 -1.879501977086816 5.000000000000000
-6.240447721650665 -4.541776546061628 -1.930547600809044 2.000000000000000
-6.212298133276672 -4.453876636689134 -2.042077081905057 14.000000000000000
-6.223748728122348 -4.393496234869695 -2.165304275011084 24.000000000000000
-5.663623639396874 -3.936660007631503 -2.079348757563202 8.000000000000000
-5.623174350742702 -3.848155340381872 -2.173180778821647 48.000000000000000
-5.828870343489975 -3.927304843607865 -2.365925439264148 3.000000000000000
-6.644858721755060 -5.622296029971757 -0.586358183433556 3.000000000000000
-6.747998420869711 -5.631748124626600 -0.735071678616898 10.000000000000000
-6.831405398855813 -5.622920484055363 -0.884493926759404 10.000000000000000
-6.931864653393465 -5.626338696277994 -1.038127786835095 4.000000000000000
-7.033358648196984 -5.629808985397292 -1.195349703548137 14.000000000000000
-7.120981473389241 -5.620213630100400 -1.352924834453448 9.000000000000000
-6.742670383700513 -5.246970263012146 -1.414672808756223 10.000000000000000
-5.938746531163281 -4.555753246623771 -1.363108944462273 18.000000000000000
-5.958380034918316 -4.505466463819080 -1.483891944478567 55.000000000000000
-6.628634182325372 -4.939405380811054 -1.779724518267491 6.000000000000000
-6.457425150816044 -4.741465656619291 -1.858585442939922 5.000000000000000
-6.296747857498787 -4.554221391226632 -1.933416131819059 2.000000000000000
-6.246514621804664 -4.450305032453070 -2.038611340521637 9.000000000000000
-6.239081580698700 -4.376455101811036 -2.155667360985538 7.000000000000000
-5.699627451231644 -3.936411711039848 -2.078637476414539 6.000000000000000
-5.643303169811007 -3.837082967956126 -2.166915695319517 45.000000000000000
-5.862098858814362 -3.924061001905601 -2.364559625556304 14.000000000000000
-6.676641579306938 -5.616653671332114 -0.577230246765733 12.000000000000000
-6.773951688647311 -5.620632519650578 -0.725460266946880 5.000000000000000
-6.885311117265758 -5.634211173914659 -0.878496025142829 40.000000000000000
-6.967585959731247 -5.622096124699580 -1.030012164197084 12.000000000000000
-7.063171243651148 -5.620214432743829 -1.186430660779392 5.000000000000000
-7.182163168315015 -5.634717762252970 -1.349989616052687 8.000000000000000
-6.743703952387047 -5.216274394147469 -1.400906295053593 10.000000000000000
-5.981560395662595 -4.560851990075334 -1.360257460066507 18.000000000000000
-5.998151861288202 -4.507912826437986 -1.480810655742580 53.000000000000000
-6.638653591966041 -4.916509920732038 -1.767742256444592 6.000000000000000
-6.426064169374881 -4.689255521573078 -1.835068920905349 5.000000000000000
-6.353186906598740 -4.566397125706017 -1.936138791555544 2.000000000000000
-6.296543132136127 -4.457757785248066 -2.040181392231985 7.000000000000000
-8.522345654643113 -5.940191460152779 -2.924211681721009 20.000000000000000
-5.808366919023677 -3.985880055764605 -2.104171550765136 6.000000000000000
-5.650765884537242 -3.817396077809592 -2.155791293997167 42.000000000000000
-5.866928128739771 -3.901762505952068 -2.351720153281145 8.000000000000000
-6.735989516772948 -5.633926373358899 -0.570367293501308 4.000000000000000
-6.827562065203030 -5.632250688875390 -0.718713032762911 9.000000000000000
-6.902271445414673 -5.615099391624613 -0.867702550411228 13.000000000000000
-7.025030642442603 -5.635108611415531 -1.024983614646100 8.000000000000000
-7.114751349546137 -5.627725963987507 -1.181066343772566 12.000000000000000
-7.224762814863805 -5.634326858834282 -1.343414722555855 9.000000000000000
-6.744593835318182 -5.185616548926369 -1.387167979766296 17.000000000000000
-6.008764557065569 -4.553862912266753 -1.353765516636459 20.000000000000000
-6.031697772004575 -4.505480281072784 -1.476093975348231 54.000000000000000
-6.648576529173249 -4.893601832399978 -1.755759448688276 6.000000000000000
-6.432282728826909 -4.664725548176366 -1.822410068186008 6.000000000000000
-6.378157174861544 -4.555727588368919 -1.929155564835688 5.000000000000000
-6.340351307659847 -4.460524169131946 -2.039589525381480 8.000000000000000
-8.299254645314532 -5.747985106774159 -2.827948999633408 1.000000000000000
-6.155098192323115 -4.196785707396582 -2.214890509495335 9.000000000000000
-5.673982617534885 -3.808335674281873 -2.150673533548039 37.000000000000000
-5.865319739310733 -3.875289323332180 -2.336369195165759 8.000000000000000
-6.755579564335652 -5.617732121676180 -0.560041569009089 10.000000000000000
-6.878202416485093 -5.641086799517628 -0.711510532716540 20.000000000000000
-6.962504410787569 -5.630991331265983 -0.862255737569193 11.000000000000000
-7.048417288984203 -5.620587605870758 -1.014885552700677 11.000000000000000
-7.169546644644170 -5.637449811097677 -1.176085259505568 6.000000000000000
-7.245513457774948 -5.616770346967935 -1.332712122937207 4.000000000000000
-6.761027173030996 -5.166985610027480 -1.376652196927540 6.000000000000000
-6.073714817684959 -4.575194198596232 -1.355640940133319 35.000000000000000
-6.068428294786533 -4.505241608114191 -1.472065244325422 53.000000000000000
-6.658403020711456 -4.870681429835545 -1.743776253662076 6.000000000000000
-6.454210847199948 -4.651603175526492 -1.814207881505965 6.000000000000000
-6.415783668816367 -4.553956579072633 -1.925928189437572 4.000000000000000
-6.377892039820866 -4.458655679916537 -2.036864908710850 17.000000000000000
-8.265347116834690 -5.688117057777459 -2.796858483236785 1.000000000000000
-6.157250631241238 -4.171340397075584 -2.200845282114277 22.000000000000000
-5.690838155070168 -3.794948167463078 -2.143117705369027 34.000000000000000
-5.876275945326215 -3.857196745083863 -2.326076156125366 9.000000000000000
-6.818192242417919 -5.637086271391585 -0.553180724827472 6.000000000000000
-6.894943785885744 -5.621966649842533 -0.700726178713107 64.000000000000000
-6.985638895092460 -5.616651495974963 -0.852109852151467 5.000000000000000
-7.109147714053281 -5.635617521823679 -1.010058378255896 11.000000000000000
-7.208821937723227 -5.634698563531703 -1.168432440637495 10.000000000000000
-7.272479344797785 -5.603978563185530 -1.323119209612881 0.000000000000000
-6.094707022297070 -4.563156133632438 -1.347581690457185 39.000000000000000
-6.108365565235074 -4.507170507901067 -1.468709683415080 53.000000000000000
-6.655468074476971 -4.838541526313188 -1.728503574702878 5.000000000000000
-6.469762837949641 -4.633857804898764 -1.804198066916328 6.000000000000000
-6.437574232901634 -4.540818161889936 -1.917882273897813 3.000000000000000
-5.957682659928921 -4.138606375509664 -1.888907248165728 11.000000000000000
-5.965717009655451 -4.079401740575657 -2.004670047587865 4.000000000000000
-5.955563641932144 -4.008795469548727 -2.114492040708960 9.000000000000000
-5.707653035826977 -3.781503661883693 -2.135535267274998 32.000000000000000
-5.925346247028623 -3.863982697084648 -2.330796767085080 15.000000000000000
-6.837781123945043 -5.620642316424319 -0.542727603721356 7.000000000000000
-6.951890144043149 -5.635445387909188 -0.693941427678734 5.000000000000000
-7.042953015848154 -5.629580331379416 -0.846034342743498 13.000000000000000
-7.141912693366646 -5.628207319654571 -1.001134080588142 5.000000000000000
-7.241863874340215 -5.626906013881042 -1.159686309514561 10.000000000000000
-6.106187485759597 -4.543984821484759 -1.337408064454902 32.000000000000000
-6.148363902980877 -4.508917563946595 -1.465257560313426 52.000000000000000
-6.658723718949939 -4.811045987546134 -1.714904936260238 6.000000000000000
-6.488429940255479 -4.618330137880263 -1.795048647792909 6.000000000000000
-6.478432721408758 -4.540988772047298 -1.915445234487448 7.000000000000000
-5.959163550753918 -4.113464114520016 -1.875681943699953 15.000000000000000
-5.973565854051643 -4.058721742162600 -1.993327069751686 14.000000000000000
-5.867648982341704 -3.924212309626629 -2.069296781275999 9.000000000000000
-5.727617905016033 -3.770102580523210 -2.129112412831219 28.000000000000000
-5.961765980763913 -3.862270781826815 -2.330404857198205 15.000000000000000
-6.885141472476568 -5.626873287316231 -0.534404259405008 112.000000000000000
-6.968590327583489 -5.616116403939745 -0.683052987482494 12.000000000000000
-7.094154731813773 -5.637279798312962 -0.839073963734316 4.000000000000000
-7.193463389836504 -5.635374557456266 -0.994737179488381 8.000000000000000
-7.271767763330525 -5.616550138153380 -1.150373044623449 1.000000000000000
-6.719530407586303 -4.970003331957511 -1.457818226616153 51.000000000000000
-6.191597589176935 -4.512796668875815 -1.462458723889913 50.000000000000000
-6.661852902788645 -4.783574118824982 -1.701326115509397 6.000000000000000
-6.513421288895433 -4.607248156910169 -1.787619516007696 5.000000000000000
-6.177904402889537 -4.303146015864002 -1.812723794435278 13.000000000000000
-5.986079316187618 -4.105878315510290 -1.870463492969901 17.000000000000000
-5.923782104511936 -3.999187442385865 -1.962918586933073 10.000000000000000
-5.865544408492000 -3.897526017254119 -2.054647350966944 9.000000000000000
-5.773144091957768 -3.775360126883118 -2.132103000756345 18.000000000000000
-6.001430300451535 -3.862453857347383 -2.331168923240983 15.000000000000000
-6.907788562798103 -5.612739998926067 -0.524082890515556 6.000000000000000
-7.031913547813850 -5.634150352053998 -0.676637027158469 8.000000000000000
-7.120443600850319 -5.624985615929669 -0.829074030285655 10.000000000000000
-7.241968950673080 -5.639857526599902 -0.987783780562057 14.000000000000000
-6.738637870254052 -4.953789690122177 -1.448057788769900 29.000000000000000
-6.222174793975339 -4.507253698455274 -1.456573009148251 49.000000000000000
-6.677611551885720 -4.765228998584328 -1.690997502414886 7.000000000000000
-6.541587678252476 -4.598314113251823 -1.781011500132575 5.000000000000000
-6.070935452409942 -4.202044336833545 -1.767775473287606 8.000000000000000
-6.032207280023157 -4.111274631210346 -1.871147305158483 16.000000000000000
-5.848003308867476 -3.922766885445257 -1.924254988801941 9.000000000000000
-5.863306792281492 -3.870887011560862 -2.040030196667476 10.000000000000000
-5.821970069053449 -3.782486367901571 -2.136154814540503 12.000000000000000
-6.041156066492888 -3.862456380504456 -2.331837063127820 15.000000000000000
-6.961460121742710 -5.623618724675603 -0.516024624280582 16.000000000000000
-7.054825482094710 -5.619565726625497 -0.666224032381906 7.000000000000000
-7.181170540923596 -5.639656709663628 -0.822973790176288 6.000000000000000
-7.255954006509154 -5.617332743126854 -0.976057533354812 3.000000000000000
-6.773608932065524 -4.949140929463494 -1.441655331815263 2.000000000000000
-6.265526153660444 -4.510767340035236 -1.453580414654927 50.000000000000000
-6.683714875662290 -4.740037547165290 -1.678241791969767 9.000000000000000
-6.572951165738883 -4.591501627206863 -1.775209784833492 5.000000000000000
-6.200586498789495 -4.264748978815528 -1.791741950929692 10.000000000000000
-6.072007433436017 -4.112107450565078 -1.869738495968066 18.000000000000000
-5.852043380399007 -3.900314713171628 -1.912087187380610 8.000000000000000
-5.857723237448687 -3.842188160287531 -2.024335104274976 8.000000000000000
-5.851623318286097 -3.776935804664347 -2.133053320555979 9.000000000000000
-6.077730054852479 -3.860237695227632 -2.331177023884398 15.000000000000000
-6.990328348031227 -5.614236092136380 -0.506026371313036 5.000000000000000
-7.112099697029850 -5.632142337847081 -0.658958713227425 10.000000000000000
-7.223189563018104 -5.639323914769832 -0.814590891804833 15.000000000000000
-6.738410614233343 -4.893368078869135 -1.420378554714204 2.000000000000000
-6.308949958230517 -4.514080156850772 -1.450480872700242 52.000000000000000
-6.670483908925924 -4.701304970730267 -1.660710689116927 8.000000000000000
-6.597906323470277 -4.580101163069927 -1.767620288058617 5.000000000000000
-6.517101613990948 -4.454165372003065 -1.868780723296708 5.000000000000000
-6.099000347434934 -4.104099916201849 -1.864300040181440 21.000000000000000
-5.849542279825085 -3.873611957075674 -1.897843387252779 9.000000000000000
-5.861654469907243 -3.819851622609663 -2.011999119448808 8.000000000000000
-5.861968567995945 -3.758866075706357 -2.122887263311800 9.000000000000000
-6.111129044470825 -3.855823769553987 -2.329203481872625 15.000000000000000
-7.150684191975173 -5.629636214314510 -0.649836657257010 3.000000000000000
-7.249514924199713 -5.626586727323549 -0.804362582242677 6.000000000000000
-6.734887151082908 -4.860912417012395 -1.405916617838004 13.000000000000000
-6.346035072208195 -4.512633518812361 -1.445813814844318 52.000000000000000
-6.596037953555500 -4.619950322551432 -1.628188666098695 7.000000000000000
-6.603541787552237 -4.555290171166579 -1.754853645329022 5.000000000000000
-6.622367417955785 -4.497504329243751 -1.884378037982654 4.000000000000000
-6.135665356599919 -4.102448091209418 -1.861739587254831 16.000000000000000
-5.856589431961792 -3.853327159111569 -1.886751183989721 15.000000000000000
-5.852570950106706 -3.789168569058986 -1.995274123829243 8.000000000000000
-5.856099962950685 -3.730492102535395 -2.106907187526316 9.000000000000000
-6.154238735663210 -3.857331593801783 -2.330820147484808 15.000000000000000
-7.198726016050168 -5.634337713840837 -0.641465721791337 8.000000000000000
-7.278967070840594 -5.616182478827551 -0.794428565780938 0.000000000000000
-6.734413426551654 -4.830816568233061 -1.392157708151545 9.000000000000000
-6.386373519248968 -4.513290860985699 -1.441784615252396 51.000000000000000
-6.624110309226339 -4.610738974672676 -1.621133158823072 7.000000000000000
-6.621963228364184 -4.539327905490983 -1.745497398629797 5.000000000000000
-6.673100540016404 -4.503266706248255 -1.884182091844835 4.000000000000000
-5.972013960336542 -3.967521930197534 -1.798744837642924 5.000000000000000
-5.889422613114683 -3.849952147534743 -1.883938891213307 10.000000000000000
-5.859503678149700 -3.768975870896166 -1.984080021156560 19.000000000000000
-5.859791999946747 -3.708327936605658 -2.094439694035167 9.000000000000000
-6.203890266963031 -3.862667674819513 -2.334765082269690 16.000000000000000
-7.128866032079301 -4.212293141385005 -3.083950646120453 18.000000000000000
-7.243691915815225 -5.636365536698316 -0.632701324064248 26.000000000000000
-6.740224609175173 -4.805344984232565 -1.379744831619343 11.000000000000000
-6.426766748641480 -4.513763913269558 -1.437657989169088 47.000000000000000
-6.723149947603159 -4.650506194160869 -1.631239688125278 2.000000000000000
-6.643565312873454 -4.525504899251763 -1.736957495286781 5.000000000000000
-6.707751464823088 -4.497940782446772 -1.879325145834492 3.000000000000000
-5.924094437424603 -3.910500895294900 -1.771141960536383 12.000000000000000
-5.935252535605983 -3.854853021843401 -1.885168830255675 10.000000000000000
-5.898777952019282 -3.769502656700053 -1.983795451628629 18.000000000000000
-5.866625268209234 -3.688216811445939 -2.083137228839344 20.000000000000000
-6.234191451633437 -3.855738048131898 -2.331309728150377 17.000000000000000
-7.116898596713320 -4.251996272803151 -2.927378701187815 0.000000000000000
-7.086777716585525 -4.158713300440151 -3.048012677212652 15.000000000000000
-7.263462530732509 -5.618652720650667 -0.621666847571712 1.000000000000000
-6.749144940655478 -4.782163356380358 -1.367995688194051 13.000000000000000
-6.483349614232116 -4.525314941501983 -1.437010250434964 40.000000000000000
-6.667301421405868 -4.583080444063069 -1.603736075345916 0.000000000000000
-6.671608457211483 -4.515986811284774 -1.730058875867000 5.000000000000000
-8.685046978474915 -5.786829353952297 -2.414437617732083 6.000000000000000
-6.002443464086094 -3.936815525754083 -1.781283800137345 12.000000000000000
-5.971424413822815 -3.853247812384798 -1.883208901410731 10.000000000000000
-5.944612129738261 -3.773975397489183 -1.985586141701006 19.000000000000000
-5.899374299002536 -3.684342037122517 -2.081010964353679 13.000000000000000
-6.235261753948358 -3.830713070277304 -2.316921283288551 0.000000000000000
-7.077750656996884 -4.199852746095419 -2.893934786496568 9.000000000000000
-7.115676617603959 -4.146967919086527 -3.042729588995944 12.000000000000000
-6.770878329230825 -4.768063385533985 -1.358838549012560 0.000000000000000
-6.698546480893573 -4.646529147967056 -1.471019347391753 31.000000000000000
-6.675879250696528 -4.560276950088733 -1.591888930990145 0.000000000000000
-6.696398306321181 -4.504170266903210 -1.722267090158744 5.000000000000000
-6.780369176404761 -4.488987707292288 -1.870272492295958 4.000000000000000
-6.038729094237524 -3.935171369468107 -1.778750465728049 30.000000000000000
-6.010896125734238 -3.853566344325698 -1.882182296036545 10.000000000000000
-5.987276611422722 -3.776176795563579 -1.986180149673647 20.000000000000000
-5.945183594767386 -3.688406217523616 -2.083375050019046 10.000000000000000
-8.378994623188451 -5.113375031519101 -3.093720881336263 45.000000000000000
-7.073393012893028 -4.242079481362081 -2.742760827881811 0.000000000000000
-7.077315470316545 -4.170965266774381 -2.876503168254781 19.000000000000000
-6.694143243470972 -4.614635002323352 -1.456430578923722 26.000000000000000
-6.733081725300674 -4.570537348950732 -1.591559870777257 5.000000000000000
-6.750444766815782 -4.511825741811321 -1.721895445634887 5.000000000000000
-6.779256758372475 -4.459626028196161 -1.855367751335685 8.000000000000000
-6.019621956443491 -3.897470645843724 -1.759923312616192 24.000000000000000
-6.043898345779981 -3.849545766063655 -1.879030117070876 12.000000000000000
-6.026748508659369 -3.776133156559299 -1.985592303899662 17.000000000000000
-5.981285299715960 -3.686217232782019 -2.082213407924998 16.000000000000000
-8.391124950183233 -5.086509127746289 -3.078490370906833 52.000000000000000
-7.079335288360044 -4.216932638623232 -2.728166233258948 0.000000000000000
-7.109335265372741 -4.161199852312800 -2.872271552907113 9.000000000000000
-6.683088810448312 -4.578353018404199 -1.440483110116081 21.000000000000000
-6.731812113101942 -4.540996307798740 -1.577352911194000 3.000000000000000
-6.771994040561794 -4.497568459283728 -1.713137084022092 8.000000000000000
-6.797594446942629 -4.443114219010082 -1.845814121661538 0.000000000000000
-6.019919157984937 -3.872523946011014 -1.746870235277142 21.000000000000000
-6.083469469976086 -3.849517996560184 -1.877820652253072 10.000000000000000
