# This PCD file was generated using the MATLAB® pcwrite function
# from Computer Vision Toolbox®.
# .PCD v.7 - Point Cloud Data file format
VERSION .7
FIELDS x y z intensity
SIZE 8 8 8 8
TYPE F F F F
COUNT 1 1 1 1
WIDTH 639
HEIGHT 1
VIEWPOINT 0 0 0 1 0 0 0
POINTS 639
DATA ascii
8.123531100684353 -4.253309950554645 -0.513276651258236 23.000000000000000
8.246697452937113 -4.246402563759500 -0.670854966603991 29.000000000000000
8.240048502412350 -4.171641361745412 -0.817919939154723 21.000000000000000
8.366064689931726 -4.163327031144781 -0.980043690667314 21.000000000000000
8.653716335976931 -4.232874464197346 -1.167725715565101 1.000000000000000
8.754144847483410 -4.206881742966746 -1.336229766908649 33.000000000000000
8.898417459232975 -4.200379172163717 -1.515558488238245 42.000000000000000
9.033007872771172 -4.187430724219196 -1.697113048774036 25.000000000000000
8.796308869281303 -4.003399748990087 -1.807198031757779 11.000000000000000
6.216279030785899 -2.777060981487018 -1.385825139227124 26.000000000000000
9.434399019236597 -4.135829935097216 -2.268772772619882 36.000000000000000
9.568350592781545 -4.114520706487122 -2.468400755449929 53.000000000000000
6.262239180199129 -2.640949666745043 -1.725656196262216 10.000000000000000
6.287016016986570 -2.598222023563308 -1.843088689788130 1.000000000000000
9.260396843601436 -3.671726266910636 -3.042455015262351 11.000000000000000
8.064951964826465 -4.251866496227510 -0.521157464975539 21.000000000000000
8.194880390266524 -4.249341148521539 -0.678653956524818 28.000000000000000
8.184595211501836 -4.173070587474750 -0.824656956445743 22.000000000000000
8.310322124688494 -4.165462892185458 -0.986189169347800 22.000000000000000
8.497722348186436 -4.187040766424125 -1.159888146950076 1.000000000000000
8.694083401146889 -4.209106720492343 -1.340834974711034 40.000000000000000
8.820225659263484 -4.194923614525268 -1.516473273080754 46.000000000000000
8.979553524841924 -4.194586456991950 -1.701822243748945 41.000000000000000
8.846817317884730 -4.057765947989672 -1.832368646127283 8.000000000000000
6.177927962215838 -2.781781742219026 -1.387786882892516 69.000000000000000
6.258275154254292 -2.765567105145806 -1.515814856959402 7.000000000000000
9.556857074461769 -4.143203883665693 -2.482258736853904 51.000000000000000
6.238101697745786 -2.652661250167608 -1.730170945438737 43.000000000000000
6.252159552277115 -2.605696437469695 -1.844247003150000 44.000000000000000
9.263506045718081 -3.705200788828932 -3.060888572850375 11.000000000000000
8.013492139822789 -4.253876592352112 -0.529359671713981 23.000000000000000
8.136033739194508 -4.248334348721394 -0.685730454451758 26.000000000000000
8.132739269069150 -4.176045990079370 -0.831620027466010 22.000000000000000
8.254632290156417 -4.167324034291112 -0.992197635316012 21.000000000000000
8.388319338721280 -4.163312234410683 -1.158026731315344 20.000000000000000
8.634082596500793 -4.211034000879401 -1.345291923799340 38.000000000000000
8.770660512317502 -4.202730353139895 -1.522139204038543 58.000000000000000
8.915436298558628 -4.196446900303567 -1.704355895720071 42.000000000000000
8.850660098890511 -4.091022908909719 -1.848005241519413 14.000000000000000
6.157443677618874 -2.794409803104618 -1.393691934849364 99.000000000000000
6.234089886233688 -2.776943813705183 -1.520779519155670 41.000000000000000
9.285062436511849 -4.058145749825060 -2.428058611988891 35.000000000000000
6.217508839284622 -2.665792401343489 -1.735624010653487 49.000000000000000
6.227990835266331 -2.617487306002798 -1.848487586853856 59.000000000000000
6.271623815898315 -2.583545578973632 -1.972846408928692 0.000000000000000
9.266467121442803 -3.738737546339630 -3.079344840515570 11.000000000000000
7.962076638608574 -4.255635527311572 -0.537436377264457 24.000000000000000
8.084313441587682 -4.250747775912087 -0.693267281604402 25.000000000000000
8.084465194250312 -4.180597741747331 -0.838823607591259 23.000000000000000
8.195451819893364 -4.167108378766991 -0.997637823769959 21.000000000000000
8.328841557308438 -4.163855737069313 -1.162824025434157 23.000000000000000
8.591917860066767 -4.221396643607585 -1.352398559302802 19.000000000000000
8.706889667632000 -4.203427821703968 -1.525192074267423 46.000000000000000
8.844269102100579 -4.194610294696896 -1.705357594539003 36.000000000000000
9.011073528641370 -4.197340782785012 -1.896650788782281 0.000000000000000
6.136932867548526 -2.806951283798389 -1.399551167190828 115.000000000000000
6.174281498835545 -2.772225856857781 -1.516940266360622 38.000000000000000
6.280971261169613 -2.767413694608265 -1.653608617314273 4.000000000000000
6.207554622050975 -2.683447283368413 -1.744027606328596 54.000000000000000
6.214459404406177 -2.633685763349402 -1.855853876499523 61.000000000000000
6.236741397578189 -2.591080756272759 -1.973487586534919 41.000000000000000
7.907190849424076 -4.255251504132760 -0.545145400200764 24.000000000000000
8.032637891654534 -4.252908971500412 -0.700678087060730 26.000000000000000
8.029160077404068 -4.181237359020736 -0.845166610172208 22.000000000000000
8.146955405045746 -4.172035734682214 -1.004240736442470 22.000000000000000
8.269429588738259 -4.164103909530528 -1.167474585390519 23.000000000000000
8.535563440459475 -4.224536218857831 -1.357147924675102 1.000000000000000
8.646745198571120 -4.205534885730762 -1.528715080022704 42.000000000000000
8.762533052260387 -4.187317969530523 -1.704107605197216 18.000000000000000
8.950369401142185 -4.201123996059315 -1.898965179468086 0.000000000000000
6.123508032814594 -2.822684527429122 -1.406998731579866 119.000000000000000
6.146567167661873 -2.781678424432944 -1.520865936387999 56.000000000000000
6.260191144729492 -2.780497540713907 -1.659260153663181 48.000000000000000
6.197539141376863 -2.701075702698795 -1.752413946358550 57.000000000000000
6.204423396078027 -2.651352556800847 -1.864258550133329 61.000000000000000
6.205417201707780 -2.599931047507154 -1.975170853611788 55.000000000000000
6.222519922800393 -2.554252533236214 -2.091405223004041 0.000000000000000
7.859383637455911 -4.258400985695824 -0.553214139655778 24.000000000000000
7.977489388651365 -4.252942182950214 -0.707650932619688 27.000000000000000
7.977439362216545 -4.183453862639060 -0.851750551117169 23.000000000000000
8.087892953030231 -4.171262210588028 -1.009403363796746 23.000000000000000
8.213623747698131 -4.165851960757025 -1.172483847354058 22.000000000000000
8.475719150656202 -4.225632498407354 -1.361190239313873 1.000000000000000
8.586664741867541 -4.207344160506722 -1.532089986201461 39.000000000000000
8.723517169849504 -4.200111297479698 -1.711004756312587 42.000000000000000
8.893276751230239 -4.206286394882796 -1.901889426399861 0.000000000000000
6.113584728373738 -2.840020646879355 -1.415241496810477 117.000000000000000
6.133046666726575 -2.797479453167433 -1.528264143680686 61.000000000000000
6.235836703426271 -2.791905874299006 -1.663918927489097 58.000000000000000
6.180374910204836 -2.715563307244619 -1.758766014470726 55.000000000000000
6.187246860078594 -2.665942381837870 -1.870505682741489 54.000000000000000
6.198839454444289 -2.619086067978153 -1.984699873166612 55.000000000000000
6.222953039841530 -2.576363513179723 -2.103412111756347 29.000000000000000
7.801099574097446 -4.255584530565350 -0.560412114634858 25.000000000000000
7.925912823395104 -4.254589851150139 -0.714805648012985 26.000000000000000
7.929287251913074 -4.187277304336809 -0.858589804991114 23.000000000000000
8.039483086700550 -4.175692060901138 -1.015757604541061 18.000000000000000
8.157875182261474 -4.167325332872608 -1.177356394912160 22.000000000000000
8.281512612981325 -4.158923163619454 -1.343280670649581 8.000000000000000
8.530190760102935 -4.210603863391623 -1.535954654879504 32.000000000000000
8.663236912002263 -4.202413864873159 -1.713605530699311 40.000000000000000
8.825602033988240 -4.206101659318542 -1.902382077591268 0.000000000000000
6.103601280332373 -2.857330364093399 -1.423467105750914 111.000000000000000
6.119477335463450 -2.813233832390674 -1.535635550852359 72.000000000000000
6.211467081404340 -2.803206643651552 -1.668521863691944 57.000000000000000
6.170248812297314 -2.733118147794787 -1.767108028542223 53.000000000000000
6.173566155368687 -2.682000286226055 -1.877791093271468 55.000000000000000
6.202773765481008 -2.642744106140958 -1.997629896581892 59.000000000000000
6.195114237313509 -2.586743193912697 -2.105852614828922 57.000000000000000
7.753384184833005 -4.258243471465780 -0.568236060190238 24.000000000000000
7.874384822134992 -4.255986125634409 -0.721835002848642 26.000000000000000
7.877657257581334 -4.188999140678018 -0.864926778100307 23.000000000000000
7.991109739435468 -4.179888460400533 -1.021994907477558 6.000000000000000
8.105712559481447 -4.170339116623010 -1.182607101039376 23.000000000000000
8.229086592516060 -4.162621055824077 -1.348005859958514 21.000000000000000
8.498518259761456 -4.225891487304597 -1.544177621268889 1.000000000000000
8.599485030171023 -4.202689491918917 -1.715352514901470 39.000000000000000
8.765092046163774 -4.208975979006916 -1.904244372558119 0.000000000000000
6.107712393000627 -2.881290891525710 -1.435001088082351 93.000000000000000
6.105859377569864 -2.828941436766780 -1.542980106380521 53.000000000000000
6.190618274441876 -2.816008087637039 -1.674025038793941 58.000000000000000
6.152997528062612 -2.747491624802963 -1.773396512710269 52.000000000000000
6.166892042645141 -2.701101589228757 -1.887208716339013 54.000000000000000
6.217167587017209 -2.670995341191308 -2.014003744355238 55.000000000000000
6.177820615755266 -2.601437116383696 -2.111833650894524 59.000000000000000
7.705707956937823 -4.260672285474796 -0.575944926335933 25.000000000000000
7.822906642084866 -4.257131289991706 -0.728739218786819 27.000000000000000
7.822567908045265 -4.188589971439665 -0.870747595561083 22.000000000000000
7.928709843992271 -4.176443320813231 -1.026294985769012 3.000000000000000
8.046555384222852 -4.169449331899584 -1.186692343177597 24.000000000000000
8.169656005791024 -4.162470719364220 -1.351437108221518 21.000000000000000
8.435056885891296 -4.225131512200969 -1.546505427208119 1.000000000000000
8.560533166243122 -4.214818844554918 -1.721914637035246 9.000000000000000
8.708180597788827 -4.213260632395429 -1.906731632873670 0.000000000000000
6.108183837391360 -2.903625477450108 -1.445719646174040 69.000000000000000
6.099256409278799 -2.847900231059505 -1.552095205779178 42.000000000000000
6.183861983996740 -2.835195105291171 -1.683325184809185 54.000000000000000
6.142761492246541 -2.764972316777269 -1.781693951504687 53.000000000000000
6.146056905565764 -2.713974648373329 -1.892280666691456 57.000000000000000
6.206801729528463 -2.688696265763583 -2.022405666722539 59.000000000000000
6.178040483339688 -2.623516801479509 -2.123811521432784 63.000000000000000
6.193285879926298 -2.576214648524550 -2.240426766094591 18.000000000000000
7.658072037585543 -4.262871216701003 -0.583538907848061 25.000000000000000
7.771479538717207 -4.258025632428866 -0.735518519738633 27.000000000000000
7.778052445096650 -4.193576486861859 -0.877619741212212 22.000000000000000
7.880436386288764 -4.180133958700549 -1.032280218242401 3.000000000000000
7.990986899747337 -4.170100617534994 -1.191156248231398 23.000000000000000
8.110297526997192 -4.162025646808016 -1.354722310621462 21.000000000000000
8.234263050052524 -4.154720889747974 -1.523256495417457 8.000000000000000
8.507476727778108 -4.219775489796726 -1.725525584285742 1.000000000000000
8.630163658037688 -4.206951369113494 -1.904410515986415 1.000000000000000
6.105033002246483 -2.924303747472069 -1.455608338119188 21.000000000000000
6.110210594319198 -2.875147344052762 -1.565719720465892 56.000000000000000
6.173509253338300 -2.852746478872874 -1.691651567618107 53.000000000000000
6.135985191152874 -2.784023000711232 -1.791001302473970 51.000000000000000
6.132228771471135 -2.729890853356503 -1.899484725682764 62.000000000000000
6.171799628064440 -2.695636099948238 -2.022735614873948 59.000000000000000
6.185172561079198 -2.648630335825704 -2.138223031822640 50.000000000000000
6.168873575737776 -2.588018934743685 -2.243722977547001 54.000000000000000
7.613959035163715 -4.266791492648986 -0.591288566697384 25.000000000000000
7.720104765743321 -4.258669445764687 -0.742173131861790 27.000000000000000
7.723072889464309 -4.192654583372886 -0.883185534609657 22.000000000000000
7.832203069555786 -4.183591931535016 -1.038149135546545 1.000000000000000
7.942500630859226 -4.174167598142540 -1.196541930488736 23.000000000000000
8.058041018711107 -4.164918944195434 -1.359047140113709 21.000000000000000
8.185266843339166 -4.160091546908892 -1.527713659253482 21.000000000000000
8.443907422409849 -4.219198670534547 -1.726848580603227 1.000000000000000
8.569879312011899 -4.208890167857952 -1.905809049317137 0.000000000000000
6.091235595143063 -2.939896695748338 -1.462961497371042 0.000000000000000
6.124553377004587 -2.904156298204616 -1.580291785658640 27.000000000000000
6.166613409193400 -2.871908545762076 -1.700930441356994 54.000000000000000
6.122107650344984 -2.799851726376352 -1.798235865478936 52.000000000000000
6.111331421745031 -2.742608960142240 -1.904473771239543 58.000000000000000
6.161352695730806 -2.713211641222605 -2.031068573127174 64.000000000000000
6.209676239047587 -2.681369236830059 -2.158745010877659 64.000000000000000
6.158412085913192 -2.605624045258124 -2.252070139860440 61.000000000000000
7.559450096264038 -4.264619683572298 -0.598108014142377 26.000000000000000
7.672267802069978 -4.260998085591527 -0.749043448610045 27.000000000000000
7.675142706040327 -4.195279369370392 -0.889426475236211 22.000000000000000
7.773515756241332 -4.181172342199393 -1.042494427944152 19.000000000000000
7.890551006531273 -4.176146696249787 -1.201277480322630 24.000000000000000
7.998819317762951 -4.163905372529601 -1.362050502147907 22.000000000000000
8.125774288096080 -4.159833672987078 -1.530069289934120 21.000000000000000
8.250410829586762 -4.152863958947083 -1.701207242376951 11.000000000000000
8.499120586133884 -4.205313724542503 -1.904696758155918 1.000000000000000
8.562476844337764 -4.163942997400294 -2.071498251165242 17.000000000000000
6.135238542196107 -2.931598508924685 -1.593999439404527 1.000000000000000
6.163156618805438 -2.892711091949617 -1.711175920408641 55.000000000000000
6.115198480968015 -2.818867350099731 -1.807517192423964 55.000000000000000
6.100922251933850 -2.759995391030944 -1.912712502533081 60.000000000000000
6.136849728507060 -2.724545999687476 -2.034743351214053 67.000000000000000
6.181612780588670 -2.691470610843049 -2.161029704060306 65.000000000000000
6.147889554698869 -2.623201266383742 -2.260399331814466 60.000000000000000
7.508478135618576 -4.264150228676505 -0.605074304706369 26.000000000000000
7.620995535261448 -4.261151522662423 -0.755454004183420 28.000000000000000
7.620283894618630 -4.193836108740549 -0.894733512527526 22.000000000000000
7.728876513909657 -4.186027761571367 -1.048591155832205 24.000000000000000
7.838654903387367 -4.177872835499941 -1.205887173823849 23.000000000000000
7.946678652955248 -4.166270533984152 -1.366112815370975 17.000000000000000
8.066357163747515 -4.159281060260488 -1.532279076610250 22.000000000000000
8.190739529345992 -4.153065293611337 -1.702772629980284 21.000000000000000
8.316183760197926 -4.145408486306033 -1.878051156992854 12.000000000000000
8.449595279229019 -4.140060516712158 -2.059044082867507 19.000000000000000
9.208163437867482 -4.433631856788159 -2.408865845163168 21.000000000000000
6.159615085270829 -2.913525569235793 -1.721422306905912 52.000000000000000
6.108216964530856 -2.837875133770899 -1.816790092262248 55.000000000000000
6.097449305595445 -2.780544588613923 -1.923140077171568 59.000000000000000
6.126305069818184 -2.742025803057320 -2.043021460212264 63.000000000000000
6.153548015218021 -2.701444127819401 -2.163249049156482 63.000000000000000
6.147743681332204 -2.645241496791213 -2.272568822344820 29.000000000000000
6.168232135074535 -2.599124032965611 -2.391888498466097 21.000000000000000
7.464490534210395 -4.267392914247064 -0.612485738705277 27.000000000000000
7.573251691129974 -4.263009933465113 -0.762089974986386 27.000000000000000
7.572453322107958 -4.195979449765077 -0.900734778747513 23.000000000000000
7.673809497997778 -4.184966808039747 -1.053146050671364 24.000000000000000
7.783321739214126 -4.177472173729515 -1.209828476104105 24.000000000000000
7.891095632110016 -4.166535955321390 -1.369442170341014 12.000000000000000
8.010516518621250 -4.160251600946197 -1.535013915806858 22.000000000000000
8.134645858494229 -4.154759772988523 -1.704925800625654 22.000000000000000
8.256344496652289 -4.146077849922731 -1.878828894545622 20.000000000000000
8.389511806887391 -4.141520793968774 -2.059198182599555 19.000000000000000
8.561966281041229 -4.153938230935011 -2.255200783941316 22.000000000000000
6.155988705255267 -2.934351708862915 -1.731669457333835 52.000000000000000
6.108155837826703 -2.860149212944505 -1.828147351970432 55.000000000000000
6.086907591020847 -2.797895235807894 -1.931352434905728 57.000000000000000
6.101752954842946 -2.753184480388494 -2.046603551011604 62.000000000000000
6.135923729436150 -2.715911370502001 -2.169094145978988 62.000000000000000
6.168339755435480 -2.676354825375017 -2.292493295564030 5.000000000000000
6.136737512199670 -2.607916927264017 -2.392128342470613 50.000000000000000
7.417079265669855 -4.268436521772528 -0.619503693587655 27.000000000000000
7.525553187588264 -4.264638523451550 -0.768611400561494 27.000000000000000
7.524668385542742 -4.197892296653826 -0.906621174089841 23.000000000000000
7.625772359363256 -4.187457403898042 -1.058533142471601 22.000000000000000
7.731542491411872 -4.178683471600250 -1.214182501796001 24.000000000000000
7.835579877327253 -4.166528265489615 -1.372636222347472 23.000000000000000
7.958235673566946 -4.162775347900504 -1.538288128693156 23.000000000000000
8.075121666821319 -4.154380631828679 -1.706203865872902 22.000000000000000
8.200078277690357 -4.148220214159593 -1.880262028172798 22.000000000000000
8.326006451672283 -4.140945015147576 -2.058340824119254 21.000000000000000
8.463203797153373 -4.137212369852561 -2.244440084873657 21.000000000000000
6.148783749369595 -2.953511110252252 -1.740928064310782 53.000000000000000
6.097527174756709 -2.877513419518251 -1.836361313466348 55.000000000000000
6.083277977045452 -2.818448060651857 -1.941772278976501 56.000000000000000
6.087630904114731 -2.768984929843797 -2.053652461728912 59.000000000000000
6.118262925571351 -2.730310447655726 -2.174902212284747 59.000000000000000
6.154094806577373 -2.692449462315146 -2.299528865775832 5.000000000000000
6.126008890132351 -2.625457233868990 -2.400426085332432 45.000000000000000
7.373167046728799 -4.271251464721036 -0.626701385151592 27.000000000000000
7.470980389402857 -4.262089353531955 -0.774301209909607 26.000000000000000
7.466526339863859 -4.193731354130596 -0.911123342638716 22.000000000000000
7.574306820440512 -4.187795684379296 -1.063317213122459 23.000000000000000
7.679820580692059 -4.179642753112766 -1.218411385670124 24.000000000000000
7.790585239197590 -4.171845111902061 -1.377543463232848 24.000000000000000
7.902522875851027 -4.163207763123319 -1.540756086381272 23.000000000000000
8.019165871976448 -4.155515205862093 -1.708079650243853 22.000000000000000
8.140386812032080 -4.148307950251571 -1.880751897612705 22.000000000000000
8.269571257849760 -4.143551063285301 -2.059065758370134 21.000000000000000
8.406526211974207 -4.140596428709824 -2.244610046744433 21.000000000000000
6.141505976839308 -2.972661791050322 -1.750177765964513 53.000000000000000
6.090322500364372 -2.896506288266233 -1.845612950645296 53.000000000000000
6.072603857619280 -2.835762110435756 -1.949957856325211 58.000000000000000
6.076935359035073 -2.786330231608162 -2.061852682064285 60.000000000000000
6.110970519479397 -2.749322309203143 -2.184392398396313 55.000000000000000
6.132879043527885 -2.705441976557034 -2.303936272760090 5.000000000000000
6.115219479537206 -2.642968896604695 -2.408705488155172 42.000000000000000
7.325845276705302 -4.271848403953898 -0.633496799842848 26.000000000000000
7.430296773693493 -4.267207316424293 -0.781311444620550 21.000000000000000
7.422316203087576 -4.197112371787977 -0.917194592203825 22.000000000000000
7.522900643576925 -4.187883362803633 -1.067976987777551 23.000000000000000
7.631630923819648 -4.182253956791226 -1.223072067992650 24.000000000000000
7.735189786412126 -4.171321779105027 -1.380481649044862 18.000000000000000
7.850360377177215 -4.165213807656966 -1.543773262156643 19.000000000000000
7.970245059502192 -4.160011696530629 -1.711315393552344 23.000000000000000
8.084259077811286 -4.149889257666656 -1.881907094393523 23.000000000000000
8.213201750541437 -4.145880819284596 -2.059653669234510 21.000000000000000
8.339462534766868 -4.138517218541610 -2.241833147906958 22.000000000000000
6.141118109653516 -2.995199447736239 -1.761415519281619 54.000000000000000
6.086523461794033 -2.917157368662202 -1.855916225342776 54.000000000000000
6.068817443233099 -2.856317619231273 -1.960369480169148 58.000000000000000
6.066179709190491 -2.803646966215953 -2.070034643341422 57.000000000000000
6.100143294464617 -2.766754981726762 -2.192629165656725 54.000000000000000
6.115094066096644 -2.719882911178469 -2.309602024650341 6.000000000000000
6.142284724708209 -2.676976287623414 -2.431978683319030 9.000000000000000
7.275133156519242 -4.270198557741653 -0.639876419612011 29.000000000000000
7.379292877228025 -4.266154537444567 -0.787122668160990 21.000000000000000
7.378143045843339 -4.200283238547791 -0.923160826209627 12.000000000000000
7.475017337841320 -4.189661320144464 -1.073009702405802 22.000000000000000
7.576553795836548 -4.180806544288326 -1.226494687322653 24.000000000000000
7.683337499207476 -4.172411790089737 -1.383910664455032 3.000000000000000
7.794780764165724 -4.165109481194689 -1.545975371166720 21.000000000000000
7.910936942723793 -4.158789386145565 -1.712176255509617 23.000000000000000
8.031678037317910 -4.152994145868203 -1.883741895602887 22.000000000000000
8.153420886260724 -4.146165799535045 -2.059226314481549 20.000000000000000
8.282933604019295 -4.141317664256143 -2.241714280439862 22.000000000000000
6.137157517256547 -3.016059649855948 -1.771659616543840 52.000000000000000
6.082639674534136 -2.937819274338843 -1.866219842651570 52.000000000000000
6.064946395409772 -2.876884005055126 -1.970781480089562 57.000000000000000
6.069212806442705 -2.827386500694546 -2.082951148203455 55.000000000000000
6.089255669099767 -2.784158725000324 -2.200847470939529 57.000000000000000
6.100721775422620 -2.735801843078763 -2.316540112817196 6.000000000000000
6.148509729762010 -2.702098987105863 -2.447119360984128 5.000000000000000
7.132219631538152 -4.277914218840142 -0.503107407764136 27.000000000000000
7.227917466672054 -4.270330566456453 -0.646440985832974 29.000000000000000
7.335235419890222 -4.268860094335509 -0.793555813902032 21.000000000000000
7.427149118982824 -4.256624993249601 -0.940820722154578 1.000000000000000
7.420271374089920 -4.187308216270345 -1.076924619839529 22.000000000000000
7.525011429604087 -4.181011704096369 -1.230349590375447 24.000000000000000
7.631545473658346 -4.173249707587182 -1.387214677549333 3.000000000000000
7.742741804365235 -4.166599161425246 -1.548736510496667 18.000000000000000
7.858654151709903 -4.160949398412137 -1.714406902595294 23.000000000000000
7.975682011766446 -4.154035608184603 -1.884629569204390 23.000000000000000
8.097193097186134 -4.147934191266275 -2.059536329324006 22.000000000000000
8.219529729544782 -4.140344804198187 -2.239566906229533 23.000000000000000
6.129642657614489 -3.035212458810720 -1.780895903704922 50.000000000000000
6.092533459443808 -2.965238580905760 -1.880803074185508 46.000000000000000
6.067913505599944 -2.900770491248812 -1.983456640730502 57.000000000000000
6.058312393531421 -2.844685060444316 -2.091114977534354 54.000000000000000
6.081757414718072 -2.803123340790099 -2.210300948929696 55.000000000000000
6.103513780050908 -2.759453753623017 -2.330021141179736 6.000000000000000
6.134004983527362 -2.718159179173044 -2.454043507914802 5.000000000000000
6.229836704571563 -2.706796648229849 -2.608172260320352 0.000000000000000
7.088753861266551 -4.279340448694416 -0.510323445029166 43.000000000000000
7.184181070377849 -4.272273678567909 -0.653204381063380 29.000000000000000
7.287780735171753 -4.269343681160692 -0.799507653617354 15.000000000000000
7.396660656869804 -4.267585374744328 -0.948467287987661 1.000000000000000
7.375950635949972 -4.190566134756670 -1.082225339871385 22.000000000000000
7.476986585622896 -4.182899095648795 -1.234650863214276 23.000000000000000
7.576355442430144 -4.171930870253330 -1.389759340240764 2.000000000000000
7.680375200856969 -4.162206399454897 -1.549276819163699 4.000000000000000
7.806430953209691 -4.162855684430311 -1.716511672950660 23.000000000000000
7.919756966029683 -4.154802761711638 -1.885381555626776 23.000000000000000
8.044501121006135 -4.151215944310953 -2.060597946672173 22.000000000000000
8.159684297645565 -4.140814818811387 -2.238214645441406 23.000000000000000
6.149756501813092 -3.068176225229134 -1.798222905911914 48.000000000000000
6.147263796015333 -3.014802422466517 -1.909392095848617 44.000000000000000
6.084591533243876 -2.931365149891104 -2.000694937160794 52.000000000000000
6.057701207212241 -2.866852286080889 -2.102852836965092 53.000000000000000
6.070743064112953 -2.820478554684203 -2.218486730203944 56.000000000000000
6.102759263255737 -2.781588777140236 -2.342201795241773 6.000000000000000
6.112595262301858 -2.731106632121157 -2.458182198956925 6.000000000000000
6.208267238620969 -2.720139559359129 -2.612270022695794 4.000000000000000
7.140859105955178 -4.338601688742907 -0.524452681692266 21.000000000000000
7.140485217389237 -4.274009128765956 -0.659864249274847 28.000000000000000
7.247237892372017 -4.273644213053543 -0.806109218159148 9.000000000000000
7.348975238087484 -4.268431077509298 -0.953815016934537 0.000000000000000
7.324781957833127 -4.189674130692518 -1.086399534613377 23.000000000000000
7.422115004785019 -4.180670212041806 -1.237687130857947 23.000000000000000
7.528147228368590 -4.174170586414641 -1.393448679900769 3.000000000000000
7.631933960662947 -4.165047864285977 -1.552476830193103 4.000000000000000
7.747351331489812 -4.160793579531257 -1.716957813982197 24.000000000000000
7.863904268375755 -4.155295983213856 -1.885998130886766 23.000000000000000
7.988408122366284 -4.152444166909799 -2.060640461412220 22.000000000000000
8.106838581586143 -4.144525825061423 -2.238626788347108 22.000000000000000
6.166240430815187 -3.099550126110703 -1.814597466411562 23.000000000000000
6.156805328457479 -3.042527470181850 -1.924109856704242 59.000000000000000
6.101109106051099 -2.962087915183287 -2.017988815327155 50.000000000000000
6.056992489109563 -2.889049203491513 -2.114599888081756 53.000000000000000
6.066542872760046 -2.841023598373901 -2.229179778852953 57.000000000000000
6.095046782511225 -2.800601060908091 -2.351744547488104 5.000000000000000
6.108272365183557 -2.751673264169273 -2.469190750021328 6.000000000000000
6.173023933276278 -2.727362823430091 -2.610548514885269 4.000000000000000
7.134765752965494 -4.362790324308996 -0.534395206215900 11.000000000000000
7.093415713421453 -4.273479636809127 -0.666100075336533 38.000000000000000
7.203299889330609 -4.275723257635162 -0.812229849542229 2.000000000000000
7.297911291535169 -4.267041595641436 -0.958598352778295 0.000000000000000
7.277116271390967 -4.190512617929053 -1.090965980970173 22.000000000000000
7.374206115673235 -4.182076654655384 -1.241749982143697 24.000000000000000
7.466202513438107 -4.168480702433195 -1.394447798152564 7.000000000000000
7.583543356660234 -4.167656819336901 -1.555561247231694 2.000000000000000
7.702168380757609 -4.165908400747111 -1.720344567533592 25.000000000000000
7.811578679518324 -4.157353564992794 -1.887313929725648 23.000000000000000
7.932387680777864 -4.153397940214606 -2.060547313716593 22.000000000000000
8.050599452076483 -4.146203275173793 -2.237952381790983 23.000000000000000
6.161862146357377 -3.120567875960836 -1.824896441119152 0.000000000000000
6.155870209805345 -3.065191798450340 -1.935612874193566 55.000000000000000
6.138120997901929 -3.003043800750831 -2.042210210993817 42.000000000000000
6.069934477424939 -2.917884516091457 -2.131183096433000 49.000000000000000
6.055395779604366 -2.858339341706994 -2.237337292408021 54.000000000000000
6.097532271625711 -2.824360619168249 -2.365261780305621 6.000000000000000
6.114110845299445 -2.776903201965497 -2.484362529564774 6.000000000000000
6.141213197220378 -2.735936325356332 -2.610190968086808 4.000000000000000
7.097983514097974 -4.368154368401954 -0.541997645201799 4.000000000000000
7.104354237262261 -4.307864730533400 -0.677752414175069 32.000000000000000
7.162821145532239 -4.279635764782804 -0.818637256608896 1.000000000000000
7.253763199821192 -4.269435618810452 -0.964169558611152 0.000000000000000
7.205486497642077 -4.177197860481020 -1.091779449655706 3.000000000000000
7.322914348875523 -4.181290697280890 -1.245114269400700 25.000000000000000
7.428445760759334 -4.176021348939447 -1.399834016109997 23.000000000000000
7.524872908074309 -4.164315959554484 -1.556393364907824 19.000000000000000
7.646685520204288 -4.165178452100727 -1.721297480755096 25.000000000000000
7.755868432023023 -4.157309855617475 -1.887665126428551 25.000000000000000
7.876441163811434 -4.154077647928252 -2.060318783101210 22.000000000000000
7.994433114015496 -4.147605857532892 -2.237142113521471 23.000000000000000
6.161717049115953 -3.091336867327928 -1.949301254124910 54.000000000000000
6.181767191391445 -3.047632450805952 -2.068841907017264 56.000000000000000
6.089589212708258 -2.950151397873793 -2.150234859286423 47.000000000000000
6.054462136009367 -2.880512997425687 -2.249292581077565 42.000000000000000
6.096489404067362 -2.846572835549548 -2.377464203306920 5.000000000000000
6.126644258989550 -2.805323006100790 -2.502346290031018 6.000000000000000
6.116216676669733 -2.747416700890909 -2.612663590226024 5.000000000000000
6.223026236440876 -2.739935137928019 -2.775074035141381 4.000000000000000
7.098544289337553 -4.396467346111986 -0.552419991387212 2.000000000000000
7.193399323912629 -4.390112988197654 -0.697029495496112 28.000000000000000
7.108728365149005 -4.275153717771473 -0.823369734657947 1.000000000000000
7.209657371515730 -4.271620476744851 -0.969636575219281 0.000000000000000
7.219622189598888 -4.213489035543864 -1.105526836762908 2.000000000000000
7.278549970558784 -4.184199017911823 -1.249533074626056 23.000000000000000
7.376967493867413 -4.175613555395308 -1.402521311931653 22.000000000000000
7.483481145459687 -4.170262768516189 -1.560667289039217 15.000000000000000
7.591280024632319 -4.164176619244250 -1.722116335024396 23.000000000000000
7.707115943802534 -4.160708275787707 -1.889568858913710 24.000000000000000
7.824010574703889 -4.156311432268528 -2.060861423025728 22.000000000000000
7.934901446845767 -4.146936412738433 -2.235227374910445 24.000000000000000
6.167439329571519 -3.117549430841490 -1.963016470209636 48.000000000000000
6.166841187371861 -3.063538391276550 -2.075973577603702 59.000000000000000
6.105644663907332 -2.980892501639146 -2.168134481938660 47.000000000000000
6.060266514945349 -2.905993359207260 -2.263810143116125 11.000000000000000
6.071471377838075 -2.857575755684037 -2.380314287782146 5.000000000000000
6.128818977882768 -2.829136432091635 -2.516183813825180 6.000000000000000
6.118357552631042 -2.771084089535203 -2.626735203039608 6.000000000000000
6.174167922241293 -2.741258050183057 -2.766795035826328 5.000000000000000
7.095599112770453 -4.422710529730835 -0.562587594121279 2.000000000000000
7.193690204437497 -4.418657377374690 -0.707864551981667 31.000000000000000
7.095574798935535 -4.295138356246396 -0.832766938231794 2.000000000000000
7.162182651678295 -4.271561376659225 -0.974535309484280 0.000000000000000
7.206237864361247 -4.233831415739028 -1.115092545642516 3.000000000000000
7.230804997289284 -4.184915542187735 -1.253253763581754 6.000000000000000
7.328984922528024 -4.176909352558013 -1.405742602993267 23.000000000000000
7.438686878090168 -4.174091559194935 -1.564123136196999 23.000000000000000
7.546252957928325 -4.168592918692473 -1.725156043140722 24.000000000000000
7.654981314941833 -4.162006091210167 -1.890508493665357 23.000000000000000
7.764775362858673 -4.154616426519095 -2.059456703317808 22.000000000000000
7.885757352398608 -4.151395278420297 -2.236088598736855 24.000000000000000
6.173036655481936 -3.143829059635049 -1.976758279069695 9.000000000000000
6.141596840379107 -3.074253106508939 -2.079599020812787 59.000000000000000
6.118119294799071 -3.010077894582655 -2.184867813656505 31.000000000000000
6.062535212864763 -2.929892303275906 -2.277073095879755 5.000000000000000
6.063466954132880 -2.876545859986638 -2.389817652360166 5.000000000000000
6.154658095500366 -2.864061385266519 -2.539850410736238 1.000000000000000
6.133934838951788 -2.800985234588290 -2.646669814523880 6.000000000000000
6.159155395233370 -2.757453934392871 -2.773602101432167 5.000000000000000
7.112830972988530 -4.461699076373050 -0.574397860012457 1.000000000000000
7.156569136405596 -4.424188884373536 -0.714987350400335 24.000000000000000
7.095945824651045 -4.323370069630555 -0.843758315301305 2.000000000000000
7.124982459250148 -4.277408363472194 -0.980727611253925 2.000000000000000
7.206431671230884 -4.262210303000139 -1.126769675168759 3.000000000000000
7.237793379612445 -4.217261145421866 -1.266427820822532 2.000000000000000
7.281058501550726 -4.177974807933068 -1.408849744036797 23.000000000000000
7.387085622710050 -4.173838409454336 -1.566021371027277 24.000000000000000
7.490986951386877 -4.167077673697687 -1.725721343531975 24.000000000000000
7.606340677692252 -4.164928284572946 -1.892175964134521 24.000000000000000
7.715914346402663 -4.158170799721585 -2.060654604566302 23.000000000000000
7.829811136317135 -4.151985341064675 -2.234877020596041 24.000000000000000
9.459344612573746 -4.853562994095040 -3.047511404888126 8.000000000000000
6.136845052438118 -3.095199149088394 -2.090150958626739 55.000000000000000
6.161146651125686 -3.054591317154014 -2.212672553382003 22.000000000000000
6.057881970915600 -2.950521645968759 -2.287781467519468 5.000000000000000
6.048593398443824 -2.892255137995433 -2.396618058231393 6.000000000000000
6.112491432181793 -2.867362750260017 -2.535473003193974 7.000000000000000
6.162871175512533 -2.837236211111970 -2.672521946849406 4.000000000000000
6.164316316065184 -2.782727959523470 -2.789531404874104 5.000000000000000
7.102885658449678 -4.483782460311795 -0.584046377944578 1.000000000000000
7.136386007625156 -4.440077704672795 -0.723740786911605 27.000000000000000
7.096196782729167 -4.351642788015631 -0.854763280853691 1.000000000000000
7.121796320942583 -4.303627697637571 -0.991567346747285 1.000000000000000
7.169040948009031 -4.268325269016886 -1.132541956680507 1.000000000000000
7.224168902747646 -4.237681457586659 -1.276018623923673 3.000000000000000
7.233189372099149 -4.178810231910038 -1.411842963305720 7.000000000000000
7.338971910533791 -4.175279584411266 -1.568526597923812 24.000000000000000
7.442642933216602 -4.169123620537617 -1.727741417375957 23.000000000000000
7.550911815023196 -4.163844392742423 -1.892013381234544 25.000000000000000
7.663685479580520 -4.159634611909513 -2.060816528823248 22.000000000000000
7.770523014175597 -4.150475297659119 -2.232548071081302 23.000000000000000
9.290047387108880 -4.881786250287911 -2.839641975984185 4.000000000000000
9.359440198418469 -4.838126518806785 -3.033596373983702 7.000000000000000
6.138827651972280 -3.119619332653516 -2.103038344566010 44.000000000000000
6.142615972012595 -3.068765586819811 -2.218468569424914 53.000000000000000
6.063339069830745 -2.976163925132305 -2.302360444197459 5.000000000000000
6.043847630762576 -2.912817963560505 -2.407442902185811 6.000000000000000
6.087298751764707 -2.878458375178179 -2.538047928848158 5.000000000000000
6.172715540376733 -2.809598455119510 -2.807016098739306 5.000000000000000
6.295666811526462 -2.809381269786302 -2.983638764867177 6.000000000000000
7.106330284817660 -4.514407183768422 -0.594808929172562 1.000000000000000
7.143177989789236 -4.472810973388922 -0.735234794145561 24.000000000000000
7.099713059935489 -4.382045783373828 -0.866194677308221 1.000000000000000
7.128681172995281 -4.336059991072761 -1.003844852355524 1.000000000000000
7.141868048241053 -4.280381442300304 -1.139855907527213 3.000000000000000
7.217282517906726 -4.262086077672708 -1.286800420899225 1.000000000000000
7.222873533753026 -4.201225035514341 -1.422104819054354 2.000000000000000
7.290915756412265 -4.176490077436182 -1.570917587264358 22.000000000000000
7.390941748588953 -4.169012350257479 -1.728848198184403 24.000000000000000
7.498979449731431 -4.164385592925472 -1.892579151829705 24.000000000000000
7.608109468592142 -4.158979045206616 -2.059929031653970 22.000000000000000
7.724981923755235 -4.156018952122524 -2.234024339001988 19.000000000000000
9.282546407613808 -4.913621260786575 -2.855190763511624 2.000000000000000
9.324509436820588 -4.855896822726128 -3.040546958966776 7.000000000000000
6.137293595899578 -3.142343173681114 -2.114769655671681 2.000000000000000
6.124050562662681 -3.082869574033026 -2.224226583658311 54.000000000000000
6.078847754794513 -3.006906235619119 -2.320850892285969 6.000000000000000
6.035630876022594 -2.931744396971949 -2.416910987029997 6.000000000000000
6.058720307287457 -2.887835537023252 -2.539151462431535 5.000000000000000
6.174261049231778 -2.833471639061778 -2.821466811176740 5.000000000000000
6.173117286570912 -2.777780864271475 -2.939550379960616 5.000000000000000
7.109642000314553 -4.545090476903867 -0.605593249732095 1.000000000000000
7.176791311364584 -4.522616285892338 -0.749576149369219 25.000000000000000
7.103095851776672 -4.412508021782439 -0.877648151697850 1.000000000000000
7.125259491362903 -4.362350703395540 -1.014706618351971 1.000000000000000
7.151997767559886 -4.314840324808115 -1.153128312126716 1.000000000000000
7.172922934765252 -4.264272123892333 -1.290850814507017 2.000000000000000
7.215876081603949 -4.225614565425185 -1.433028233986527 4.000000000000000
7.236107847539151 -4.173542165385878 -1.571715308994750 7.000000000000000
7.373384385298928 -4.188003552573273 -1.737862178155561 8.000000000000000
7.450525299465718 -4.166581339651903 -1.893887193600984 23.000000000000000
7.559431879241221 -4.161804522281259 -2.060766066643851 21.000000000000000
7.781693857155500 -4.216734492194067 -2.265146117990882 2.000000000000000
7.729028627440339 -3.987036671750326 -2.678741319038813 19.000000000000000
6.122410326434525 -3.105505719520435 -2.236140876777165 51.000000000000000
6.114505653609682 -3.047898311156207 -2.347192471193268 50.000000000000000
6.034098343179609 -2.953966991578529 -2.429088758670953 6.000000000000000
6.043629616333759 -2.903562204465794 -2.545869514600301 5.000000000000000
6.185745874826551 -2.862041228647422 -2.840549942808376 6.000000000000000
6.174490492321111 -2.801575345330644 -2.954261116535178 5.000000000000000
7.099400031509377 -4.567198240935284 -0.615236069003037 1.000000000000000
7.200060966366744 -4.566249038246855 -0.762949409405151 30.000000000000000
7.102972065922733 -4.440920348208038 -0.888701463705970 1.000000000000000
7.128489454667825 -4.392827985720029 -1.026545850200813 1.000000000000000
7.145035258826358 -4.339114304293804 -1.163683034335826 1.000000000000000
7.165915290279234 -4.288574351789660 -1.301572926006907 1.000000000000000
7.205386284521147 -4.248003630657156 -1.443266311100670 2.000000000000000
7.211974028277132 -4.188088545685160 -1.579078512600582 2.000000000000000
7.416980807641192 -4.241946686602479 -1.761380142701872 2.000000000000000
7.487172009075395 -4.216437589604047 -1.916852983275430 2.000000000000000
7.565237454375591 -4.194574189572521 -2.076426167019850 3.000000000000000
7.746240773032057 -4.227707867362922 -2.269533889249805 1.000000000000000
7.730984204332917 -4.017880104958519 -2.694981019327115 7.000000000000000
6.117284762590760 -3.126438063375562 -2.246819122504385 2.000000000000000
6.102612007385323 -3.065367187189957 -2.355382494419031 59.000000000000000
6.032466627326406 -2.976216263345537 -2.441274082111776 6.000000000000000
6.031856158939941 -2.920867168127016 -2.553983215296444 6.000000000000000
6.091945160171717 -2.896520333980113 -2.695193892895301 4.000000000000000
6.357606530692298 -2.965594197468068 -2.933752930436093 3.000000000000000
6.172417274955187 -2.823889653565153 -2.967385416207755 7.000000000000000
6.170450715422045 -2.764593942005220 -3.084993080117948 54.000000000000000
7.109167985713038 -4.602295303181880 -0.626635853764255 1.000000000000000
7.199611980209476 -4.595050377112293 -0.773870380764349 29.000000000000000
7.106093315732071 -4.471490216784274 -0.900193884288567 1.000000000000000
7.128211211280383 -4.421271349281629 -1.037915499160730 1.000000000000000
7.151495708676554 -4.371653606182416 -1.176456491474777 1.000000000000000
7.168965699737989 -4.318995416252305 -1.314151205292518 2.000000000000000
7.188034835605915 -4.266351660086496 -1.452120764465899 2.000000000000000
7.221729720559493 -4.222372494765414 -1.593877774058034 2.000000000000000
7.382215704566593 -4.251223645835331 -1.766349004115806 1.000000000000000
7.479410986530241 -4.241515212109205 -1.928549714167850 1.000000000000000
7.581074454772513 -4.233107635741140 -2.094930513269038 1.000000000000000
7.690427680613677 -4.227331621616463 -2.267837174519475 1.000000000000000
7.742949772692374 -4.054095643145093 -2.714800422461125 3.000000000000000
7.544641990298118 -3.885070831943343 -2.786615486394471 28.000000000000000
6.107520218223558 -3.091339041475489 -2.370096140379089 37.000000000000000
6.037466274997213 -3.001838414485656 -2.456205022303621 6.000000000000000
6.016665324070255 -2.936501865492420 -2.560648193737301 6.000000000000000
6.079978129187271 -2.913985542377121 -2.703377555470481 5.000000000000000
6.160264487579131 -2.841625962964136 -2.975696108422292 7.000000000000000
6.141723455417664 -2.774857379421952 -3.084986794305612 114.000000000000000
7.108749671168049 -4.630955557558871 -0.637175593210174 1.000000000000000
7.209095401111974 -4.630347880551422 -0.785899486409757 26.000000000000000
7.109080035707423 -4.502117973597452 -0.911707627321893 1.000000000000000
7.127811031992124 -4.449753746576144 -1.049297616047491 1.000000000000000
7.154434363399911 -4.402194635118658 -1.188699850397493 1.000000000000000
7.171880165621266 -4.349474779683426 -1.326750930229969 1.000000000000000
7.194302788931689 -4.298790461311906 -1.465766676829388 1.000000000000000
7.214394839362450 -4.246788931870977 -1.604950737536391 3.000000000000000
7.327132664747570 -4.248561402840726 -1.766339978452957 1.000000000000000
7.427500010702824 -4.241437767638401 -1.928800988764808 1.000000000000000
7.528950135618732 -4.233668214014869 -2.094637751260779 1.000000000000000
7.638085388340951 -4.228558604849862 -2.267012070052264 1.000000000000000
7.462334664058101 -3.871616794359024 -2.771650908616383 25.000000000000000
6.105569982943398 -3.113941946621599 -2.382208373852095 2.000000000000000
6.035622350358544 -3.024159308554429 -2.468413928079324 1.000000000000000
6.011480651986923 -2.957030433810911 -2.571584605705779 6.000000000000000
6.051243775626249 -2.923347541193258 -2.704075428190547 5.000000000000000
6.195962504982248 -2.937308529616588 -2.887190197873311 4.000000000000000
6.151370034227298 -2.860873565185436 -2.985597619578634 6.000000000000000
6.116308446944339 -2.786499859112733 -3.086584765886405 116.000000000000000
7.109833550049263 -4.725164259444637 -0.509699530960044 1.000000000000000
7.158244473270296 -4.692452897047352 -0.652286647025013 3.000000000000000
7.205037310058936 -4.657091431886458 -0.796487762434810 21.000000000000000
7.111931870625885 -4.532803158289794 -0.923242436077253 1.000000000000000
7.134009346228642 -4.482497563995429 -1.061692157217655 1.000000000000000
7.153870611092622 -4.430708340519543 -1.200399467259055 1.000000000000000
7.174658329919969 -4.380011977041664 -1.339371841529292 1.000000000000000
7.193669290744160 -4.327245073482638 -1.478055550182271 1.000000000000000
7.220477832642912 -4.279215568862877 -1.619048480902866 1.000000000000000
7.278899011114310 -4.249577708419637 -1.767841193688506 1.000000000000000
7.379044384642654 -4.243054198778209 -1.929813212646322 1.000000000000000
7.483661818581235 -4.237807211907188 -2.096115411855179 0.000000000000000
7.612858592245548 -4.244611854446927 -2.274141213636856 1.000000000000000
7.440796862351641 -3.889401839100053 -2.779106220932023 26.000000000000000
7.877134119684619 -4.048022653310993 -3.090092338228986 7.000000000000000
6.022930792567325 -2.985854915122293 -2.589708688981130 6.000000000000000
6.035854598473916 -2.939076622527438 -2.710698779465174 4.000000000000000
6.123765766826856 -2.926498928018330 -2.867493828650211 6.000000000000000
6.274923235527861 -2.942245694686650 -3.060115138410715 7.000000000000000
6.110692945379300 -2.807132773244004 -3.098169349901825 89.000000000000000
7.109145887746284 -4.753974883655782 -0.519991877157773 0.000000000000000
7.194104790400308 -4.745484863903223 -0.666307489980955 17.000000000000000
7.190854547010482 -4.677339128355229 -0.805956302845126 14.000000000000000
7.074490526694276 -4.537786821840273 -0.929521676587322 3.000000000000000
7.133351266273733 -4.511075730391986 -1.073107388204610 1.000000000000000
7.156543798876469 -4.461354842102478 -1.212680430951010 1.000000000000000
7.180664721684874 -4.412674336682182 -1.352647534702498 1.000000000000000
7.199650142344358 -4.359818361186038 -1.491752554985564 1.000000000000000
7.223037840176678 -4.309706819134624 -1.632414007683200 1.000000000000000
7.271217013238719 -4.274164173177283 -1.779135679793848 1.000000000000000
7.347525493332009 -4.254210307960749 -1.935155750960820 1.000000000000000
7.445170441471393 -4.245582616803117 -2.099390707167169 0.000000000000000
7.638203541810679 -4.288983343185182 -2.296433002669757 0.000000000000000
7.421154934513336 -3.972539088612655 -2.647332360583556 0.000000000000000
7.429288179885613 -3.912414846581267 -2.790303067493281 31.000000000000000
7.536195087456654 -3.902161800637634 -2.972366209846742 14.000000000000000
6.057590202560155 -3.026453672672591 -2.617972327014518 4.000000000000000
6.023746830783511 -2.956387561589866 -2.718795083176060 4.000000000000000
6.101515507417338 -2.939287106554197 -2.871033928394092 5.000000000000000
6.288758137243367 -2.972787449085412 -3.081512595109030 6.000000000000000
7.108336801730711 -4.782822434499640 -0.530295646981680 1.000000000000000
7.196473182843397 -4.776706242274543 -0.677308794886966 29.000000000000000
7.149947732704267 -4.680101925063812 -0.812372691940772 13.000000000000000
7.067131660074786 -4.562004610232777 -0.939712740886000 4.000000000000000
7.135917470376680 -4.541821974285517 -1.085043321655913 1.000000000000000
7.162433630665031 -4.494162153926452 -1.225555800660939 1.000000000000000
7.179804331724842 -4.441258005815993 -1.364676182806936 1.000000000000000
7.195393148584269 -4.386318640374210 -1.503371618201011 1.000000000000000
7.225459957346804 -4.340255073816897 -1.645800200201883 1.000000000000000
7.280273675892842 -4.308714753700388 -1.794574148745683 1.000000000000000
7.349684937887528 -4.284868691271322 -1.949362873441471 1.000000000000000
7.457223308957699 -4.282196083501765 -2.116920693549976 0.000000000000000
7.663311526348263 -4.333544324072640 -2.318807029796927 0.000000000000000
7.396171467958557 -3.988274760473395 -2.653611887885382 11.000000000000000
7.337247604147211 -3.892727572670196 -2.771101881997339 13.000000000000000
7.504287735307642 -3.914978123102260 -2.975801720770722 15.000000000000000
