# This PCD file was generated using the MATLAB® pcwrite function
# from Computer Vision Toolbox®.
# .PCD v.7 - Point Cloud Data file format
VERSION .7
FIELDS x y z intensity
SIZE 8 8 8 8
TYPE F F F F
COUNT 1 1 1 1
WIDTH 631
HEIGHT 1
VIEWPOINT 0 0 0 1 0 0 0
POINTS 631
DATA ascii
-2.102665068417207 -5.120545762390435 -3.099217111678919 9.000000000000000
-2.039340952199391 -4.902226637291666 -3.091601280454922 3.000000000000000
-1.800792664271500 -4.110932814255882 -3.038713079081367 75.000000000000000
-1.803619309618462 -5.522062720870812 -0.984603825272011 21.000000000000000
-1.827713212982235 -5.528322761346764 -1.091278084387963 4.000000000000000
-1.840182484029179 -5.499317775315674 -1.190643704711552 20.000000000000000
-1.854277012018062 -5.475957909667926 -1.292020794819744 20.000000000000000
-1.873084963037972 -5.465588928409760 -1.396433452365591 21.000000000000000
-1.890828412660525 -5.453676117217386 -1.500493492944365 17.000000000000000
-1.933692745162459 -5.512511187704087 -1.626391334440560 13.000000000000000
-1.958628392109670 -5.517973415198450 -1.738795045652316 12.000000000000000
-1.987770585279271 -5.535740095093352 -1.857033575322310 5.000000000000000
-2.011510405455596 -5.536766027684496 -1.971545546880086 14.000000000000000
-2.029514090088963 -5.521587291653384 -2.081044530706208 16.000000000000000
-2.056234107271955 -5.528881664454612 -2.200678267386920 4.000000000000000
-2.081227100799461 -5.530440334973170 -2.319445506193175 12.000000000000000
-2.101995858980864 -5.519075319256494 -2.434741265350618 11.000000000000000
-2.126056943036365 -5.515909606064379 -2.555038765399376 4.000000000000000
-2.159399818394983 -5.533856634587870 -2.687717093025885 11.000000000000000
-2.176896693998366 -5.511994939371578 -2.803599217434813 8.000000000000000
-2.202645357232448 -5.507667446763851 -2.930086812045013 4.000000000000000
-2.233838898042920 -5.517398246827382 -3.066707740150099 8.000000000000000
-2.086604920092443 -5.031318818811893 -3.044587139648874 24.000000000000000
-2.060116007731879 -4.903407851897523 -3.091863107033780 3.000000000000000
-1.820625753421440 -4.115490032265022 -3.042151814145023 71.000000000000000
-1.821678552610362 -5.520913462361710 -0.981742222822595 7.000000000000000
-1.850934029695481 -5.542026106491785 -1.091387123196326 10.000000000000000
-1.863510487206696 -5.512917725369817 -1.191078006418528 24.000000000000000
-1.871409849585699 -5.470973679407139 -1.288428567716478 19.000000000000000
-1.892881878517541 -5.467919176239734 -1.394690673981042 19.000000000000000
-1.932512586475468 -5.518057568923024 -1.515927362760247 14.000000000000000
-1.956553115794078 -5.521892690090830 -1.626960670759423 16.000000000000000
-1.985576066312940 -5.538044300350176 -1.743000003512382 4.000000000000000
-2.008477426969717 -5.537651189524873 -1.855643750429180 15.000000000000000
-2.025860671408415 -5.520771639755136 -1.963916760383703 15.000000000000000
-2.051837347898755 -5.526854683997165 -2.081188314340247 5.000000000000000
-2.078764531548382 -5.534014020092000 -2.200974976641398 12.000000000000000
-2.098653410433543 -5.521513891954791 -2.314060112405450 10.000000000000000
-2.120878019386938 -5.513591772443379 -2.430787155167234 5.000000000000000
-2.153095911707471 -5.530914735090207 -2.560557788480980 11.000000000000000
-2.176010628530835 -5.521472229307480 -2.680385450920655 9.000000000000000
-2.201644937227925 -5.519802790535689 -2.806371451531867 4.000000000000000
-2.230262947388376 -5.521945220909386 -2.936604870046785 9.000000000000000
-2.252270971053515 -5.508360557101526 -3.060735768719317 8.000000000000000
-2.114439872899084 -5.048535673741955 -3.054383010502999 17.000000000000000
-2.080918171290270 -4.904524227890739 -3.092090176955825 3.000000000000000
-1.836454381482205 -4.110900741125270 -3.038840963484353 75.000000000000000
-1.845978235226389 -5.538420791899822 -0.982170803334236 7.000000000000000
-1.869222307886490 -5.540743194151407 -1.088520473011127 18.000000000000000
-1.884401742084929 -5.519017554262593 -1.189865248744000 26.000000000000000
-1.891073889135810 -5.473322410823982 -1.286547835488728 20.000000000000000
-1.928110258217080 -5.514242182850127 -1.404132465629342 18.000000000000000
-1.952664949020242 -5.520194238108571 -1.514218996849763 17.000000000000000
-1.980785952626229 -5.534826052383327 -1.628553830776684 4.000000000000000
-2.006137191763159 -5.539982653701459 -1.741476891753537 17.000000000000000
-2.026585868786404 -5.532331061950049 -1.851820384761413 16.000000000000000
-2.045395078306860 -5.518979631090263 -1.961335974597124 5.000000000000000
-2.075535261434336 -5.535581934952986 -2.082620949660514 10.000000000000000
-2.094695146954281 -5.521544358430678 -2.194265284601780 12.000000000000000
-2.117370249838541 -5.516019292428852 -2.310110471525418 6.000000000000000
-2.149118070481007 -5.532197829086397 -2.437444296590952 9.000000000000000
-2.169502019568761 -5.518471359543497 -2.553364611837726 9.000000000000000
-2.192552663464203 -5.509047162064917 -2.673037258266429 6.000000000000000
-2.227817922686613 -5.530884174759957 -2.810802652045528 7.000000000000000
-2.249868397929256 -5.516188036186170 -2.932466835521896 7.000000000000000
-2.277447626172595 -5.515719055922346 -3.063876565101134 4.000000000000000
-2.157391622334840 -5.101053802604825 -3.085532610556936 13.000000000000000
-2.100384185015277 -4.902394310199989 -3.090277059206257 3.000000000000000
-1.856357284086171 -4.115337963729583 -3.042214173608799 75.000000000000000
-1.864102304765230 -5.537145961444830 -0.979241134258653 23.000000000000000
-1.881171816939477 -5.520791707528288 -1.081977595534914 33.000000000000000
-1.905342696542912 -5.525048529006714 -1.188614302812873 12.000000000000000
-1.926205319599522 -5.519856356412742 -1.295014622047320 23.000000000000000
-1.951986015338108 -5.527409557789893 -1.405090095466258 17.000000000000000
-1.974147056888732 -5.525914864606091 -1.513475571954499 4.000000000000000
-2.003804827986360 -5.544048678504003 -1.629032369757141 13.000000000000000
-2.021453768033479 -5.527443198566454 -1.735394004347343 18.000000000000000
-2.040701091982084 -5.516220801759367 -1.844381500509148 8.000000000000000
-2.074245923789798 -5.542013086574083 -1.967559604150027 7.000000000000000
-2.093961372776828 -5.530112785695806 -2.078702082262477 14.000000000000000
-2.114582945324897 -5.519542833945025 -2.191712086836958 9.000000000000000
-2.144146967952436 -5.531318428588973 -2.314859438793722 6.000000000000000
-2.166688870763497 -5.523137523717888 -2.431903622968852 11.000000000000000
-2.189907355225378 -5.516234857731328 -2.550893719832252 7.000000000000000
-2.222628188637030 -5.530427635602949 -2.682086893155263 6.000000000000000
-2.244541635551193 -5.518407305810189 -2.803260539703349 8.000000000000000
-2.269451764537008 -5.510375396017818 -2.928301842946063 5.000000000000000
-2.305436024706112 -5.529564796816275 -3.070619138512212 8.000000000000000
-2.187017112136362 -5.121245776084669 -3.097124771809761 14.000000000000000
-2.123977536136079 -4.909739698157552 -3.094442683638703 3.000000000000000
-1.874936591331632 -4.116689477307266 -3.043318012616057 74.000000000000000
-1.878419744840504 -5.524610474902629 -0.974307119336345 23.000000000000000
-1.903249859566969 -5.530573812629871 -1.081248017390546 5.000000000000000
-1.930201202884566 -5.542116853589086 -1.189709249164180 24.000000000000000
-1.949955916942534 -5.533090563107153 -1.295625232247107 15.000000000000000
-1.968116561296867 -5.518506869030820 -1.400419629114307 9.000000000000000
-1.998308161058730 -5.538852825432690 -1.514686063724889 7.000000000000000
-2.018963554474946 -5.531458438110387 -1.623088941851090 17.000000000000000
-2.040691532317533 -5.525666327374711 -1.732682806645461 14.000000000000000
-2.069421215901589 -5.539417821679791 -1.850070817031798 5.000000000000000
-2.092525875221331 -5.536528081561585 -1.963641582267293 14.000000000000000
-2.111018491109041 -5.521065927160719 -2.073433856707434 14.000000000000000
-2.141240685340035 -5.534975391409137 -2.196069157367273 5.000000000000000
-2.165609317130419 -5.532638643372475 -2.313746297116327 10.000000000000000
-2.184214584289012 -5.514030757789298 -2.426341989896057 10.000000000000000
-2.215785682283411 -5.527585757881377 -2.554699492984409 5.000000000000000
-2.240522279598149 -5.521267705418402 -2.676319644535783 10.000000000000000
-2.263946917197510 -5.512587718273610 -2.799102892794556 6.000000000000000
-2.298665317773603 -5.527719135787448 -2.936440517482697 6.000000000000000
-2.323871950818815 -5.520338168628194 -3.064550482564168 7.000000000000000
-2.143484735574286 -4.907482848816906 -3.092562251099876 3.000000000000000
-1.892157178798278 -4.114965466686727 -3.042159827934395 76.000000000000000
-1.896516605603769 -5.523236854557299 -0.971328684395325 8.000000000000000
-1.926691118337588 -5.543996011591516 -1.081200054558087 14.000000000000000
-1.946071707441343 -5.533204280517501 -1.185205171925572 16.000000000000000
-1.965943288793561 -5.524159064507545 -1.291026574190738 14.000000000000000
-1.993432790790048 -5.535187734254512 -1.402221970716975 4.000000000000000
-2.015933637486219 -5.533503521449897 -1.510877343583251 16.000000000000000
-2.035389099426058 -5.522450852665528 -1.618191519515337 18.000000000000000
-2.063955335766092 -5.534620449272277 -1.733320759253694 4.000000000000000
-2.088874004452890 -5.537499044417675 -1.847352085173343 15.000000000000000
-2.109430888409934 -5.527443579239774 -1.958441422494703 15.000000000000000
-2.136189588382674 -5.533106281236825 -2.076074402092336 4.000000000000000
-2.162557112911312 -5.536332137569172 -2.194827828308055 12.000000000000000
-2.181615736844557 -5.520022166170594 -2.306801261864031 11.000000000000000
-2.211321464520629 -5.528946484139127 -2.431343693531611 4.000000000000000
-2.237621267830633 -5.528621543047012 -2.553730388178928 11.000000000000000
-2.259754492630292 -5.515437897619742 -2.672167365742110 9.000000000000000
-2.294427507323369 -5.533477329841586 -2.808502635527888 5.000000000000000
-2.319677022321059 -5.525083179266672 -2.933962912904690 7.000000000000000
-2.340868216159545 -5.507784162774082 -3.056640248846604 5.000000000000000
-2.164392753055277 -4.908338398877418 -3.092649700924315 3.000000000000000
-1.909382816043634 -4.113189640476049 -3.040974883697297 88.000000000000000
-1.924958938348970 -5.551636149209459 -0.973552850368780 7.000000000000000
-1.943712953051136 -5.538773578109080 -1.077493019272964 17.000000000000000
-1.961899351473733 -5.524250153621172 -1.180682503852495 23.000000000000000
-1.991136374892317 -5.540923216184280 -1.292412414413739 3.000000000000000
-2.013547526960271 -5.537147666386466 -1.400270715720032 17.000000000000000
-2.033538649036282 -5.528104348240662 -1.507044418004453 24.000000000000000
-2.057152488923017 -5.527861520414057 -1.617506305534363 4.000000000000000
-2.085938791442894 -5.539902685369219 -1.732790118563895 18.000000000000000
-2.104251126953805 -5.524814879183753 -1.841035509017535 15.000000000000000
-2.129022588452177 -5.525402978758162 -1.955730231957058 4.000000000000000
-2.160085076504239 -5.541540316410236 -2.077345273146384 15.000000000000000
-2.177013997622077 -5.520164096013039 -2.186635407937521 11.000000000000000
-2.204463972974345 -5.524685802053697 -2.307072903149023 4.000000000000000
-2.231612775154181 -5.526591659843117 -2.428741453329513 12.000000000000000
-2.253916555193707 -5.515969269001978 -2.546437351605084 11.000000000000000
-2.288733384307151 -5.533170867837161 -2.679425244875493 4.000000000000000
-2.313882124432765 -5.527519183712706 -2.804271240076204 8.000000000000000
-2.335079680355926 -5.509149311184760 -2.924427594156053 7.000000000000000
-2.352174056715497 -5.482089201933674 -3.041445575537524 7.000000000000000
-2.186736473967895 -4.912295558088387 -3.094697391249029 3.000000000000000
-1.930844521839294 -4.120391292839040 -3.046439073144155 102.000000000000000
-1.939240310573945 -5.538950512202457 -0.968544393002823 21.000000000000000
-1.958086521309105 -5.526085414383119 -1.072323257236247 31.000000000000000
-1.985626512063991 -5.537404239054709 -1.180864788147877 3.000000000000000
-2.011116095037941 -5.542902860516142 -1.290323963646849 21.000000000000000
-2.029663469380109 -5.528082742281763 -1.395518325050031 27.000000000000000
-2.051123021954554 -5.522655359092649 -1.503187324817926 5.000000000000000
-2.084392826025845 -5.547647457135567 -1.621002849519170 13.000000000000000
-2.102513510457329 -5.530756297292234 -1.727734851852765 15.000000000000000
-2.126415385685864 -5.529920907659135 -1.840638031377381 6.000000000000000
-2.154125580775032 -5.537465886825141 -1.957996561411302 11.000000000000000
-2.174370331163741 -5.525289568452421 -2.069355660031825 12.000000000000000
-2.199711029733598 -5.524892847414058 -2.186715896101119 5.000000000000000
-2.228754557373622 -5.532734854720735 -2.308747311930136 9.000000000000000
-2.249108039513778 -5.517313745505128 -2.423094315179394 11.000000000000000
-2.277157787760089 -5.520283973193253 -2.546974924287494 4.000000000000000
-2.310817683535056 -5.533947328576890 -2.678464597114993 11.000000000000000
-2.330492544175354 -5.514829439639617 -2.796627389057626 7.000000000000000
-2.361702460247486 -5.519623071618601 -2.928911510530253 5.000000000000000
-2.364732830084287 -5.459653190262291 -3.028068969554748 41.000000000000000
-2.204864397232499 -4.906689078790560 -3.090726657906521 3.000000000000000
-1.946692416631254 -4.115494746994316 -3.042970197437458 80.000000000000000
-1.954771826302552 -5.529952640468626 -0.964171614012698 23.000000000000000
-1.981673169153453 -5.539299917384277 -1.072160377893090 4.000000000000000
-2.008112536033830 -5.546786084777041 -1.180213613015695 18.000000000000000
-2.024400103834572 -5.526470954833704 -1.283938863409787 24.000000000000000
-2.044382710573371 -5.515325512463710 -1.389827264186304 11.000000000000000
-2.079574406809805 -5.546194274141939 -1.507197186839470 7.000000000000000
-2.099456877499366 -5.534859303588755 -1.614964181955014 15.000000000000000
-2.120419765713883 -5.525151849855726 -1.723778713526109 11.000000000000000
-2.152776106294424 -5.545639227129679 -1.843752857269203 7.000000000000000
-2.173767782487890 -5.535293023129374 -1.955214764651941 11.000000000000000
-2.195538034356311 -5.526564384577530 -2.067925250780118 8.000000000000000
-2.225257224995464 -5.536515748170496 -2.189511281739735 7.000000000000000
-2.247494527486209 -5.526875801474988 -2.304610210857735 11.000000000000000
-2.267967940304449 -5.511417195922702 -2.418930737792787 5.000000000000000
-2.304691297317996 -5.534715654450117 -2.552170967715818 10.000000000000000
-2.327249925524879 -5.521188266262832 -2.670952622684662 10.000000000000000
-2.358412610507920 -5.528776226587401 -2.802489499519884 4.000000000000000
-2.357049127257608 -5.457371922606061 -2.894815211726850 33.000000000000000
-2.384294058121074 -5.453535978192765 -3.023749853900882 27.000000000000000
-2.227270653829721 -4.910511051100274 -3.092701513500940 3.000000000000000
-1.968255780623850 -4.122563736579826 -3.048360447827287 79.000000000000000
-1.970260573383224 -5.520914249708385 -0.959780766810063 7.000000000000000
-2.002679424699220 -5.545027212450112 -1.070519656556643 8.000000000000000
-2.023936409200926 -5.537668455309174 -1.175607711179435 27.000000000000000
-2.043017385597007 -5.524675834064291 -1.280945311344088 19.000000000000000
-2.072680143621429 -5.538998291652284 -1.393294996513848 4.000000000000000
-2.095836792178301 -5.536990554536149 -1.502287502287506 16.000000000000000
-2.115833553228896 -5.525639872597820 -1.609961606184427 16.000000000000000
-2.148017890789126 -5.544569065512635 -1.727610204476166 5.000000000000000
-2.170889193133314 -5.539913878524798 -1.839722351243607 13.000000000000000
-2.189209567904934 -5.522461398556959 -1.948662507783686 11.000000000000000
-2.219543618042733 -5.534787371072093 -2.069081652479345 5.000000000000000
-2.242425579752097 -5.527165730827615 -2.184003320335917 12.000000000000000
-2.264794866275129 -5.517510951263850 -2.299008724728402 8.000000000000000
-2.301026761244492 -5.539705250785998 -2.429758337458837 7.000000000000000
-2.322357159829203 -5.525291619242292 -2.546360882616781 11.000000000000000
-2.349335387355385 -5.521840978986083 -2.669928733226738 5.000000000000000
-2.360635223699534 -5.482667459892483 -2.777915561147450 11.000000000000000
-2.379289208489754 -5.457849270924706 -2.894004871839514 38.000000000000000
-2.435518159152050 -5.519168075474563 -3.059204316665203 4.000000000000000
-2.368050835627864 -5.301940185560910 -3.069265304371148 2.000000000000000
-2.246835455207076 -4.907947222289077 -3.090660851735327 3.000000000000000
-1.987002487044709 -4.123560883578579 -3.049273152064077 71.000000000000000
-1.999087197771872 -5.548977237132123 -0.961809751195193 6.000000000000000
-2.018340274364400 -5.535892662904790 -1.065992008260640 29.000000000000000
-2.039716758353983 -5.528509515382342 -1.170983383322250 31.000000000000000
-2.065738137624069 -5.533811589418765 -1.280465243409595 3.000000000000000
-2.094260474720439 -5.544349098811572 -1.392124324380206 19.000000000000000
-2.113438899454666 -5.531366661431282 -1.498340039870253 19.000000000000000
-2.140516211524244 -5.537982180147126 -1.611225533739700 4.000000000000000
-2.167361535376367 -5.542415460558685 -1.724700216713345 17.000000000000000
-2.186168653234811 -5.527028543903720 -1.833309055911475 14.000000000000000
-2.214468816980238 -5.534299700770865 -1.950804623910261 4.000000000000000
-2.239365704963664 -5.532417315480282 -2.066266170367833 14.000000000000000
-2.260971977397462 -5.521247433128280 -2.179847815696728 11.000000000000000
-2.294909914810605 -5.539141851891872 -2.306311346614736 4.000000000000000
-2.317090784234388 -5.526824544757551 -2.422518678788992 11.000000000000000
-2.341414827535197 -5.519211193684127 -2.542091344721929 6.000000000000000
-2.371444519068465 -5.522424335271488 -2.668867991149318 9.000000000000000
-2.371228701709547 -5.456556346474957 -2.763488245303880 4.000000000000000
-2.411698124354020 -5.481315288816056 -2.905379641557820 7.000000000000000
-2.461097627760524 -5.525898577835268 -3.061999897797139 8.000000000000000
-2.387230189834005 -5.295821278381269 -3.064968679805600 2.000000000000000
-2.269314845321440 -4.911629724037663 -3.092560037695863 3.000000000000000
-2.005776258894712 -4.124498451299321 -3.050153787021867 70.000000000000000
-2.014602918312455 -5.539821809456233 -0.957357509502071 32.000000000000000
-2.033957727219626 -5.526717288209220 -1.061446173902804 40.000000000000000
-2.059561624029303 -5.530340680589111 -1.168671841642018 4.000000000000000
-2.088529353272075 -5.542868980012463 -1.279940862280955 22.000000000000000
-2.108951066049072 -5.531432774409229 -1.386353801596802 20.000000000000000
-2.129624017253940 -5.522074282613261 -1.493389822664008 4.000000000000000
-2.163889470631443 -5.546640015602043 -1.611394084701982 16.000000000000000
-2.183884938052734 -5.533054939723630 -1.719538778668964 16.000000000000000
-2.205632184082037 -5.524758819224909 -1.830410516233473 4.000000000000000
-2.236974380254571 -5.538997437166711 -1.950412523838298 15.000000000000000
-2.257758838890225 -5.526487661736873 -2.062114242733214 15.000000000000000
-2.288108525891319 -5.536115213451585 -2.183887294970455 4.000000000000000
-2.313663984620696 -5.533097519045521 -2.302078802083325 11.000000000000000
-2.335976100973070 -5.520737911752915 -2.418256513568552 9.000000000000000
-2.366248953121532 -5.526622465581926 -2.544031056173727 6.000000000000000
-2.367401841099728 -5.462541545752242 -2.638596669384754 41.000000000000000
-2.369997937770283 -5.403848708069680 -2.735606864163462 4.000000000000000
-2.453059992752396 -5.524400427332313 -2.927140685113746 10.000000000000000
-2.476500903218843 -5.509748528713160 -3.052120316550353 8.000000000000000
-2.410782789742859 -5.299312480594958 -3.066237690344658 1.000000000000000
-2.291842018200448 -4.915238482496142 -3.094418656840072 3.000000000000000
-2.023108707273323 -4.122384722717912 -3.048789818347081 71.000000000000000
-2.030075358040354 -5.530625990063825 -0.952887295910626 29.000000000000000
-2.052273505789332 -5.524882511371387 -1.058296127262007 6.000000000000000
-2.086334781635985 -5.550475475828011 -1.170198774212196 13.000000000000000
-2.104440757377039 -5.533572992676485 -1.275160787278125 16.000000000000000
-2.123574344916476 -5.518481953190125 -1.380569785967906 11.000000000000000
-2.157021003258185 -5.541658919750807 -1.496228862390164 10.000000000000000
-2.180259007574573 -5.537251083416143 -1.606305418996240 13.000000000000000
-2.201785523353606 -5.527221741086200 -1.715466214769187 6.000000000000000
-2.232242195683607 -5.540164657324553 -1.833350580096874 10.000000000000000
-2.253785113760757 -5.529532876842605 -1.945024119363860 14.000000000000000
-2.277570893746311 -5.524002142069438 -2.059240432385659 4.000000000000000
-2.308126637950466 -5.533538522630423 -2.181032517352413 13.000000000000000
-2.329490436084203 -5.520117155642376 -2.294959018408595 10.000000000000000
-2.363581451114006 -5.535072807627535 -2.422931228535397 4.000000000000000
-2.361921438779241 -5.466297249377223 -2.514799693511594 35.000000000000000
-2.390813119047865 -5.466405786782658 -2.639127962797126 44.000000000000000
-2.378701349661820 -5.374430417257200 -2.719531867652527 2.000000000000000
-2.474130402629180 -5.521305614162665 -2.924425253926283 7.000000000000000
-2.500661798379067 -5.513080558730805 -3.053036737917186 4.000000000000000
-2.403361151939633 -5.235155544638927 -3.028376726364094 2.000000000000000
-2.367968129708679 -5.097513130193362 -3.077426006290038 1.000000000000000
-2.311457054802882 -4.912483267426389 -3.092277224159848 2.000000000000000
-2.041924381426897 -4.123206434461149 -3.049608748569651 70.000000000000000
-2.046876293673003 -5.525093074421236 -0.949035277206262 15.000000000000000
-2.080266545748915 -5.548800683773723 -1.060048145317058 6.000000000000000
-2.100716639135082 -5.537482717095171 -1.164719176425491 22.000000000000000
-2.121709280330281 -5.527886712695292 -1.271201880649646 17.000000000000000
-2.153644361976380 -5.545444422757549 -1.384747672406256 5.000000000000000
-2.174627209537776 -5.535863031771695 -1.492193349737701 14.000000000000000
-2.198009807826956 -5.531408875131132 -1.602237417119277 11.000000000000000
-2.228267262637069 -5.542738396230034 -1.718002350760096 7.000000000000000
-2.250324757764881 -5.534215539018580 -1.829207711627009 14.000000000000000
-2.271997167579449 -5.523542468533038 -1.940852253218393 6.000000000000000
-2.307555270552039 -5.545903647700188 -2.065440728700114 11.000000000000000
-2.328145016503171 -5.530901601674629 -2.178146977300768 11.000000000000000
-2.351102888956947 -5.520849639151993 -2.293536672349849 4.000000000000000
-2.383959031407347 -5.532264979576922 -2.420092463588550 5.000000000000000
-2.382242317938251 -5.463479954362555 -2.512037485170698 44.000000000000000
-2.432001093000907 -5.510365960193858 -2.659002382168774 6.000000000000000
-2.412393330274238 -5.401380043166279 -2.731978779078165 1.000000000000000
-2.487778074405902 -5.501734359810651 -2.912987347480958 5.000000000000000
-2.523381172822882 -5.513085006840482 -3.052111591012641 7.000000000000000
-2.364231793050844 -5.103591246319468 -2.951553560282940 28.000000000000000
-2.383608480017396 -5.085040332854331 -3.069328171967585 1.000000000000000
-2.335547073984273 -4.919092632026998 -3.096036747640636 3.000000000000000
-2.063748707867216 -4.129936279399486 -3.054809912069213 68.000000000000000
-2.074721374403522 -5.549107828540396 -0.950228144092173 3.000000000000000
-2.095877339844451 -5.539462404479356 -1.055419559078912 28.000000000000000
-2.117838559716239 -5.531788174439662 -1.160765018472111 29.000000000000000
-2.147432893257739 -5.544035888990813 -1.272241341309321 3.000000000000000
-2.173945751898140 -5.546894711108100 -1.382524839445936 17.000000000000000
-2.190781365890504 -5.526409974638469 -1.487163003535042 18.000000000000000
-2.222927683092244 -5.543444752141955 -1.603330532264626 4.000000000000000
-2.249083344448765 -5.543906736719911 -1.716070570890006 17.000000000000000
-2.265480238436021 -5.521136839705035 -1.822703290858880 11.000000000000000
-2.300397466836704 -5.542100813904620 -1.945290225927490 6.000000000000000
-2.324519844236073 -5.536294746385415 -2.059891253172838 13.000000000000000
-2.346693075775330 -5.524742793640927 -2.173868595895525 6.000000000000000
-2.378640855921351 -5.535248876297728 -2.297779701360966 9.000000000000000
-2.342155150270788 -5.386394263345525 -2.354708069349244 1.000000000000000
-2.407017624599570 -5.470726283333817 -2.513896594473926 12.000000000000000
-2.460112235712740 -5.524061441170337 -2.664255427295129 10.000000000000000
-2.441817021189243 -5.418263162344007 -2.739322897837419 1.000000000000000
-2.383124295058108 -5.223114094033656 -2.764449629675094 1.000000000000000
-2.366290327069307 -5.123634824483188 -2.835646711662323 15.000000000000000
-2.378187796021947 -5.087833936608601 -2.941728852281613 49.000000000000000
-2.399179138263063 -5.072530218282669 -3.061215550583215 1.000000000000000
-2.355198163722403 -4.916207901739482 -3.093826995239535 3.000000000000000
-2.081137182873281 -4.127650018290324 -3.053354442669595 68.000000000000000
-2.090175552314534 -5.539754013927940 -0.945678394421644 33.000000000000000
-2.112848900382953 -5.533762915486017 -1.051472072545077 29.000000000000000
-2.137768453376125 -5.533369261822085 -1.158320617131696 4.000000000000000
-2.168998757759590 -5.549159666695270 -1.270722386030794 20.000000000000000
-2.187104623784557 -5.530160434726231 -1.375759764933103 21.000000000000000
-2.212656280385920 -5.531328700626096 -1.485986201315060 3.000000000000000
-2.240691333831594 -5.537482797641182 -1.599200616658203 17.000000000000000
-2.264095086406532 -5.530772629031913 -1.709702771145095 18.000000000000000
-2.295204515324388 -5.543375656942271 -1.827842049755501 5.000000000000000
-2.320115072002426 -5.539490613179465 -1.942280566541245 13.000000000000000
-2.339961665309023 -5.523156790636871 -2.053026661036344 10.000000000000000
-2.375591496036923 -5.542735547824925 -2.179080469105025 6.000000000000000
-2.395884263992109 -5.525539285554622 -2.292005714946518 10.000000000000000
-2.297881771089008 -5.237388819136954 -2.288033593126654 3.000000000000000
-2.454310201002376 -5.528453193650877 -2.538930231980999 10.000000000000000
-2.479333964067121 -5.517616033884886 -2.659789540027485 9.000000000000000
-2.456337778154441 -5.401957977202505 -2.729886212308038 1.000000000000000
-2.365465503121154 -5.138304505958883 -2.718561339677001 1.000000000000000
-2.374066736220839 -5.094795330621491 -2.818831614525278 39.000000000000000
-2.396586994028120 -5.081666004770941 -2.937454918123953 42.000000000000000
-2.425270710495556 -5.082175952685363 -3.066479017824677 1.000000000000000
-2.374849519340074 -4.913264024581895 -3.091587033424671 3.000000000000000
-2.100042662316469 -4.128287512748569 -3.054073841369097 67.000000000000000
-2.108397008991092 -5.537743749659803 -0.942367346410728 16.000000000000000
-2.129798822954498 -5.528015362292020 -1.047501373748529 7.000000000000000
-2.163426300815496 -5.549519447877042 -1.158897984541460 17.000000000000000
-2.180562079332995 -5.528733319671479 -1.263341956134345 14.000000000000000
-2.203062078425416 -5.520640097612779 -1.370784589654349 8.000000000000000
-2.237483297141718 -5.543373640387268 -1.486700096882839 12.000000000000000
-2.256971526194726 -5.527892611976256 -1.594014680109494 18.000000000000000
-2.286380226593792 -5.535379135264479 -1.708808733685421 4.000000000000000
-2.316238503047950 -5.544312492673216 -1.825934878517280 18.000000000000000
-2.335387016950276 -5.526301298847003 -1.935556104953306 13.000000000000000
-2.371700578032013 -5.548270359503864 -2.060366080582155 5.000000000000000
-2.394173715537515 -5.536444282030202 -2.174732381651672 11.000000000000000
-2.414579426867850 -5.519210459892758 -2.287631546109837 6.000000000000000
-2.359375299768849 -5.329846416889580 -2.326856542034756 8.000000000000000
-2.459792105639327 -5.491699139945212 -2.520563300803901 5.000000000000000
-2.503068504217262 -5.521124270876676 -2.660119329791813 3.000000000000000
-2.448027493188013 -5.336061547193487 -2.695405082201684 1.000000000000000
-2.370014264663922 -5.102695603508866 -2.698727471090924 26.000000000000000
-2.390788266079939 -5.085381095135803 -2.812772046222348 36.000000000000000
-2.495715471008698 -5.245161194407902 -3.031236106350890 2.000000000000000
-2.446880896969759 -5.082230556803307 -3.065959302329242 1.000000000000000
-2.399079313406095 -4.919649606450063 -3.095223771836647 3.000000000000000
-2.118973754370023 -4.128864562364162 -3.054760817796446 69.000000000000000
-2.125202438492196 -5.531990192756838 -0.938402420430058 18.000000000000000
-2.158145700590777 -5.551593311206500 -1.049058073696966 7.000000000000000
-2.180573237587422 -5.543648659358989 -1.154852326968600 17.000000000000000
-2.199246719923119 -5.526468208136817 -1.260104364471629 14.000000000000000
-2.229166509732608 -5.536391621597254 -1.372064314889895 6.000000000000000
-2.253615967626875 -5.533755635926402 -1.481586862897333 17.000000000000000
-2.276150554067884 -5.525408026547862 -1.590867937755026 6.000000000000000
-2.313151153651268 -5.550565087269954 -1.711158365652254 14.000000000000000
-2.332834832701103 -5.534599943917921 -1.820511220542230 15.000000000000000
-2.358056292378190 -5.530589071190184 -1.934944714354216 4.000000000000000
-2.390128935170814 -5.541969893504349 -2.056022707255594 14.000000000000000
-2.409721793545679 -5.523200697824368 -2.167651016483832 10.000000000000000
-2.446844155016326 -5.543626610168590 -2.295987301378896 4.000000000000000
-2.451825444868164 -5.489883541735411 -2.395102228732564 13.000000000000000
-2.378414694707351 -5.263265303189509 -2.414287035180692 2.000000000000000
-2.525323982728942 -5.521222272084729 -2.658801873869051 9.000000000000000
-2.367486772180265 -5.115149628346248 -2.582682842158658 18.000000000000000
-2.386577546236408 -5.093242416446322 -2.692735654146583 47.000000000000000
-2.433531250307800 -5.130885339081891 -2.837083941474039 12.000000000000000
-2.548456036413521 -5.309040155278319 -3.067419837601279 1.000000000000000
-2.470049617059122 -5.085379342881451 -3.067310846370271 1.000000000000000
-2.421840518313253 -4.922826698015910 -3.096847720692441 3.000000000000000
-2.139467187966994 -4.132349667483606 -3.057611874856049 68.000000000000000
-2.151981989832803 -5.551977915256821 -0.938775129589495 4.000000000000000
-2.175141771880052 -5.545718717758077 -1.045019701120618 19.000000000000000
-2.194800490517309 -5.530428405132150 -1.149266053850217 23.000000000000000
-2.223764480089290 -5.538674105250364 -1.260143123983261 4.000000000000000
-2.250982708271090 -5.541209989866317 -1.370607418362488 19.000000000000000
-2.271178731532540 -5.527687412326550 -1.477414986062093 12.000000000000000
-2.304231879945382 -5.544285670204694 -1.593849381405364 7.000000000000000
-2.329596649666533 -5.540821963855992 -1.705806382539795 16.000000000000000
-2.350883037759226 -5.528367615482495 -1.816225881012695 5.000000000000000
-2.386790791411668 -5.548795886709036 -1.939182798416218 14.000000000000000
-2.405511404166255 -5.528671660982679 -2.049079927546295 14.000000000000000
-2.437333150031928 -5.537487339423870 -2.171364796959686 4.000000000000000
-2.464073307403384 -5.533738002779971 -2.290122802893087 10.000000000000000
-2.478202417126486 -5.500361007305347 -2.398042028210378 13.000000000000000
-2.376644169502800 -5.213338540314957 -2.389963965342374 3.000000000000000
-2.390967235743311 -5.181787849179249 -2.494059815581873 12.000000000000000
-2.380833162579473 -5.099062556607586 -2.573429325970375 45.000000000000000
-2.404636627140991 -5.087008968589378 -2.688449077982180 37.000000000000000
-2.632665160624234 -5.502346920213172 -3.041563499527177 6.000000000000000
-2.583119487939268 -5.334359112931047 -3.081315719837530 1.000000000000000
-2.493263595740308 -5.088451663123635 -3.068620588181343 1.000000000000000
-2.444647393096569 -4.925928525246898 -3.098430455502442 3.000000000000000
-2.158460190369964 -4.132801468130328 -3.058231127892046 69.000000000000000
-2.167382683367046 -5.542421689263230 -0.934125324688927 31.000000000000000
-2.189215962430041 -5.532468204503785 -1.039581182975229 31.000000000000000
-2.216260156689848 -5.535407944168413 -1.147446647782071 3.000000000000000
-2.245433819310244 -5.543535774697616 -1.258484039527523 21.000000000000000
-2.268408000322867 -5.535130350926557 -1.366438122390788 22.000000000000000
-2.299128529974939 -5.546683787117566 -1.479919919584307 3.000000000000000
-2.323479115578868 -5.541661003442744 -1.590626958903568 16.000000000000000
-2.344492868589911 -5.527492756742621 -1.699346054601273 10.000000000000000
-2.380986189194950 -5.550240101824429 -1.821154463235576 9.000000000000000
-2.398981981834897 -5.528454395521923 -1.929938197835838 11.000000000000000
-2.426913801128044 -5.529212426876980 -2.047260447613688 5.000000000000000
-2.458945886416486 -5.537905942035755 -2.169626443616625 14.000000000000000
-2.478187758573687 -5.516976390017095 -2.281414680685971 10.000000000000000
-2.500055081667218 -5.500590143026718 -2.396504259764046 9.000000000000000
-2.366834423998688 -5.146689834376359 -2.358002238782196 1.000000000000000
-2.376499068893956 -5.105703691665398 -2.456171408607406 41.000000000000000
-2.397187768769836 -5.089532920898272 -2.567489327797293 46.000000000000000
-2.445981955385357 -5.129608817801089 -2.709963403861118 1.000000000000000
-2.671042216195606 -5.534183782671741 -3.058241216600475 5.000000000000000
-2.607080526820273 -5.337211808789193 -3.082233805991319 1.000000000000000
-2.513404146830046 -5.085138181720890 -3.066084354270426 1.000000000000000
-2.462817460786603 -4.919602000374462 -3.094089577364597 3.000000000000000
-2.177478054503566 -4.133192368873958 -3.058817772283505 74.000000000000000
-2.185639459657136 -5.540178207658572 -0.930693064213286 13.000000000000000
-2.207605952957605 -5.530165210000866 -1.036187582709920 5.000000000000000
-2.240707301955696 -5.547600394397870 -1.147094002703800 16.000000000000000
-2.259744037015322 -5.530204719067507 -1.252680586732773 24.000000000000000
-2.285810273691278 -5.529001344053136 -1.362245033078123 4.000000000000000
-2.319721867832563 -5.547655579454104 -1.477589938938120 17.000000000000000
-2.341219166575813 -5.535415962061763 -1.586353977209976 17.000000000000000
-2.372948600071436 -5.545982067428930 -1.702651417400441 5.000000000000000
-2.397557478076425 -5.540357826741850 -1.815645695332693 13.000000000000000
-2.418696707838588 -5.525546306049523 -1.926776649015980 7.000000000000000
-2.452940178848568 -5.540079126665067 -2.049249557589406 10.000000000000000
-2.477500716620563 -5.531380199958689 -2.165160336476161 10.000000000000000
-2.503023790864215 -5.524055490133882 -2.282560589401619 3.000000000000000
-2.526579337742126 -5.510892581502882 -2.399345703568176 10.000000000000000
-2.364357249796137 -5.096891630416397 -2.333788015893415 1.000000000000000
-2.392696797532976 -5.096138441053679 -2.450301006956170 50.000000000000000
-2.429116969072655 -5.112840692576609 -2.578109928396386 6.000000000000000
-2.486084542745567 -5.168780752755501 -2.729650742543055 1.000000000000000
-2.692421299757099 -5.530436510926842 -3.055251797024534 8.000000000000000
-2.624805887397045 -5.327240937758335 -3.075750647331073 1.000000000000000
-2.536684647593049 -5.088064972379561 -3.067315737825159 1.000000000000000
-2.487252452654197 -4.925678305310775 -3.097555886397604 3.000000000000000
-2.198091721328746 -4.136478970152663 -3.061560143800999 81.000000000000000
-2.200973187754671 -5.530534514576537 -0.926002705105502 16.000000000000000
-2.234829090746699 -5.549742026846789 -1.036863718433032 6.000000000000000
-2.259314148318073 -5.545150240839995 -1.143688937483410 22.000000000000000
-2.278462434535816 -5.527700700662399 -1.249318973803544 9.000000000000000
-2.310696492726630 -5.540824408582177 -1.362454620073941 12.000000000000000
-2.335807544035099 -5.537822204447120 -1.472369637408063 17.000000000000000
-2.361971540464314 -5.536236641823771 -1.584092891141332 4.000000000000000
-2.393911794524175 -5.546688055852034 -1.700474619365553 17.000000000000000
-2.414081760298898 -5.530432428350240 -1.810117788997238 13.000000000000000
-2.449185985568226 -5.546983866764265 -1.932085399239165 5.000000000000000
-2.471329393739222 -5.533549825651009 -2.044791763157858 11.000000000000000
-2.494479559589975 -5.521368198860276 -2.159326038235600 5.000000000000000
-2.531040440365094 -5.537860629181826 -2.286471067167555 9.000000000000000
-2.550070816131294 -5.514347230578348 -2.399195167827821 9.000000000000000
-2.386612656659041 -5.100700378453015 -2.334127604978816 2.000000000000000
-2.413558718747776 -5.096478661056176 -2.449192431916209 29.000000000000000
-2.580829591897917 -5.385600693326036 -2.714447234637311 1.000000000000000
-2.515446411197464 -5.185030834794932 -2.737222057966719 0.000000000000000
-2.710637822462338 -5.520191131524908 -3.048676510696138 6.000000000000000
-2.658296317104346 -5.349044180786512 -3.087614458196394 1.000000000000000
-2.560009477939374 -5.090914671365606 -3.068505056494936 1.000000000000000
-2.508587772886882 -4.925451596485779 -3.097064732355160 3.000000000000000
-2.210839692701891 -4.124932790605905 -3.053336097804824 75.000000000000000
-2.226570272700304 -5.546529595259409 -0.925579963935473 3.000000000000000
-2.250318816769814 -5.539999177819672 -1.032036013251993 22.000000000000000
-2.271945555982027 -5.528105421833630 -1.137264189072677 19.000000000000000
-2.306200563376719 -5.546835353650494 -1.250820738944597 6.000000000000000
-2.331134266343644 -5.541768981525455 -1.359965289145572 17.000000000000000
-2.353368116575230 -5.531522758696630 -1.468079860875549 7.000000000000000
-2.388863097203746 -5.551206423555059 -1.585857605808035 19.000000000000000
-2.407210725463731 -5.529671512600013 -1.692857195971433 17.000000000000000
-2.438279865913548 -5.538000484379433 -1.810303270309640 3.000000000000000
-2.468978241891362 -5.543927606569419 -1.928843470628066 13.000000000000000
-2.489693917383449 -5.526968416466071 -2.040308878853983 10.000000000000000
-2.523912878326550 -5.538748457388055 -2.164192530344479 5.000000000000000
-2.548193347909810 -5.527751490660367 -2.280498655814180 10.000000000000000
-2.570459965210035 -5.510978435231653 -2.396069334068631 6.000000000000000
-2.440464594902785 -5.171290320479537 -2.365001687597839 5.000000000000000
-2.624263079360953 -5.494159714141374 -2.638929390076389 7.000000000000000
-2.626683965936833 -5.434583145758436 -2.737922821214779 1.000000000000000
-2.538590573453214 -5.188184492359553 -2.737875741083648 0.000000000000000
-2.741533856385156 -5.535600057217243 -3.056270295773984 4.000000000000000
-2.674446257895456 -5.335761340146361 -3.079227847144232 1.000000000000000
-2.578597233338938 -5.084260115525994 -3.063971179023782 1.000000000000000
-2.528349418463599 -4.922051583874866 -3.094585177989079 3.000000000000000
-2.228302658365485 -4.122203707670036 -3.051650021741141 75.000000000000000
-2.241892005815815 -5.536778669466081 -0.920835598575855 31.000000000000000
-2.267257760695515 -5.533864216213225 -1.027868222624254 33.000000000000000
-2.298030862054782 -5.543710605257009 -1.137537200360812 4.000000000000000
-2.324985073872048 -5.544193030794419 -1.247384481049355 19.000000000000000
-2.345497464999615 -5.528279344824875 -1.353922127473743 15.000000000000000
-2.381632960196083 -5.550174332824339 -1.470389512396477 7.000000000000000
-2.405081959810173 -5.541228057708518 -1.580477263063137 15.000000000000000
-2.426611269557486 -5.526736785623694 -1.689544982795807 5.000000000000000
-2.462544967393873 -5.545484391955184 -1.810441698079382 15.000000000000000
-2.482519425167094 -5.526898470149114 -1.920735953829004 14.000000000000000
-2.514307573705370 -5.534144432393975 -2.040893634222662 4.000000000000000
-2.544036271176640 -5.535465683493833 -2.160970873889743 12.000000000000000
-2.568457144164064 -5.524392685222618 -2.277307479909423 6.000000000000000
-2.598769728366707 -5.524390649806791 -2.400229957160800 9.000000000000000
-2.502767600547039 -5.258332110086583 -2.403351359598591 12.000000000000000
-2.665671204331431 -5.533557416515377 -2.656464445183842 4.000000000000000
-2.652146840934965 -5.440787555322181 -2.739832825551583 0.000000000000000
-2.561778885704618 -5.191261095323453 -2.738487389224050 0.000000000000000
-2.764550918603992 -5.534851719381919 -3.054942661147804 8.000000000000000
-2.696941541396223 -5.335135464466561 -3.078150726992188 1.000000000000000
-2.600370171587767 -5.083829216785489 -3.063193670872749 1.000000000000000
-2.551322636588081 -4.924794322560045 -3.095974432147914 2.000000000000000
-2.248977383947414 -4.125310555688968 -3.054296898733687 73.000000000000000
-2.260158181020736 -5.534308741746856 -0.917287167570423 23.000000000000000
-2.288690688590742 -5.538612718508362 -1.025701753111232 4.000000000000000
-2.318162696582557 -5.544712867485820 -1.134784970516556 26.000000000000000
-2.340716668776482 -5.534278057254247 -1.242299425060674 25.000000000000000
-2.373609626792688 -5.547048861018578 -1.355758928817943 3.000000000000000
-2.397681089584128 -5.540179060149535 -1.465088862196175 16.000000000000000
-2.419701749707867 -5.527662007415891 -1.574068668842503 11.000000000000000
-2.453809955723096 -5.541357122469666 -1.691579718029546 9.000000000000000
-2.477474519390302 -5.531889937023959 -1.803687814014622 12.000000000000000
-2.505409595901050 -5.530687017959607 -1.919856209756350 4.000000000000000
-2.537407851706833 -5.537786836445590 -2.040160373153655 15.000000000000000
-2.559400018563113 -5.521858288716441 -2.153715065720783 10.000000000000000
-2.596673882816491 -5.537939270765309 -2.281073733927537 5.000000000000000
-2.622403384906430 -5.527606241614950 -2.399948692053800 11.000000000000000
-2.525676204755067 -5.261727781386214 -2.403440131004423 14.000000000000000
-2.688117029676304 -5.533143046814417 -2.654873793281614 10.000000000000000
-2.679283849537528 -5.450175749616510 -2.743340728363772 0.000000000000000
-2.583399422452709 -5.191022098725891 -2.737349264271998 0.000000000000000
-2.781130364697087 -5.521212792777259 -3.046504093454103 7.000000000000000
-2.724303887415716 -5.343946986479562 -3.082520873361219 1.000000000000000
-2.625396850904944 -5.089596973949250 -3.066155576291757 1.000000000000000
-2.572721634994061 -4.924363496531270 -3.095375186122647 3.000000000000000
-2.269698449174731 -4.128347686118065 -3.056905352204649 69.000000000000000
-2.278423388188631 -5.531783098821068 -0.913710354408127 10.000000000000000
-2.313200799344489 -5.550568062414188 -1.024839619852601 11.000000000000000
-2.335261046278873 -5.538405680060579 -1.130519512792771 20.000000000000000
-2.361013358790603 -5.535133256412169 -1.239617583520145 4.000000000000000
-2.395669219641825 -5.551375596896273 -1.354036178336929 19.000000000000000
-2.413682348704231 -5.530142260125285 -1.459769879922872 17.000000000000000
-2.449885991175385 -5.549477098334647 -1.577715616105094 4.000000000000000
-2.476406496291735 -5.545320791949350 -1.690338480748259 13.000000000000000
-2.495490443074122 -5.525250643602324 -1.799196702391883 7.000000000000000
-2.531513575267256 -5.541338509184929 -1.921340819548088 9.000000000000000
-2.554185888022294 -5.527576027629386 -2.034315046447994 14.000000000000000
-2.589067248770262 -5.538968294502645 -2.158429293222190 3.000000000000000
-2.616989672515939 -5.534436651036564 -2.277805963994319 11.000000000000000
-2.639649605548805 -5.517302615873332 -2.393793183381411 6.000000000000000
-2.547016715818736 -5.261716561955089 -2.401966833865000 15.000000000000000
-2.707349625879810 -5.526058956783319 -2.650081208077086 9.000000000000000
-2.701650278493037 -5.449665978332481 -2.741862596361089 0.000000000000000
-2.609909746820278 -5.200416316234770 -2.741288976246705 0.000000000000000
-2.807390179993713 -5.526735784562120 -3.048641655707572 3.000000000000000
-2.750126933839673 -5.349496285148068 -3.085010752486388 1.000000000000000
-2.650489510891906 -5.095278440833861 -3.069069396906111 1.000000000000000
-2.594141313295308 -4.923864371899597 -3.094739810354383 3.000000000000000
-2.290465557474305 -4.131314866935739 -3.059475281851392 71.000000000000000
-2.307306181880129 -5.554766048184315 -0.914313038842027 6.000000000000000
-2.330158695986712 -5.544256146956099 -1.020580339050783 18.000000000000000
-2.352335605994450 -5.532050022853808 -1.126230767389126 13.000000000000000
-2.389072583710007 -5.553920092219563 -1.240922156706470 13.000000000000000
-2.409982876420945 -5.537729540076741 -1.347916197810260 17.000000000000000
-2.434336101883472 -5.530741199386221 -1.457245870976703 4.000000000000000
-2.467628839185873 -5.542876655305856 -1.573261038761065 15.000000000000000
-2.491132904020627 -5.531636523073637 -1.683707287833478 16.000000000000000
-2.529379370102025 -5.553465784433778 -1.806032608572058 5.000000000000000
-2.549723461580458 -5.534568060309791 -1.916770892742498 16.000000000000000
-2.575723999647124 -5.527640818493074 -2.032244291262996 5.000000000000000
-2.612434359708742 -5.542315355476960 -2.157763475605580 12.000000000000000
-2.637302365592997 -5.530872473885018 -2.274506959773611 9.000000000000000
-2.673037127322472 -5.540512587945418 -2.402167516801023 6.000000000000000
-2.571624919424235 -5.268288825682505 -2.403492068425682 14.000000000000000
-2.733066676435734 -5.532099859017869 -2.651579471185243 3.000000000000000
-2.724035994379039 -5.449084944457999 -2.740346906763550 0.000000000000000
-2.626701878000333 -5.190336811729158 -2.734963441239887 0.000000000000000
-2.838625265840356 -5.541756532248383 -3.056016547307154 8.000000000000000
-2.771098466199167 -5.345473432921098 -3.081983625615712 1.000000000000000
-2.665810837656507 -5.082120084927353 -3.060641112612046 1.000000000000000
-2.615581397315606 -4.923296820294438 -3.094068256082146 3.000000000000000
-2.309639206601288 -4.131279801902259 -3.059834952039831 69.000000000000000
-2.322590151138036 -5.544804021728314 -0.909463221060702 28.000000000000000
-2.347092798941236 -5.537896155214718 -1.016297971667868 25.000000000000000
-2.381783257346103 -5.554557121228165 -1.127788855255829 5.000000000000000
-2.404788186134679 -5.543837441644060 -1.235752483490338 17.000000000000000
-2.424227135474127 -5.524050948847664 -1.341783853743264 11.000000000000000
-2.462899223747139 -5.549047552129719 -1.459361051237465 13.000000000000000
-2.485346804960485 -5.536225910926291 -1.568782305567306 16.000000000000000
-2.512164928092607 -5.531959056810475 -1.681330534973424 4.000000000000000
-2.545857494287550 -5.543195489945964 -1.800331463654022 15.000000000000000
-2.566299866537407 -5.524284655090247 -1.910978818444755 9.000000000000000
-2.605353151019680 -5.544813765845366 -2.036445742111376 10.000000000000000
-2.627743703608162 -5.528541789871549 -2.150426168412102 12.000000000000000
-2.665738982478833 -5.544149605605742 -2.278122215324364 4.000000000000000
-2.690299419611242 -5.530076361655472 -2.395943335535876 10.000000000000000
-2.596299333974086 -5.274775392306701 -2.404969506900537 15.000000000000000
-2.757209171031350 -5.534761374336297 -2.651452076944935 8.000000000000000
-2.748083320384816 -5.451691154926080 -2.740431647664928 0.000000000000000
-2.658259127449937 -5.209243492014427 -2.743909738354092 0.000000000000000
-2.853507990982488 -5.524744679844636 -3.045728873016685 7.000000000000000
-2.795366075674879 -5.347700902294818 -3.082563796997752 1.000000000000000
-2.690965881315618 -5.087653658010925 -3.063475621205968 1.000000000000000
-2.638693893938650 -4.925745088068244 -3.095298670801000 3.000000000000000
-2.328835739386901 -4.131182775574516 -3.060161592751388 55.000000000000000
-2.339367314588598 -5.538446408014124 -0.905191666438650 34.000000000000000
