# This PCD file was generated using the MATLAB® pcwrite function
# from Computer Vision Toolbox®.
# .PCD v.7 - Point Cloud Data file format
VERSION .7
FIELDS x y z intensity
SIZE 8 8 8 8
TYPE F F F F
COUNT 1 1 1 1
WIDTH 631
HEIGHT 1
VIEWPOINT 0 0 0 1 0 0 0
POINTS 631
DATA ascii
-5.912391185305625 -5.621326182517405 -1.214012529451261 10.000000000000000
-5.985210905053087 -5.617291018537045 -1.358562488476939 16.000000000000000
-5.427396113266097 -5.027447630636832 -1.348533184948806 6.000000000000000
-5.431758782470736 -4.965861753952361 -1.465001559618689 37.000000000000000
-5.370643358413257 -4.845235151167686 -1.562013523187503 66.000000000000000
-5.330825448098303 -4.745522663154763 -1.661896114500552 19.000000000000000
-5.268955592707246 -4.627234018796631 -1.752368767517333 29.000000000000000
-5.348230659560984 -4.633284788063516 -1.889464708543428 31.000000000000000
-5.452897553569022 -4.658495708628179 -2.038691247583563 27.000000000000000
-5.371066074386056 -4.525234773119395 -2.119149705124727 22.000000000000000
-5.311575775833569 -4.411431847066421 -2.204526215826464 21.000000000000000
-6.854161900107457 -5.611798983943647 -2.985511817247485 11.000000000000000
-5.256520649629621 -4.242435969275515 -2.398114197992812 2.000000000000000
-5.762454016934552 -4.584682229785685 -2.748529162043257 44.000000000000000
-5.798972753099406 -4.544422476506748 -2.884420802142252 38.000000000000000
-5.252883545944210 -4.054726742276879 -2.721027287296710 51.000000000000000
-5.283194290317364 -4.014859422481265 -2.845551248610962 40.000000000000000
-5.315951178013189 -3.978704719277298 -2.975020643589008 40.000000000000000
-5.550435585634069 -5.598333186775872 -0.511204792202602 39.000000000000000
-5.627940477768369 -5.603315985712070 -0.646652876711994 14.000000000000000
-5.698661618483500 -5.600129106668749 -0.782683682380374 23.000000000000000
-5.773073671007443 -5.600819663767162 -0.920682074920412 17.000000000000000
-5.854871036194236 -5.607033340909196 -1.062373881204962 19.000000000000000
-5.932674663883325 -5.607707758795732 -1.205192525889126 12.000000000000000
-6.005699167499986 -5.603468011100641 -1.349703581554773 10.000000000000000
-5.492560604068542 -5.057816854227510 -1.352039451985903 17.000000000000000
-5.407041205239598 -4.913965870363294 -1.445527180562794 0.000000000000000
-5.368912556408312 -4.814807595587278 -1.548477245269108 65.000000000000000
-5.343509734305516 -4.728307660561758 -1.652569631348454 24.000000000000000
-5.252188923993661 -4.584709920548193 -1.733436601409259 20.000000000000000
-5.334549650113784 -4.593417692992094 -1.870761857687414 25.000000000000000
-5.436521025068780 -4.616182833825893 -2.018127644297122 33.000000000000000
-5.856646916740239 -4.904074247926223 -2.294846108884843 8.000000000000000
-5.368177160057368 -4.430917936977053 -2.213155262066673 7.000000000000000
-6.885831025009487 -5.602703362758695 -2.979856057588894 8.000000000000000
-5.286477500093445 -4.239934514536621 -2.396550636528857 2.000000000000000
-5.773273153114754 -4.564377332841032 -2.736728094453561 42.000000000000000
-5.812814950468817 -4.526399532893696 -2.873909118296182 38.000000000000000
-5.265129313198587 -4.038239982958039 -2.711319817973532 46.000000000000000
-5.295508861974795 -3.998346264009575 -2.835748410178004 32.000000000000000
-5.328353803594113 -3.962159016504922 -2.965118154754188 39.000000000000000
-5.363821930578749 -3.924488985563624 -3.096130568828169 35.000000000000000
-5.592145904790878 -5.608330269817028 -0.504610507406123 3.000000000000000
-5.672825747567170 -5.615728950767338 -0.640859102496439 3.000000000000000
-5.749568660944242 -5.617705904035573 -0.778213716694653 5.000000000000000
-5.827195135296519 -5.620693710456073 -0.917334763549337 5.000000000000000
-5.900750899768400 -5.618184254775358 -1.058206264523444 4.000000000000000
-5.984641637997963 -5.623836386719473 -1.202717240315082 10.000000000000000
-6.060877328101145 -5.621794941152380 -1.348541305760797 12.000000000000000
-5.552150607568685 -5.082552338839688 -1.353953231773496 22.000000000000000
-5.370383032368353 -4.851723518468031 -1.423074483642465 2.000000000000000
-5.367026573468621 -4.784430730119913 -1.534976334790182 66.000000000000000
-5.370758289107827 -4.723935479967489 -1.647722361650739 14.000000000000000
-5.308504980535232 -4.605935732866875 -1.738600269277769 28.000000000000000
-5.344149342896469 -4.573781623348592 -1.860313270053717 45.000000000000000
-5.378709916831268 -4.539236274381437 -1.982462528251343 26.000000000000000
-5.844136501655316 -4.863564768255292 -2.274181675901424 6.000000000000000
-5.696212127101114 -4.672641743269303 -2.332717415831460 9.000000000000000
-5.528100585340235 -4.470018463557735 -2.376774043491283 0.000000000000000
-5.322368013143012 -4.242011981023523 -2.397579839238937 1.000000000000000
-5.789900765342898 -4.548690702755903 -2.727703432953029 40.000000000000000
-5.820685924610845 -4.503781085637999 -2.860487248649535 39.000000000000000
-5.289092951225554 -4.030707473688257 -2.707636056572186 18.000000000000000
-5.304810988051433 -3.979596618557109 -2.824368094745724 46.000000000000000
-5.340687615394157 -3.945584974415448 -2.955205408164128 38.000000000000000
-5.376241870858210 -3.907876480362254 -3.086115480707505 34.000000000000000
-5.697926995109043 -5.608356437425510 -0.632744837351879 23.000000000000000
-5.774913533517769 -5.610074152066763 -0.770185489804688 26.000000000000000
-5.852785344389382 -5.612799113303033 -0.909389809820599 27.000000000000000
-5.923689994766971 -5.607308403113116 -1.049840615653020 12.000000000000000
-6.004932459750040 -5.609998253879033 -1.193784631043029 16.000000000000000
-6.081380345307797 -5.607742852293119 -1.339564555465500 7.000000000000000
-5.597377157665720 -5.093750313663095 -1.352191072629575 21.000000000000000
-5.377179132942347 -4.829070393554826 -1.412274656836137 6.000000000000000
-5.370842747620161 -4.759295211855852 -1.523172106737081 67.000000000000000
-5.389215507670732 -4.711755271771300 -1.640138552323138 1.000000000000000
-5.344416554582726 -4.609135674776194 -1.736923723888726 36.000000000000000
-5.371340861621037 -4.569171549996681 -1.855972169775479 41.000000000000000
-5.370586305737628 -4.504723808354059 -1.965366668861451 27.000000000000000
-5.875710340693114 -4.859817583586953 -2.270712893901623 7.000000000000000
-5.753961681818209 -4.690848883034729 -2.340623361564091 23.000000000000000
-5.535077253262658 -4.447824706226455 -2.364324678020316 9.000000000000000
-5.352407246564781 -4.239246295863902 -2.395876355308221 1.000000000000000
-5.806471596364160 -4.532956151114576 -2.718657781459221 49.000000000000000
-5.834363446358331 -4.485709572461129 -2.849960843121941 40.000000000000000
-5.336695250613864 -4.040983714714243 -2.715936379867852 4.000000000000000
-5.322884381241817 -3.967436463978484 -2.817675241795231 43.000000000000000
-5.352952548620505 -3.928982807870277 -2.945282517463655 38.000000000000000
-5.391535680902690 -3.893360766859607 -3.077770124722043 35.000000000000000
-5.734421139489601 -5.612045902564377 -0.625826639322094 3.000000000000000
-5.808843313367105 -5.610646251558604 -0.763237840140061 3.000000000000000
-5.886998927202501 -5.613038110221549 -0.902719670948359 3.000000000000000
-5.975498385603720 -5.623544292493155 -1.046495405634917 4.000000000000000
-6.059990996428800 -5.628425766983127 -1.191666274072688 10.000000000000000
-6.133862586401682 -5.622979853390503 -1.337539285219765 12.000000000000000
-5.636874871324277 -5.099456882758051 -1.348918524568640 21.000000000000000
-5.360437672884283 -4.785500448902811 -1.395382889630627 9.000000000000000
-5.365727440030946 -4.726418395221155 -1.508907615665724 68.000000000000000
-5.360536500819159 -4.658582120993100 -1.618306845239464 0.000000000000000
-5.359745113627351 -4.594478267120620 -1.728503910873224 37.000000000000000
-5.386727456509329 -4.554459176815080 -1.847520748466286 30.000000000000000
-5.451053775079171 -4.544307387296405 -1.980582518088663 35.000000000000000
-5.874722835317703 -4.829153213300367 -2.254669565738510 7.000000000000000
-5.823752201061021 -4.718392741157206 -2.353171528136424 9.000000000000000
-5.536015269244354 -4.420895259374282 -2.349365030031597 7.000000000000000
-5.388412659677831 -4.241026873825072 -2.396746975489326 1.000000000000000
-5.817052741436401 -4.512571516518706 -2.706830565744985 28.000000000000000
-5.845001497824790 -4.465340643159593 -2.837982810196891 30.000000000000000
-5.402210244149899 -4.064417317278561 -2.733111843486838 2.000000000000000
-5.337961927199167 -3.953024264303783 -2.809395954577725 43.000000000000000
-5.371060548735407 -3.916663864338662 -2.938584141317349 39.000000000000000
-5.400874361738531 -3.874566469813742 -3.066054598292484 40.000000000000000
-5.770973100696583 -5.615576764689245 -0.618823941778870 27.000000000000000
-5.842814126814647 -5.611074670585968 -0.756214335095370 33.000000000000000
-5.924138774772126 -5.615867974922600 -0.896409875826980 15.000000000000000
-5.998468659997595 -5.612425645123458 -1.038003907982625 18.000000000000000
-6.080295188109525 -5.614359202884918 -1.182616238022113 12.000000000000000
-6.151450053837022 -5.606045248482516 -1.327818853275966 17.000000000000000
-5.688166681960897 -5.115524705471950 -1.348328886413128 22.000000000000000
-5.355208621135284 -4.752491170328455 -1.381604972511457 16.000000000000000
-5.366331812976514 -4.698767940195673 -1.496331085430468 69.000000000000000
-5.372881787023670 -4.641309275765948 -1.608971568847102 4.000000000000000
-5.369104267802201 -4.574735634682039 -1.718171479869953 33.000000000000000
-5.316125674040077 -4.467485563344161 -1.809794617939684 17.000000000000000
-5.487322337338568 -4.546606112060408 -1.979515705398705 22.000000000000000
-5.876547265619117 -4.800964764557079 -2.239793196798729 6.000000000000000
-5.554791628538312 -4.472642266915579 -2.229471936517917 7.000000000000000
-5.533839519406197 -4.391640103988145 -2.333177526572121 7.000000000000000
-5.421507280803117 -4.240323162025739 -2.396218330158346 5.000000000000000
-5.836467507077344 -4.499050810614429 -2.699128163377942 0.000000000000000
-5.614665347365116 -4.262101173964336 -2.709747335082956 8.000000000000000
-5.360975120936975 -4.007560580734635 -2.696304868600108 4.000000000000000
-5.347049456142219 -3.934199689153203 -2.797990514536467 42.000000000000000
-5.380239843880855 -3.897842533104246 -2.927019441247424 40.000000000000000
-5.419005959552005 -3.862087951582601 -3.059350758670919 49.000000000000000
-5.796116009321827 -5.607855003096240 -0.610528845126636 5.000000000000000
-5.868182901325420 -5.603107140734599 -0.748013239214990 6.000000000000000
-5.952653546148022 -5.610354658959307 -0.888718380717408 3.000000000000000
-6.044660892488379 -5.622851734025931 -1.033447179096826 5.000000000000000
-6.132648199136517 -5.629687170056553 -1.179708622045404 5.000000000000000
-6.209966131657927 -5.626196538302383 -1.326834260959429 9.000000000000000
-5.736664954024606 -5.128726052931120 -1.346918067015006 23.000000000000000
-5.364538919330049 -4.732545292992482 -1.371638885701292 19.000000000000000
-5.369752841080371 -4.673725090537451 -1.484598330791852 69.000000000000000
-5.367394042113446 -4.608756172435183 -1.594349942680612 45.000000000000000
-5.327945171472417 -4.512270613075119 -1.691824507495519 19.000000000000000
-5.378709175679373 -4.492633956212108 -1.817505911669193 16.000000000000000
-5.470084375836066 -4.504631466432886 -1.959177448026817 6.000000000000000
-5.627965584440813 -4.569608201106703 -2.130216014569445 8.000000000000000
-5.537638048346157 -4.431232229614882 -2.207697844527482 8.000000000000000
-5.537475835039078 -4.367143043233998 -2.319525601559760 5.000000000000000
-5.457633143566622 -4.241797478295481 -2.396925243592132 13.000000000000000
-5.511122380172295 -4.156878606067545 -2.643776534653035 4.000000000000000
-5.414731960803776 -4.021795840547327 -2.707334484249465 3.000000000000000
-5.362005945176997 -3.919716776025047 -2.789682533844013 42.000000000000000
-5.398251257563921 -3.885428371116823 -2.920278365692220 42.000000000000000
-5.428197754017882 -3.843245845816562 -3.047619810916208 39.000000000000000
-5.838498031119634 -5.616630416427782 -0.603969788872302 25.000000000000000
-5.916654106053983 -5.616984727540033 -0.742664634876711 11.000000000000000
-5.998587135000006 -5.621044830405213 -0.883533473269279 21.000000000000000
-6.073471992522070 -5.616895997252682 -1.025823236282357 15.000000000000000
-6.150029267864186 -5.612729275451723 -1.169988925118974 24.000000000000000
-6.224610803748926 -5.606402944024242 -1.316383823620014 16.000000000000000
-5.788234891711668 -5.144320466161987 -1.346069752946902 22.000000000000000
-5.388553843126297 -4.725541756981712 -1.365415168639564 22.000000000000000
-5.370091826984816 -4.646140617416214 -1.472071714607054 69.000000000000000
-5.364704970996097 -4.578806920934955 -1.580649156191187 63.000000000000000
-5.325089391633920 -4.482626426812266 -1.677820994251822 21.000000000000000
-5.417667148880995 -4.497686598783129 -1.817053087574026 18.000000000000000
-5.494390771844407 -4.496988944445497 -1.953780048983506 10.000000000000000
-5.536186561063698 -4.467432047874444 -2.080969307491595 15.000000000000000
-5.586034385506955 -4.442274155923437 -2.212058807434524 2.000000000000000
-5.558942224354448 -4.356735263074445 -2.313361881282926 1.000000000000000
-5.478860905512624 -4.231558772375032 -2.391018513935284 20.000000000000000
-5.616195792534791 -4.209149146954069 -2.677975406647778 4.000000000000000
-5.393943513600320 -3.980644047467659 -2.681090513102703 5.000000000000000
-5.376910046547884 -3.905190726912184 -2.781355737364698 45.000000000000000
-5.413245678151362 -3.870823240920624 -2.911905675931889 50.000000000000000
-5.857905610855876 -5.603154670528727 -0.594965202709665 17.000000000000000
-5.933377310323179 -5.600556572851608 -0.733255595021764 8.000000000000000
-6.027163295975226 -5.615257023330867 -0.875698101849263 5.000000000000000
-6.108133411346619 -5.616200569221281 -1.019115987250558 3.000000000000000
-6.190821316827695 -5.617017992351787 -1.164663168778036 4.000000000000000
-6.277454095803774 -5.620848318596846 -1.313932362948491 8.000000000000000
-5.845854143079011 -5.164892784622101 -1.346450096069110 25.000000000000000
-5.403677450961864 -4.710697825122194 -1.356912674550326 21.000000000000000
-5.367324063346306 -4.616039402193567 -1.458765449419528 67.000000000000000
-5.326136916109744 -4.518602689425434 -1.556544662375674 24.000000000000000
-5.325064144686956 -4.455533049564148 -1.664787403607727 8.000000000000000
-5.453716646439842 -4.500099147601140 -1.815511608914814 16.000000000000000
-5.533656885989117 -4.501425714717255 -1.953618182508411 7.000000000000000
-5.554605069236484 -4.454700233299287 -2.073418519319155 23.000000000000000
-5.580582441387159 -4.410433065554809 -2.195066237985116 1.000000000000000
-5.577387054769333 -4.343913493344053 -2.305919600427330 1.000000000000000
-5.518071637852107 -4.235060989667968 -2.392881069615609 19.000000000000000
-5.682727533379027 -4.231856758157071 -2.693398626237163 5.000000000000000
-5.417852572631096 -3.972601889906452 -2.677149925862632 6.000000000000000
-5.391761613157425 -3.890621685180846 -2.773010207280635 44.000000000000000
-5.425198187217200 -3.854051414000743 -2.901915286091943 52.000000000000000
-5.911961927682742 -5.622608515977783 -0.589389210695154 7.000000000000000
-5.987809928566344 -5.619525988877536 -0.728420153271611 13.000000000000000
-6.070336780759995 -5.622872308745276 -0.869895607356401 15.000000000000000
-6.148693762408810 -5.620716767054170 -1.013297607157487 26.000000000000000
-6.225798735172777 -5.615818938434557 -1.158146691849015 17.000000000000000
-6.300906480995235 -5.608765104039632 -1.305230832251341 15.000000000000000
-5.900684402963225 -5.182588309212959 -1.346003712415276 24.000000000000000
-5.403893361779449 -4.682937972003854 -1.344694941196861 17.000000000000000
-5.370360729826285 -4.591085546565058 -1.447101632803002 34.000000000000000
-5.346926205817638 -4.509001423837023 -1.549897515765572 18.000000000000000
-5.426614797615085 -4.513067502669898 -1.683332871018056 0.000000000000000
-5.483835299317301 -4.497438129650932 -1.811905262402937 14.000000000000000
-5.563998091381450 -4.498408204871050 -1.950206363811894 6.000000000000000
-5.588006962661697 -4.453880335606310 -2.071407285239633 23.000000000000000
-5.586987262513817 -4.388108734837126 -2.182819062532325 1.000000000000000
-5.433335114212794 -4.205291194356559 -2.231719406047596 7.000000000000000
-5.551343105271512 -4.233799081026030 -2.392056660921223 18.000000000000000
-5.719414143996092 -4.231992259592589 -2.694477196824246 6.000000000000000
-5.459787149438315 -3.977602526682712 -2.682019094368186 6.000000000000000
-5.406560498426651 -3.876009794621598 -2.764646025958839 49.000000000000000
-5.449070484014937 -3.845714076401400 -2.898292273530283 14.000000000000000
-5.928482221160820 -5.606167562397788 -0.579986047848485 13.000000000000000
-6.007432964036927 -5.605615136722021 -0.719258035447260 13.000000000000000
-6.093110303347461 -5.611426637825117 -0.861093444143955 5.000000000000000
-6.171690106910018 -5.609027900735125 -1.004513430992315 5.000000000000000
-6.263762852077209 -5.617118066005649 -1.152095293580597 4.000000000000000
-6.359858919695886 -5.628040191043950 -1.303772269055712 5.000000000000000
-5.976462891924738 -5.218178942757237 -1.350112522277886 24.000000000000000
-5.439721568156032 -4.686011748230890 -1.341319930657918 8.000000000000000
-5.319515400120142 -4.520467198327493 -1.421094021073134 21.000000000000000
-5.364701898549679 -4.496815192363866 -1.542352315595558 27.000000000000000
-5.456596999341791 -4.510570240977814 -1.679428857671409 0.000000000000000
-5.519992334432660 -4.499550085628189 -1.810203760555151 6.000000000000000
-5.600385857039399 -4.500100487162679 -1.948822685036095 9.000000000000000
-5.621453115115957 -4.452917480738057 -2.069320367727178 25.000000000000000
-5.587256934523601 -4.361082115020356 -2.168240469520737 1.000000000000000
-5.418073336801862 -4.167267443099654 -2.210931788798203 27.000000000000000
-5.569573662933744 -4.220962167846507 -2.384697798624244 14.000000000000000
-5.753144772911457 -4.229751386950952 -2.694058727368068 6.000000000000000
-5.489764126393284 -3.973689605531761 -2.680899989826963 5.000000000000000
-5.421306556296543 -3.861355199447893 -2.756263275950400 53.000000000000000
-5.593157023288634 -3.921574741168128 -2.958205885713359 2.000000000000000
-5.982734900820958 -5.625212337413728 -0.574189224478484 7.000000000000000
-6.059148320719415 -5.621454722868567 -0.713851823743387 9.000000000000000
-6.142267434935944 -5.624083486366362 -0.855932062786879 17.000000000000000
-6.221180682735534 -5.621222481059198 -0.999952364461885 15.000000000000000
-6.301778840911481 -5.618252954770402 -1.145956882458484 19.000000000000000
-6.377411244621002 -5.610468412413025 -1.293728723611440 8.000000000000000
-6.043574280736596 -5.245638476677541 -1.352014380551943 22.000000000000000
-5.508470431166721 -4.717066048488862 -1.345889075353389 20.000000000000000
-5.340135886145280 -4.510886255933940 -1.414311812695362 14.000000000000000
-5.370433241879212 -4.474565220991013 -1.531355242135660 13.000000000000000
-5.543759821369044 -4.554905165429997 -1.692911686093931 0.000000000000000
-5.553197174479430 -4.499061884791613 -1.807436665050540 4.000000000000000
-5.621745956331322 -4.489583833047421 -1.942141449151341 9.000000000000000
-5.654942840839485 -4.451811389701398 -2.067157666304913 25.000000000000000
-5.557154362927716 -4.310640680255338 -2.142035553468070 2.000000000000000
-5.429818227011338 -4.150173945988445 -2.201256513824356 38.000000000000000
-5.542386185964824 -4.173890039878360 -2.358003668493867 8.000000000000000
-5.823199150034985 -4.253870904332175 -2.710451989670353 8.000000000000000
-5.522790534251123 -3.971824629819823 -2.681182169257213 5.000000000000000
-5.435999641229452 -3.846658044294683 -2.747862039989683 43.000000000000000
-5.996325355282303 -5.605845808221344 -0.564410318868957 20.000000000000000
-6.081701268228386 -5.610028196189996 -0.704917954078667 8.000000000000000
-6.162113684390870 -5.609723004028942 -0.846604251531536 14.000000000000000
-6.241236377375611 -5.606641553383186 -0.990577091194995 6.000000000000000
-6.336879208195374 -5.616593789542084 -1.139198009135576 4.000000000000000
-6.436580045366065 -5.629298404916441 -1.292029716376749 9.000000000000000
-6.066102125224895 -5.234114291013705 -1.343811219981477 7.000000000000000
-5.562482286935738 -4.735031566773454 -1.346644299429171 22.000000000000000
-5.369745839123411 -4.508795194457291 -1.409857977831692 10.000000000000000
-5.373052011680999 -4.449829322523452 -1.519516725864259 4.000000000000000
-6.306892927050400 -5.150557958263440 -1.910850681055635 8.000000000000000
-5.601552433816614 -4.510595361297627 -1.809473906372648 2.000000000000000
-5.724779562323589 -4.543833165692180 -1.963441653107599 2.000000000000000
-5.697562474155367 -4.457671309510934 -2.068217674583516 14.000000000000000
-5.523718955786070 -4.258066000402247 -2.114792385485645 15.000000000000000
-5.435426982629838 -4.128446678192796 -2.189128945909392 39.000000000000000
-5.530082174197122 -4.138355373649757 -2.337834456930474 7.000000000000000
-5.899554153551885 -4.282050294743999 -2.729461863186867 24.000000000000000
-5.558890226276280 -3.971982785201791 -2.682851506563615 5.000000000000000
-5.462745415224921 -3.840429120467288 -2.745526670623681 15.000000000000000
-6.059531949866367 -5.632639285995721 -0.559205885525461 8.000000000000000
-6.136538508387848 -5.628156972372000 -0.699628636787748 7.000000000000000
-6.214373195574337 -5.624676035911937 -0.841642012476295 9.000000000000000
-6.293841156698379 -5.621106063832380 -0.986278922717331 13.000000000000000
-6.377963273816813 -5.620028723785602 -1.133418555375161 10.000000000000000
-6.457104011236478 -5.614105791646119 -1.282469472650049 9.000000000000000
-6.076622676833128 -5.212233860036239 -1.332940745753204 5.000000000000000
-5.601633229023562 -4.740031030999623 -1.343655831178393 21.000000000000000
-5.399384227121042 -4.506579316941087 -1.405338688016272 12.000000000000000
-5.408753167880786 -4.452448186532369 -1.517009662192099 0.000000000000000
-6.257441149828033 -5.079230323645032 -1.880964001729861 10.000000000000000
-5.683357091677071 -4.548573617439585 -1.822071956651689 1.000000000000000
-5.776654416954476 -4.556871285125123 -1.966886839114659 2.000000000000000
-5.770645168714351 -4.486953264693817 -2.080121327530494 5.000000000000000
-5.526445432739790 -4.233657824332537 -2.101553307774375 18.000000000000000
-5.447015869041454 -4.111317694938580 -2.179445097655705 38.000000000000000
-5.529743416315612 -4.111973478262661 -2.322842195195062 7.000000000000000
-5.918421769567503 -4.268202899436675 -2.721703835238109 14.000000000000000
-5.592011904622803 -3.969826433345463 -2.682979118008277 5.000000000000000
-5.589642902878556 -3.904034248248653 -2.793176114533591 2.000000000000000
-6.076036485358334 -5.615780873537488 -0.549590583075127 14.000000000000000
-6.153230453754650 -5.611107131747235 -0.689904152068722 29.000000000000000
-6.234216425212497 -5.610095316620302 -0.832201959890555 12.000000000000000
-6.319835263679915 -5.611579929848650 -0.977710044372889 6.000000000000000
-6.422095851946972 -5.625895063405029 -1.128066311863102 4.000000000000000
-6.516493248098370 -5.632480499099386 -1.280524570148298 13.000000000000000
-6.513474193268501 -5.553944201090208 -1.414685033780211 22.000000000000000
-5.643870262875820 -4.747387627832548 -1.341288621784467 21.000000000000000
-5.407913999595385 -4.486702448479526 -1.395300437822641 12.000000000000000
-5.505043065344775 -4.504435265737830 -1.531254317700606 0.000000000000000
-6.422877538192009 -5.181928427223647 -1.915475372987078 9.000000000000000
-5.671297372670341 -4.511237078450971 -1.804480571453074 0.000000000000000
-5.807373383109787 -4.552970229762206 -1.963000885391316 1.000000000000000
-5.825709082326577 -4.501755554894223 -2.085285259161591 5.000000000000000
-5.522956279717876 -4.204632245297260 -2.086031067393626 17.000000000000000
-5.470732738087359 -4.103312031936062 -2.174601038578789 25.000000000000000
-5.587214939837285 -4.128448437077886 -2.332064904424450 3.000000000000000
-7.070359060675663 -5.146878157854099 -3.092546520478864 30.000000000000000
-5.946391247658174 -4.260845051068749 -2.718096131588652 25.000000000000000
-5.606902660973444 -3.954639512366125 -2.674315777465615 6.000000000000000
-6.118930833597975 -5.623182493547819 -0.542298900885201 3.000000000000000
-6.205302806766743 -5.626143164525058 -0.684065909544348 4.000000000000000
-6.292581736196198 -5.629956446663750 -0.827805231898971 9.000000000000000
-6.372627741224549 -5.625625285329050 -0.973186426560570 9.000000000000000
-6.454345696569987 -5.621143688864271 -1.120530793110946 12.000000000000000
-6.537025434314364 -5.617046121222343 -1.270840408229187 10.000000000000000
-6.494844313878876 -5.505334502236390 -1.396665084034400 6.000000000000000
-5.695256281441239 -4.762126009510973 -1.340950319080907 20.000000000000000
-5.389109381343152 -4.444345350455545 -1.378294047655796 6.000000000000000
-6.621314307192518 -5.385179274175493 -1.826478861185741 5.000000000000000
-6.437015149140143 -5.161847345905337 -1.904518823039118 7.000000000000000
-5.722996385529864 -4.524573762513501 -1.807152632952328 0.000000000000000
-5.902170899713623 -4.598851035805743 -1.980542304784762 1.000000000000000
-5.874820053942911 -4.511606644868274 -2.088135727334468 5.000000000000000
-5.528483545902320 -4.182600211903616 -2.073986776734875 19.000000000000000
-5.583113915408816 -4.161302942403193 -2.204725114184298 47.000000000000000
-5.641800833753968 -4.142402692004157 -2.339868220547847 3.000000000000000
-7.092172242541022 -5.129836321003214 -3.082899966240686 21.000000000000000
-5.962143411590646 -4.244672758246366 -2.708877094854515 42.000000000000000
-5.649221254180091 -3.958667966506368 -2.678665181069905 6.000000000000000
-6.147172020810736 -5.616926009109690 -0.533623795148531 36.000000000000000
-6.227889449543990 -5.614237836346786 -0.674885561551590 20.000000000000000
-6.309460783807949 -5.612492250527353 -0.817857784312141 12.000000000000000
-6.398663392653585 -5.615827309792388 -0.964476238227218 4.000000000000000
-6.510602540830656 -5.637031666453534 -1.117042768531930 6.000000000000000
-6.587602726291621 -5.627251452520745 -1.266912550517338 16.000000000000000
-6.530300229940988 -5.502665716433613 -1.390306771910002 7.000000000000000
-5.734668154811586 -4.766554132917840 -1.337654234902928 21.000000000000000
-5.400430087585749 -4.427014658265147 -1.369069788069290 9.000000000000000
-5.522301755508794 -4.464272986847307 -1.510645563992395 0.000000000000000
-6.350465408184554 -5.061545631739365 -1.864019559251341 2.000000000000000
-5.768725526139618 -4.532866885620755 -1.807777530922427 0.000000000000000
-6.009564577838234 -4.653725652635181 -2.001891888888417 2.000000000000000
-5.908743675158228 -4.509546263822022 -2.085459344059830 5.000000000000000
-5.552292885679615 -4.174398361351234 -2.068803043399650 25.000000000000000
-5.616251280459057 -4.159682774332063 -2.203257763328456 46.000000000000000
-5.601496888627115 -4.086754441264936 -2.308361917789769 1.000000000000000
-7.089411771472295 -5.095101162711032 -3.062627773048947 17.000000000000000
-5.977837164489245 -4.228454959010708 -2.699638400687936 6.000000000000000
-5.820219154121151 -4.052028268083632 -2.743525453253976 11.000000000000000
-6.178369451650390 -5.613240848236829 -0.525141979467210 4.000000000000000
-6.274200089424708 -5.623542650930379 -0.668195548496035 3.000000000000000
-6.362068997054411 -5.626634043970996 -0.812460098679118 5.000000000000000
-6.448644495831431 -5.626838212194444 -0.959280928702019 12.000000000000000
-6.530919746177906 -5.621595337652951 -1.107292702343021 14.000000000000000
-6.608116551882524 -5.611599492370313 -1.257118440706942 11.000000000000000
-6.702007160364731 -5.613951483739583 -1.412580886405447 5.000000000000000
-5.783259188247669 -4.778329687155020 -1.336367674856705 22.000000000000000
-5.426899576373323 -4.422059823211736 -1.363661214486806 31.000000000000000
-5.417927181562846 -4.353480819603050 -1.469723038069022 7.000000000000000
-5.765052253374146 -4.567050806467901 -1.678736264875026 0.000000000000000
-6.426940197896967 -5.019194794671315 -1.998734426030751 5.000000000000000
-6.016193343073759 -4.630174569969316 -1.989473576191561 6.000000000000000
-5.939636301368954 -4.505012197237508 -2.081630541234785 5.000000000000000
-5.582240407149862 -4.170694757318087 -2.065846382977870 26.000000000000000
-5.627914343336607 -4.142084163478378 -2.193329643881126 35.000000000000000
-5.582365997036747 -4.046963743270122 -2.285819401393083 2.000000000000000
-5.540721547117400 -3.956614595134714 -2.378770624267064 0.000000000000000
-5.783240584161365 -4.000119129365260 -2.710068504040998 2.000000000000000
-6.224396490381193 -5.622807246170894 -0.517825262939520 20.000000000000000
-6.302742445838060 -5.616715476854941 -0.659521730869759 20.000000000000000
-6.384897699672409 -5.614232350542867 -0.803166532442601 6.000000000000000
-6.483720288588535 -5.624591283732631 -0.951756329269362 4.000000000000000
-6.581335886054696 -5.631891189575389 -1.102562281103317 7.000000000000000
-6.661859583478429 -5.623974611004019 -1.253555130338831 8.000000000000000
-6.753059567198627 -5.623242448962388 -1.409017686920417 14.000000000000000
-5.841100450730583 -4.797376907906245 -1.337047616191327 24.000000000000000
-5.453379396954390 -4.416996596958391 -1.358196677705905 8.000000000000000
-5.416866720052529 -4.326359437390480 -1.457129011340338 3.000000000000000
-5.770983816048282 -4.543968986201502 -1.667067979222115 0.000000000000000
-6.428432888538337 -4.989641206943012 -1.983962505576892 5.000000000000000
-6.047309546107516 -4.625440339830263 -1.985138009365553 6.000000000000000
-5.955162748994336 -4.488750327028147 -2.072379582652499 11.000000000000000
-5.615293563317936 -4.169151960840495 -2.063955940707070 25.000000000000000
-5.651832794139603 -4.133474964523248 -2.188165163955329 14.000000000000000
-5.547593820263566 -3.996214487397236 -2.257093834134935 5.000000000000000
-5.545898529701940 -3.934961387367396 -2.366239290134772 7.000000000000000
-6.246754519768619 -5.610817251912708 -0.508460161063855 5.000000000000000
-6.340239724406305 -5.617708626521091 -0.651710077082404 3.000000000000000
-6.440677105108993 -5.630583203330591 -0.797919305504164 7.000000000000000
-6.521837257729922 -5.624791985606314 -0.944589806394729 18.000000000000000
-6.604656308356601 -5.618809664658773 -1.093203092212297 18.000000000000000
-6.679327429726945 -5.605550554231317 -1.243081682937296 7.000000000000000
-6.801177007086415 -5.629778999728881 -1.404699160849303 5.000000000000000
-5.889951734374145 -4.808670383664828 -1.335499048299076 24.000000000000000
-5.553301126554961 -4.470944780027620 -1.370802455406025 5.000000000000000
-5.403406078538310 -4.289543184934359 -1.441293174547920 1.000000000000000
-5.773737477385487 -4.518489251075128 -1.654529065973999 1.000000000000000
-6.442093657423672 -4.969620807170245 -1.972988175819170 5.000000000000000
-6.029128134555851 -4.583086847900422 -1.964664063322088 2.000000000000000
-5.973716088048963 -4.474754916382916 -2.064175510389537 7.000000000000000
-5.651475723747309 -4.169744501859592 -2.063117285349170 23.000000000000000
-5.651026211636877 -4.106809761028382 -2.173447110494060 2.000000000000000
-5.534141243034435 -3.961174243239146 -2.237247263233112 10.000000000000000
-5.575685391675387 -3.930738424161374 -2.364197084398640 4.000000000000000
-6.377783136267258 -5.618537589811493 -0.643811788196078 10.000000000000000
-6.469539709899140 -5.623152123147318 -0.789227560328439 8.000000000000000
-6.556980546632911 -5.622238020766528 -0.936904343529716 4.000000000000000
-6.655217967573040 -5.628713205407221 -1.088263504564650 4.000000000000000
-6.745388022375137 -5.627672368422920 -1.241542645778696 11.000000000000000
-6.834130745869291 -5.623543736944546 -1.397144511865481 12.000000000000000
-5.954217991228148 -4.832150037611875 -1.337262175843837 25.000000000000000
-5.632140211898419 -4.507195326808040 -1.377868977630522 16.000000000000000
-5.405121403481360 -4.264968141346183 -1.429592028142909 3.000000000000000
-5.828742638236776 -4.533770427013485 -1.656897393424994 0.000000000000000
-6.449503034226702 -4.944837011717262 -1.960126919118159 5.000000000000000
-6.066337799214066 -4.582897346551968 -1.962269506666597 3.000000000000000
-6.001507176414795 -4.467606555078969 -2.059126824762658 5.000000000000000
-5.700098665508758 -4.179257078656592 -2.066683689867423 20.000000000000000
-5.529276648942023 -3.992945801727672 -2.112601136970686 7.000000000000000
-5.532882686313646 -3.935057372118620 -2.222446547754434 10.000000000000000
-5.614787961480078 -3.932897642871031 -2.366004285354927 4.000000000000000
-6.424373814264100 -5.627086820697079 -0.636718938728049 3.000000000000000
-6.519498949360790 -5.633838052989852 -0.783011010118669 12.000000000000000
-6.601232657938833 -5.627274746929221 -0.930420506187662 22.000000000000000
-6.681578685571899 -5.617944087260121 -1.079271282361548 10.000000000000000
-6.775044953422444 -5.619128326080603 -1.233169385828106 5.000000000000000
-6.882389768449755 -5.629683409585970 -1.392614728835873 22.000000000000000
-6.006407990783554 -4.845416542476078 -1.336123339422906 25.000000000000000
-5.677425648416400 -4.516138208955432 -1.376513597577747 18.000000000000000
-5.434462253934711 -4.262178419000990 -1.425187403523153 6.000000000000000
-5.862276057761466 -4.532073446762930 -1.653025618598530 0.000000000000000
-6.462988626868500 -4.924770813340698 -1.949139924437445 5.000000000000000
-6.100500595421281 -4.580217985629587 -1.958793426928898 4.000000000000000
-6.038607165281674 -4.467229074814432 -2.057190291767252 5.000000000000000
-5.953712521039493 -4.337808857617906 -2.143899608561274 20.000000000000000
-5.527890883957133 -3.966695341682943 -2.098130225065753 8.000000000000000
-5.559442986035186 -3.928737319370909 -2.218832296593520 6.000000000000000
-5.647752471644655 -3.930558703143384 -2.365116551076390 4.000000000000000
-6.453005189681892 -5.619701755907219 -0.627754885757103 12.000000000000000
-6.539345705351707 -5.618328522433394 -0.773096604513039 10.000000000000000
-6.627352580621782 -5.616680719012253 -0.921298796700531 4.000000000000000
-6.732290108719758 -5.627445431496113 -1.074117222451818 6.000000000000000
-6.826095710260649 -5.628109273003091 -1.228587548975559 11.000000000000000
-6.906204242448988 -5.615653897839168 -1.383053961804578 6.000000000000000
-6.052576646820143 -4.853502971076315 -1.333494973414153 19.000000000000000
-5.713562512683387 -4.517555621675077 -1.372821408170419 21.000000000000000
-5.463828344251112 -4.259263554603606 -1.420717352953642 7.000000000000000
-6.573992640865425 -5.051302928667006 -1.838755960068478 5.000000000000000
-6.467089352041787 -4.897626709292666 -1.935357313038296 6.000000000000000
-6.134698195849700 -4.577391607236716 -1.955240169349357 5.000000000000000
-6.063320888472894 -4.457544453442002 -2.050960079815484 10.000000000000000
-6.174254121828142 -4.470225942250472 -2.208112783423684 24.000000000000000
-5.529485131848302 -3.942708840154842 -2.084863827311851 12.000000000000000
-5.576670724933243 -3.915749516337253 -2.211457743430131 14.000000000000000
-5.683869020813259 -3.930229103528248 -2.365448825914200 3.000000000000000
-6.505762823760705 -5.633094070277858 -0.621035648230904 5.000000000000000
-6.592468536096030 -5.631220177750685 -0.767029276023681 14.000000000000000
-6.677791271745918 -5.626493540969206 -0.915463906675624 11.000000000000000
-6.758673571603852 -5.616408014950488 -1.064986648791225 9.000000000000000
-6.874185968738149 -5.634341764027863 -1.223333214351229 21.000000000000000
-6.957652153638112 -5.623905732470684 -1.378936119353736 13.000000000000000
-6.058758942196039 -4.829424649363195 -1.322005157509879 8.000000000000000
-5.749752862863745 -4.518811938140031 -1.369043711396134 22.000000000000000
-5.505612127525774 -4.265825661663475 -1.419376808861719 8.000000000000000
-5.910826526277687 -4.514018499019026 -1.639884985834696 0.000000000000000
-6.467953481166990 -4.868162538807643 -1.920669482552823 8.000000000000000
-6.137789411466900 -4.551326505817412 -1.941758012196337 3.000000000000000
-6.100491227504617 -4.456873812255760 -2.048869591937964 16.000000000000000
-6.192982544186327 -4.455574652321419 -2.199641271888285 26.000000000000000
-5.552811159731554 -3.934230164628344 -2.079802210809754 7.000000000000000
-5.578251561239909 -3.891814642331907 -2.197906346789030 32.000000000000000
-5.716919278014436 -3.927595356831157 -2.364405354770041 3.000000000000000
-6.528402250534139 -5.620205600179691 -0.611350199909688 18.000000000000000
-6.609262942589249 -5.612907805578418 -0.756654030448110 13.000000000000000
-6.710033870439742 -5.620742272966337 -0.907029083569376 4.000000000000000
-6.824840242712685 -5.638152897797105 -1.061999794026134 10.000000000000000
-6.891638623134706 -5.615319306355433 -1.212555225872159 23.000000000000000
-7.003038114795381 -5.626966304433902 -1.373481478392994 6.000000000000000
-6.061742964374269 -4.802903529485779 -1.309857213711516 3.000000000000000
-5.792194086540714 -4.524748728740380 -1.366642822980860 23.000000000000000
-5.777333508132608 -4.449205385057933 -1.476681745461649 49.000000000000000
-6.601109132681806 -5.010375118312221 -1.816522885135953 5.000000000000000
-6.478027433560757 -4.845732060220281 -1.908765404806863 7.000000000000000
-6.156366641610137 -4.536787778172932 -1.933196945448303 3.000000000000000
-6.134586305841582 -4.453770310973344 -2.045650232389046 16.000000000000000
-6.205410239244846 -4.436388955246658 -2.188934169965073 28.000000000000000
-5.591775363151463 -3.936674653988293 -2.080515550698547 7.000000000000000
-5.589103085165714 -3.874415223545449 -2.188051502810286 45.000000000000000
-5.753135822399696 -3.926953416122029 -2.364572070508509 2.000000000000000
-6.581321766977996 -5.633182877012467 -0.604409193870509 5.000000000000000
-6.665576730570804 -5.627970131656583 -0.750716355259711 6.000000000000000
-6.748402218220455 -5.619950043892085 -0.899340316718090 14.000000000000000
-6.848212789021606 -5.624282991824235 -1.052234966230225 10.000000000000000
-6.955226568019154 -5.633671080294982 -1.209792356798666 10.000000000000000
-7.039224252333156 -5.622418039145130 -1.366119071845550 16.000000000000000
-7.084152129916041 -5.579389222280808 -1.515895941845203 4.000000000000000
-5.840932144426102 -4.535314403503572 -1.365589596322019 23.000000000000000
-5.882144797425695 -4.502416314990134 -1.490555570459717 57.000000000000000
-6.608305844967404 -4.985157159049216 -1.803686768524392 5.000000000000000
-6.491131312181855 -4.825611997056527 -1.897774259988886 6.000000000000000
-6.196806662211624 -4.538231441724712 -1.931435365864174 2.000000000000000
-6.181246483812825 -4.459560803359459 -2.046502711332564 18.000000000000000
-6.211490127036406 -4.412720319355973 -2.176020630617317 27.000000000000000
-5.621398798620358 -3.932358754997618 -2.077655931299303 8.000000000000000
-5.606158473806213 -3.861313994037463 -2.180629589366622 47.000000000000000
-5.795677503767009 -3.930404273169269 -2.367215351796653 2.000000000000000
-6.600928837587038 -5.617460484432822 -0.594323301703395 25.000000000000000
-6.685391117070361 -5.612013310396949 -0.740575597575410 7.000000000000000
-6.799072587262940 -5.629141665874126 -0.893174147996634 3.000000000000000
-6.893088845072696 -5.627916411431444 -1.045697394027061 36.000000000000000
-6.966481675078037 -5.609446990717887 -1.197837021104258 9.000000000000000
-7.090922544745268 -5.630014165075609 -1.361651190823589 9.000000000000000
-6.797413045899101 -5.321481824154241 -1.440316312008150 7.000000000000000
-5.892897986344122 -4.548053270933129 -1.365133241590675 21.000000000000000
-5.921794415920638 -4.505214585589479 -1.487661397416414 56.000000000000000
-6.618518274742797 -4.962287898399954 -1.791706075306154 6.000000000000000
-6.479091273533109 -4.786943971612144 -1.879501977086816 5.000000000000000
-6.240447721650665 -4.541776546061628 -1.930547600809044 2.000000000000000
-6.218579526738024 -4.458380050881944 -2.044141871674425 15.000000000000000
-6.223748728122348 -4.393496234869695 -2.165304275011084 26.000000000000000
-5.660478928880829 -3.934474188637816 -2.078194205226966 8.000000000000000
-5.620029398644971 -3.846003128222822 -2.171965353330136 48.000000000000000
-5.828870343489975 -3.927304843607865 -2.365925439264148 3.000000000000000
-6.650952127277074 -5.627451734721846 -0.586895880071277 3.000000000000000
-6.741877787381394 -5.626639963062311 -0.734404946935612 10.000000000000000
-6.834478455715397 -5.625449912973067 -0.884891809767393 10.000000000000000
-6.938034537375124 -5.631346563386385 -1.039051799106421 4.000000000000000
-7.030262979777883 -5.627331076512874 -1.194823581319463 14.000000000000000
-7.117875942873151 -5.617762599297913 -1.352334810539599 9.000000000000000
-6.745784781106379 -5.249393805858803 -1.415326237305302 10.000000000000000
-5.938746531163281 -4.555753246623771 -1.363108944462273 18.000000000000000
-5.955250633639473 -4.503100147399008 -1.483112589465710 55.000000000000000
-6.622363005237080 -4.934732338823531 -1.778040767540653 6.000000000000000
-6.460565921803794 -4.743771816958113 -1.859489424186488 5.000000000000000
-6.290457400098689 -4.549671719507126 -1.931484647171887 2.000000000000000
-6.249663066674526 -4.452548129747653 -2.039638866398916 9.000000000000000
-6.242232632002083 -4.378665432670537 -2.156756081874924 8.000000000000000
-5.699627451231644 -3.936411711039848 -2.078637476414539 6.000000000000000
-5.633845119805736 -3.830652102646702 -2.163283993036858 45.000000000000000
-5.862098858814362 -3.924061001905601 -2.364559625556304 14.000000000000000
-6.682750126040064 -5.621792421260140 -0.577758362270551 12.000000000000000
-6.767815862842376 -5.615541367005966 -0.724803147139862 5.000000000000000
-6.879149765035542 -5.629169374206459 -0.877709898945834 39.000000000000000
-6.967585959731247 -5.622096124699580 -1.030012164197084 12.000000000000000
-7.069377896765078 -5.625153109749755 -1.187473218477793 5.000000000000000
-7.182163168315015 -5.634717762252970 -1.349989616052687 8.000000000000000
-6.740581867223904 -5.213859452298325 -1.400257727324401 10.000000000000000
-5.981560395662595 -4.560851990075334 -1.360257460066507 18.000000000000000
-5.995014752574138 -4.505555131445079 -1.480036173182045 54.000000000000000
-6.638653591966041 -4.916509920732038 -1.767742256444592 6.000000000000000
-6.435509633612081 -4.696148106857115 -1.837766229461309 5.000000000000000
-6.346881013887475 -4.561864721611023 -1.934217065707847 3.000000000000000
-6.299699294107123 -4.459992250303328 -2.041204039546387 7.000000000000000
-8.522345654643113 -5.940191460152779 -2.924211681721009 19.000000000000000
-5.802046606815817 -3.981542863103273 -2.101881919045044 6.000000000000000
-5.653926268141569 -3.819531086801655 -2.156996993826025 43.000000000000000
-5.873246845087363 -3.905964727283195 -2.354252969816720 8.000000000000000
-6.732927703356231 -5.631365497734643 -0.570108035640626 4.000000000000000
-6.827562065203030 -5.632250688875390 -0.718713032762911 9.000000000000000
-6.902271445414673 -5.615099391624613 -0.867702550411228 13.000000000000000
-7.025030642442603 -5.635108611415531 -1.024983614646100 8.000000000000000
-7.114751349546137 -5.627725963987507 -1.181066343772566 12.000000000000000
-7.224762814863805 -5.634326858834282 -1.343414722555855 9.000000000000000
-6.744593835318182 -5.185616548926369 -1.387167979766296 17.000000000000000
-6.005626821004437 -4.551484915967919 -1.353058589473725 20.000000000000000
-6.034842557078614 -4.507829332314220 -1.476863575961030 53.000000000000000
-6.654878497447348 -4.898240317549172 -1.757423675653857 6.000000000000000
-6.435438902884234 -4.667014422341321 -1.823304283136051 6.000000000000000
-6.378157174861544 -4.555727588368919 -1.929155564835688 5.000000000000000
-6.340351307659847 -4.460524169131946 -2.039589525381480 8.000000000000000
-8.289755307681590 -5.741405955564574 -2.824712125539970 1.000000000000000
-6.155098192323115 -4.196785707396582 -2.214890509495335 9.000000000000000
-5.670814564705441 -3.806209300371051 -2.149472710804573 37.000000000000000
-5.868486758608416 -3.877381812167672 -2.337630733608073 7.000000000000000
-6.755579564335652 -5.617732121676180 -0.560041569009089 10.000000000000000
-6.878202416485093 -5.641086799517628 -0.711510532716540 19.000000000000000
-6.962504410787569 -5.630991331265983 -0.862255737569193 11.000000000000000
-7.045309521220101 -5.618109392640657 -1.014438072298252 11.000000000000000
-7.166428094559507 -5.634997679818382 -1.175573695669333 6.000000000000000
-7.245513457774948 -5.616770346967935 -1.332712122937207 4.000000000000000
-6.767301908226385 -5.171780956301288 -1.377929832377125 6.000000000000000
-6.073714817684959 -4.575194198596232 -1.355640940133319 35.000000000000000
-6.068428294786533 -4.505241608114191 -1.472065244325422 53.000000000000000
-6.658403020711456 -4.870681429835545 -1.743776253662076 6.000000000000000
-6.451047018353282 -4.649322977891430 -1.813318563916992 6.000000000000000
-6.415783668816367 -4.553956579072633 -1.925928189437572 4.000000000000000
-6.384235045330383 -4.463089947126797 -2.038890632140697 17.000000000000000
-8.246302538224469 -5.675010797275668 -2.790414108851446 1.000000000000000
-6.157250631241238 -4.171340397075584 -2.200845282114277 22.000000000000000
-5.690838155070168 -3.794948167463078 -2.143117705369027 34.000000000000000
-5.882625244024568 -3.861364434705780 -2.328589474500434 9.000000000000000
-6.818192242417919 -5.637086271391585 -0.553180724827472 6.000000000000000
-6.894943785885744 -5.621966649842533 -0.700726178713107 64.000000000000000
-6.985638895092460 -5.616651495974963 -0.852109852151467 5.000000000000000
-7.112263028564259 -5.638087117582585 -1.010500998053554 11.000000000000000
-7.202569707074725 -5.629811574317886 -1.167419056040238 9.000000000000000
-7.272479344797785 -5.603978563185530 -1.323119209612881 0.000000000000000
-6.097860000580719 -4.565516793815382 -1.348278835666941 39.000000000000000
-6.108365565235074 -4.507170507901067 -1.468709683415080 52.000000000000000
-6.658634329507647 -4.840843401444641 -1.729325888487227 6.000000000000000
-6.469762837949641 -4.633857804898764 -1.804198066916328 6.000000000000000
-6.431222408300844 -4.536337828232423 -1.915989938156424 3.000000000000000
-5.964040912500884 -4.143023244640411 -1.890923157715531 11.000000000000000
-5.965717009655451 -4.079401740575657 -2.004670047587865 4.000000000000000
-5.952380550728545 -4.006652874428712 -2.113361900655133 10.000000000000000
-5.707653035826977 -3.781503661883693 -2.135535267274998 32.000000000000000
-5.925346247028623 -3.863982697084648 -2.330796767085080 15.000000000000000
-6.843949622929205 -5.625712810169401 -0.543217209137434 7.000000000000000
-6.951890144043149 -5.635445387909188 -0.693941427678734 6.000000000000000
-7.036731325904824 -5.624607203878199 -0.845286962582063 13.000000000000000
-7.138789863155294 -5.625746363240206 -1.000696330662218 5.000000000000000
-7.241863874340215 -5.626906013881042 -1.159686309514561 9.000000000000000
-6.106187485759597 -4.543984821484759 -1.337408064454902 34.000000000000000
-6.145196276034467 -4.506594577051207 -1.464502662034027 51.000000000000000
-6.658723718949939 -4.811045987546134 -1.714904936260238 5.000000000000000
-6.494788029368910 -4.622855694115324 -1.796807637158703 6.000000000000000
-6.478432721408758 -4.540988772047298 -1.915445234487448 7.000000000000000
-5.962350269230257 -4.115663827950240 -1.876684982172519 14.000000000000000
-5.970376550338854 -4.056554779139556 -1.992262826788659 14.000000000000000
