# This PCD file was generated using the MATLAB® pcwrite function
# from Computer Vision Toolbox®.
# .PCD v.7 - Point Cloud Data file format
VERSION .7
FIELDS x y z intensity
SIZE 8 8 8 8
TYPE F F F F
COUNT 1 1 1 1
WIDTH 637
HEIGHT 1
VIEWPOINT 0 0 0 1 0 0 0
POINTS 637
DATA ascii
3.348874242292660 -4.534630267306491 -2.277843200954935 23.000000000000000
3.395390602427398 -4.556733257855170 -2.408544928728612 6.000000000000000
3.690728582658367 -4.909429888236941 -2.726613412575089 37.000000000000000
3.567928898005122 -4.702356324106064 -2.740764926059814 31.000000000000000
3.603493833596561 -4.706412067153729 -2.875110718803944 28.000000000000000
3.563508099694449 -4.565786251833463 -3.054719287591021 18.000000000000000
5.523293293255670 -8.346052605955917 -1.818301706343966 0.000000000000000
5.545315035030487 -8.310939435336616 -1.993266380700667 31.000000000000000
3.255581152056732 -4.717225307175662 -1.559672005171105 31.000000000000000
3.210216959216270 -4.612406678949794 -1.632824455579832 33.000000000000000
3.223503128261507 -4.591440096775261 -1.734384449830156 60.000000000000000
3.248824945958183 -4.587524712608511 -1.843586038601402 15.000000000000000
3.343461934514495 -4.680225819032821 -1.995117183353185 14.000000000000000
3.366697628441777 -4.671662576532138 -2.107685899196936 33.000000000000000
3.325163631721500 -4.573787443043829 -2.178842639598205 32.000000000000000
3.321975833520272 -4.529405688777903 -2.274326420717495 23.000000000000000
3.374827336241997 -4.560690040727488 -2.409469402786189 7.000000000000000
3.716832253550371 -4.978756947251672 -2.763537092054468 33.000000000000000
3.572688686775601 -4.741735871909786 -2.761908845061615 27.000000000000000
3.575338717346501 -4.702627833269146 -2.870691296187279 56.000000000000000
3.529045898006038 -4.553876960505223 -3.044059079312765 20.000000000000000
4.915206587361475 -7.538174318494395 -1.480227059457401 20.000000000000000
5.521391959527637 -8.330006788390756 -2.000520365961685 2.000000000000000
5.550941927358928 -8.304514138375339 -2.179968954965384 33.000000000000000
3.229251509302958 -4.710652219193194 -1.558233088942346 31.000000000000000
3.210272680338468 -4.643747052373708 -1.644433833099695 7.000000000000000
3.212556298980392 -4.606989759761996 -1.740553756518168 35.000000000000000
3.226803786905339 -4.587571240338896 -1.843676608201342 48.000000000000000
3.325337421543551 -4.686804933796200 -1.997760382384653 34.000000000000000
3.344065639499377 -4.672245790021289 -2.107544608388625 39.000000000000000
3.304892119823307 -4.577377544585180 -2.179909835442088 31.000000000000000
3.301696350268600 -4.533061763809721 -2.275270589646276 23.000000000000000
3.345554759342419 -4.552713018480024 -2.404093909065074 6.000000000000000
3.511838038410240 -4.737174778016876 -2.627946862951318 22.000000000000000
3.572859267903441 -4.775389906194341 -2.779699245525261 37.000000000000000
3.562421608550133 -4.718824679687205 -2.878475625276339 20.000000000000000
3.545021073230265 -4.652100863417527 -2.970586330498281 27.000000000000000
3.501183941150314 -4.550224350609383 -3.038944778924518 23.000000000000000
4.889864863376195 -7.548815909071786 -1.485279767876618 77.000000000000000
4.924872608901269 -7.540643752243304 -1.648228621231913 11.000000000000000
5.531087771175287 -8.330125218116981 -2.189013000885724 8.000000000000000
5.560491493445014 -8.305456155529800 -2.369454873994818 11.000000000000000
3.211680524623657 -4.716730577586364 -1.560966644811772 15.000000000000000
3.207977828304429 -4.671968078402547 -1.654934599159376 7.000000000000000
3.212411152469591 -4.638223908063629 -1.752643023024356 7.000000000000000
3.217868137192953 -4.606223839409601 -1.851238124308441 38.000000000000000
3.307201339599489 -4.693327509536707 -2.000374011923101 56.000000000000000
3.319288699822538 -4.669686676077855 -2.105983113534236 36.000000000000000
3.278108755417187 -4.571803403211606 -2.176612191006921 32.000000000000000
3.279254766476652 -4.533646227789291 -2.274673615662719 22.000000000000000
3.327220384721596 -4.559476671274523 -2.406506388023200 7.000000000000000
3.419050718478929 -4.644463558965495 -2.575054646781363 13.000000000000000
3.492853677968869 -4.701453368333988 -2.734886727029174 14.000000000000000
3.519164617536233 -4.651117481561496 -2.967578569708662 27.000000000000000
3.477682948207036 -4.552077780944168 -3.037526162518514 21.000000000000000
2.981052301089268 -4.632526976237006 -0.913278157303021 3.000000000000000
4.897147309390424 -7.548052219273663 -1.652501112026265 39.000000000000000
4.934577844679832 -7.544292646367258 -1.816591853104008 8.000000000000000
3.286880848952528 -4.983415599898975 -1.310926101453721 14.000000000000000
5.531725144616649 -8.318119831370801 -2.375020714724764 11.000000000000000
5.572921524247209 -8.309875740599308 -2.560487231052177 22.000000000000000
3.215710126383797 -4.754707726988021 -1.574251191517135 8.000000000000000
3.212015363018973 -4.709736472640122 -1.668813850018473 6.000000000000000
3.212088160337025 -4.669503425969338 -1.764744572192622 6.000000000000000
3.213168556506353 -4.631112902516242 -1.861299844631827 7.000000000000000
3.295549737507432 -4.709075552952172 -2.006913890579985 47.000000000000000
3.301057257221824 -4.676232030175663 -2.108524361847004 33.000000000000000
3.257888316012604 -4.575236380195003 -2.177602302012168 32.000000000000000
3.254683011089013 -4.531140228324815 -2.272527827901145 22.000000000000000
3.300240592055774 -4.554268791527569 -2.402603548042281 7.000000000000000
3.395920440670432 -4.645590230512489 -2.574224498912957 15.000000000000000
3.424179339771976 -4.641681059471630 -2.698372989640438 12.000000000000000
3.620043414387321 -4.863587843015159 -2.962482568932033 13.000000000000000
3.501919641472593 -4.661433276054103 -2.971789803731747 31.000000000000000
3.454210503995030 -4.553846401250626 -3.036065998608585 22.000000000000000
2.907286485815571 -4.547906553164989 -0.898340288016243 19.000000000000000
2.938697809818495 -4.559675104227462 -0.999837049951769 7.000000000000000
4.902340345512838 -7.545206797149719 -1.819151869691678 51.000000000000000
3.266790320517572 -4.986266196721698 -1.313029480706059 29.000000000000000
3.289746097296151 -4.980237924251560 -1.423129239799133 9.000000000000000
5.541729284564950 -8.319397653229212 -2.565006671344059 35.000000000000000
3.219520632100525 -4.792754070149049 -1.587557659598159 5.000000000000000
3.220138288348966 -4.753929853358985 -1.684967760300240 6.000000000000000
3.213741013392603 -4.703980418289930 -1.778049752729987 6.000000000000000
3.214796585735003 -4.665402519462798 -1.875133660232448 6.000000000000000
3.281669054748511 -4.721704339316328 -2.012118373055464 17.000000000000000
3.280660464780998 -4.679647926860887 -2.109650728307774 27.000000000000000
3.237678094462795 -4.578600460199185 -2.178557867604063 33.000000000000000
3.236615440232142 -4.537585115206437 -2.274871823709606 24.000000000000000
3.275481775499244 -4.551938344333204 -2.400224249473660 7.000000000000000
3.372820041202153 -4.646633274941851 -2.573353488712397 20.000000000000000
3.400924337133289 -4.642920287902180 -2.697358124773357 16.000000000000000
3.427118924604901 -4.637264381111964 -2.822593654121192 10.000000000000000
3.473990044865379 -4.657423741114506 -2.966879381417318 28.000000000000000
3.428642654327180 -4.552709609800353 -3.032685403690890 23.000000000000000
2.889054672918229 -4.549502580122568 -0.900380680794213 26.000000000000000
2.916035115971181 -4.554786761989916 -1.000328323713944 10.000000000000000
3.005838184323622 -4.657378358938702 -1.124321853986441 1.000000000000000
3.246709660190762 -4.989048775265274 -1.315098741710319 25.000000000000000
3.273785883674626 -4.989650569785501 -1.426958015952812 24.000000000000000
3.291779882547644 -4.975323533767032 -1.534907469262740 5.000000000000000
3.334401009261977 -4.997671643918464 -1.656161842636772 14.000000000000000
3.223715205156672 -4.791848692300760 -1.698895637211764 6.000000000000000
3.219481329747289 -4.744831817774229 -1.793760014173001 6.000000000000000
3.214080607390384 -4.696615484607315 -1.887724778389016 6.000000000000000
3.282744458908138 -4.756046881906459 -2.026569237557837 4.000000000000000
3.258130257826668 -4.679915637211597 -2.109354605469810 25.000000000000000
3.211051986517191 -4.572744135080625 -2.175125792907103 33.000000000000000
3.209977259499085 -4.531888601942696 -2.271130047593183 26.000000000000000
3.255049889470869 -4.555495570807807 -2.400952794497660 7.000000000000000
3.354017072632875 -4.653513357043102 -2.575718717622062 21.000000000000000
3.375569523629680 -4.641147428937212 -2.694602184741191 18.000000000000000
3.399496497579142 -4.632820994675342 -2.817870329564957 15.000000000000000
3.433415355680750 -4.636133254473457 -2.950987536764766 11.000000000000000
3.405238957386229 -4.554302849801558 -3.031139916828082 23.000000000000000
2.887673839623248 -4.577728282212195 -0.907682527203281 17.000000000000000
2.899758051466474 -4.559766881725633 -1.002968208505863 10.000000000000000
2.908706145224065 -4.537255478139136 -1.096695621780330 25.000000000000000
3.175759161218884 -4.913049668389674 -1.296364418622497 4.000000000000000
3.262041439311081 -5.005536857167104 -1.432627802242780 0.000000000000000
3.277800999418708 -4.987997617311799 -1.539739061627500 27.000000000000000
3.324448525140975 -5.016890032839205 -1.663247546845220 27.000000000000000
3.378407244014601 -5.056333413052744 -1.793169515030868 11.000000000000000
3.216447984424900 -4.773102782582455 -1.804709447637659 6.000000000000000
3.215319133529938 -4.731011149956950 -1.901588906293707 5.000000000000000
4.361089388974291 -6.362357544356425 -2.710771443546419 15.000000000000000
3.237764527033116 -4.683186814387928 -2.110408995675738 21.000000000000000
3.190894861450975 -4.575952010431169 -2.176004867043433 34.000000000000000
3.187672265962061 -4.532140898589562 -2.270371863846998 26.000000000000000
3.230375066782516 -4.552988647310752 -2.398488546015856 7.000000000000000
3.341571160269815 -4.669234478563184 -2.582976493321191 20.000000000000000
3.360861587153955 -4.653950338004413 -2.700313249121593 17.000000000000000
3.378288638883835 -4.636973742845621 -2.818386840117707 17.000000000000000
3.403583604715196 -4.628998542601962 -2.944134361455473 13.000000000000000
3.381864906628085 -4.555811792862193 -3.029553211504165 23.000000000000000
2.904992068967539 -4.636069769748347 -0.920968060934365 18.000000000000000
2.929676494385623 -4.637837464148359 -1.021694325317651 16.000000000000000
2.898661189773691 -4.552161781453608 -1.101658033317453 26.000000000000000
2.987181547776765 -4.652687392454729 -1.228878524800081 6.000000000000000
3.300942395375132 -5.099760782230046 -1.460726965056602 14.000000000000000
3.255303076669231 -4.987667680891990 -1.540544379111925 37.000000000000000
3.286851393951995 -4.994239921873839 -1.656439409346874 26.000000000000000
3.332012834120724 -5.021308486031184 -1.781237648761666 8.000000000000000
3.225990860949129 -4.820431926919222 -1.822860116139066 2.000000000000000
3.220603146185956 -4.771752819115100 -1.917997499488517 5.000000000000000
4.330933659040465 -6.362500172853670 -2.710572853001260 14.000000000000000
3.213164875594098 -4.680206317852142 -2.108643237862974 24.000000000000000
3.170748867388932 -4.579091322809330 -2.176849622120027 33.000000000000000
3.167518396805155 -4.535345838751618 -2.271093421420460 28.000000000000000
3.212101459235125 -4.559398254812650 -2.400724009458594 7.000000000000000
3.331162096660882 -4.687907058169099 -2.591862361264237 16.000000000000000
3.341882283565489 -4.660838079618759 -2.702593420839847 17.000000000000000
3.357089812174685 -4.641054918841006 -2.818867367098822 18.000000000000000
3.384336274252564 -4.636113304280395 -2.946357991258461 15.000000000000000
3.360613395291281 -4.560076002520740 -3.029811951033147 24.000000000000000
2.888627477323293 -4.640975453021596 -0.923641782134095 36.000000000000000
2.908977955446748 -4.636185809997333 -1.022864795515139 30.000000000000000
2.928345470640623 -4.629978116423861 -1.121855358776120 15.000000000000000
2.936729266839831 -4.605262113249371 -1.217537712580735 16.000000000000000
2.988097874431836 -4.648007844036059 -1.332347617776686 2.000000000000000
3.218093959206823 -4.964513619138570 -1.534281524070537 30.000000000000000
3.276845216830596 -5.013362134287481 -1.663472733598877 42.000000000000000
3.281660548198653 -4.979661870754461 -1.766938510347970 25.000000000000000
3.247919279384353 -4.886928798559849 -1.848256278877423 0.000000000000000
3.221419068278880 -4.806269889712768 -1.931897754481237 5.000000000000000
4.305045214569399 -6.368783967058103 -2.712983686175928 14.000000000000000
3.194953730070622 -4.686424505129452 -2.111018716267096 24.000000000000000
3.150614286423902 -4.582162156357865 -2.177660118343411 34.000000000000000
3.143159772740340 -4.532402566057712 -2.268737451143336 26.000000000000000
3.187501450136174 -4.556721817916616 -2.398177803980029 7.000000000000000
3.320656260503366 -4.706570485604446 -2.600737638366649 14.000000000000000
3.333380160089666 -4.682400779423725 -2.713380852216048 16.000000000000000
3.344271452925008 -4.656720973621280 -2.826386778731200 18.000000000000000
3.365076635133796 -4.643168475470518 -2.948550448622746 17.000000000000000
3.335207170247517 -4.558577444503071 -3.026256567774352 24.000000000000000
2.872255762439030 -4.645829922042093 -0.926288923929324 73.000000000000000
2.890392973360844 -4.637795219830605 -1.024736043311952 52.000000000000000
2.911711106399304 -4.635013636682556 -1.124424750989446 25.000000000000000
2.897047108904285 -4.574081266436430 -1.210455541035949 55.000000000000000
2.962735203461562 -4.640178818551226 -1.331103544446533 4.000000000000000
2.996654348438797 -4.654748169898066 -1.439368677863129 6.000000000000000
3.241566762530799 -4.993689741564990 -1.657621093327477 40.000000000000000
3.282010059387703 -5.014777440835107 -1.779865497437719 28.000000000000000
3.084530982261153 -4.673448387044063 -1.767747943884052 28.000000000000000
3.276680106243640 -4.922941944827684 -1.978814313977788 0.000000000000000
4.279157182793885 -6.374983580026797 -2.715351571957530 14.000000000000000
3.168328512999911 -4.680171813410659 -2.107773761737286 24.000000000000000
3.128391808298613 -4.582089368375132 -2.176975359069024 34.000000000000000
3.120952961941637 -4.532412282178602 -2.267861440587645 28.000000000000000
3.165050058497130 -4.556967536231768 -2.397173544184294 7.000000000000000
3.316326631922331 -4.734179342574071 -2.614547689897359 9.000000000000000
3.318498414162052 -4.695107320950359 -2.719032092484804 12.000000000000000
3.329295201595662 -4.669444463017966 -2.832118971269206 16.000000000000000
3.347881768818222 -4.653050553886422 -2.952543345150390 17.000000000000000
3.313995442755707 -4.562686163096043 -3.026438365882630 24.000000000000000
2.855877125258135 -4.650633181061165 -0.928909500780484 130.000000000000000
2.875959755791007 -4.646026098198380 -1.028054948886514 86.000000000000000
2.892995686245533 -4.636673366779200 -1.126159868386892 43.000000000000000
2.907465887462696 -4.622007881968258 -1.224296227333911 21.000000000000000
2.935367017049307 -4.628965833658657 -1.328870116316817 7.000000000000000
2.966986619664169 -4.640518345369061 -1.435772922514902 10.000000000000000
3.006043995637883 -4.662997115409797 -1.548469372628770 6.000000000000000
3.248730778183941 -4.998512764970189 -1.774547398440072 22.000000000000000
3.025035610139510 -4.615365247752431 -1.745997476294575 13.000000000000000
3.201535431600975 -4.843824897482745 -1.947025229094331 8.000000000000000
2.990253667071701 -4.486220089707589 -1.910657560440454 3.000000000000000
3.150140254219496 -4.686252359806284 -2.110080377368584 23.000000000000000
3.108291583856006 -4.585017399235818 -2.177715059054956 35.000000000000000
3.098779566015015 -4.532341485360296 -2.266946373721668 28.000000000000000
3.144715594270079 -4.560153997509771 -2.397718780455755 7.000000000000000
3.291032991914746 -4.731904083223052 -2.611851755614335 0.000000000000000
3.322250137515670 -4.734410353449059 -2.740075296215684 5.000000000000000
3.318407435059655 -4.687985797603561 -2.841377351991127 15.000000000000000
3.336852169413957 -4.671563050300019 -2.962012198919671 16.000000000000000
3.290732860701270 -4.563865663726188 -3.024690305297712 22.000000000000000
2.843598045354348 -4.662117534641200 -0.932850604141941 110.000000000000000
2.861498879159329 -4.654217177356593 -1.031351846155679 138.000000000000000
2.876357525942602 -4.641598953545046 -1.128672909838312 77.000000000000000
2.898995293491123 -4.640249436607970 -1.230274544309414 32.000000000000000
2.918453108027300 -4.634084856079473 -1.331309506801735 10.000000000000000
2.941586768675824 -4.632697320806969 -1.434143234178253 15.000000000000000
2.970023305289571 -4.639197546822390 -1.541170882022474 10.000000000000000
3.007729933613767 -4.660056605673437 -1.654804241704467 6.000000000000000
2.999235953864294 -4.608116020911949 -1.743466211563146 12.000000000000000
2.962598455454457 -4.513903365006466 -1.814415278573835 5.000000000000000
2.966658054327020 -4.482307114790668 -1.908789909181618 5.000000000000000
3.125703572747090 -4.682929223595759 -2.108149677349520 24.000000000000000
3.086125437135577 -4.584789838106741 -2.176954736933663 36.000000000000000
3.080791937704229 -4.538306667415555 -2.269050380460545 28.000000000000000
3.120246482421313 -4.557215463469315 -2.395046786276538 8.000000000000000
3.321847461781592 -4.727043292262946 -2.863056959567358 9.000000000000000
3.325725272547066 -4.690064470201857 -2.971469447410140 19.000000000000000
3.267501679446740 -4.564961668849052 -3.022901542682399 21.000000000000000
2.833313707241576 -4.676946024409728 -0.937450436617869 64.000000000000000
2.847010486188818 -4.662368376462600 -1.034626702580401 107.000000000000000
2.861765485577958 -4.649808155126554 -1.131971035880925 116.000000000000000
2.880147481990481 -4.641907758132048 -1.231845301560787 62.000000000000000
2.901532047480235 -4.639151077650419 -1.333721506229887 13.000000000000000
2.922455764418537 -4.634594367297353 -1.435508047916316 23.000000000000000
2.946583776994598 -4.634737469045784 -1.540281999562197 16.000000000000000
2.973723536839812 -4.639683307640054 -1.647971823561062 11.000000000000000
2.977652105529270 -4.607167583760742 -1.743310297560739 12.000000000000000
2.943244961404323 -4.516118064212699 -1.815304582503943 5.000000000000000
2.945188663798296 -4.481453105002151 -1.908220585336137 22.000000000000000
3.105459767844344 -4.685756868392176 -2.108985111520632 24.000000000000000
3.063993301089577 -4.584482089139727 -2.176155560899825 37.000000000000000
3.058664926070813 -4.538087466069675 -2.268062393393432 28.000000000000000
3.099957499601758 -4.560252121911250 -2.395518333318854 8.000000000000000
3.310411612736278 -4.702745007119812 -2.977237033269347 17.000000000000000
3.248380569663043 -4.571714102195698 -3.024869888511004 23.000000000000000
2.816863532678740 -4.681624728045588 -0.940003055323079 38.000000000000000
2.832494719874068 -4.670479615067358 -1.037879485839169 57.000000000000000
2.847145877135992 -4.657977110310982 -1.135246930903784 88.000000000000000
2.861313946764221 -4.643501908785829 -1.233384174195090 97.000000000000000
2.882553861405079 -4.640863746482729 -1.335156516173643 13.000000000000000
2.901285527861729 -4.633147389653621 -1.435824345651633 34.000000000000000
2.925256314941981 -4.633444103808754 -1.540433454834046 22.000000000000000
2.950166399931379 -4.635322500865058 -1.646814964010838 16.000000000000000
2.956103285158862 -4.606140895953371 -1.743116580753809 12.000000000000000
2.921846426361876 -4.515084979099327 -1.814882115253760 6.000000000000000
2.925813724301920 -4.483676320632574 -1.908956967164338 6.000000000000000
3.085228443117492 -4.688516068858394 -2.109786369715059 24.000000000000000
3.043952240369058 -4.587193785132913 -2.176788445391552 35.000000000000000
3.038626826346386 -4.540858444745218 -2.268569504113581 29.000000000000000
3.075577475375073 -4.557139878907874 -2.392763113438734 8.000000000000000
3.286907714805967 -4.703746755747920 -2.975617605160306 12.000000000000000
3.241419152639439 -4.595662712977790 -3.038214953792416 15.000000000000000
2.812538868400145 -4.706553554678922 -0.946612249380721 21.000000000000000
2.822006330276207 -4.685282540904870 -1.042608164064050 36.000000000000000
2.834530766602836 -4.669453016622153 -1.139317277469368 55.000000000000000
2.848603465519423 -4.655014141827832 -1.237545003470026 81.000000000000000
2.865629703786805 -4.645818505243280 -1.337511426909634 43.000000000000000
2.886278828768813 -4.641478150829825 -1.439159163529276 49.000000000000000
2.906009354556173 -4.635335460680181 -1.541632510747252 33.000000000000000
2.926665929393288 -4.630871977191836 -1.645615771858029 22.000000000000000
2.932541960792155 -4.601822574437407 -1.741668924219402 12.000000000000000
2.906628750687901 -4.523537671758183 -1.818266272540702 6.000000000000000
2.906453102063419 -4.485833581913440 -1.909660556455928 5.000000000000000
3.060915009227370 -4.684939436082997 -2.107733803524758 25.000000000000000
3.019832420703259 -4.583626738990128 -2.174441093358065 35.000000000000000
3.014514434616055 -4.537409116106582 -2.265970263830558 29.000000000000000
3.053294291395117 -4.556981211814379 -2.391562711974064 9.000000000000000
3.263435750220421 -4.704664607244479 -2.973957302572522 13.000000000000000
3.242388703252170 -4.631151365984410 -3.059172522490918 13.000000000000000
2.804059939707585 -4.724721418931393 -0.951856800163766 13.000000000000000
2.813465747160262 -4.703440099190529 -1.048075246765486 20.000000000000000
2.823888718241527 -4.684253200335040 -1.144188997560787 34.000000000000000
2.835844380146915 -4.666497344038288 -1.241688040400149 50.000000000000000
2.848699033598752 -4.650720508335308 -1.339839008733103 39.000000000000000
2.867180131806182 -4.643186100834166 -1.440429423747070 64.000000000000000
2.888811210779299 -4.640429374272680 -1.543886333530777 46.000000000000000
2.909330276839508 -4.636064822277630 -1.647833821689805 33.000000000000000
2.913112057477053 -4.603853490285039 -1.742616188542984 12.000000000000000
2.903608426710417 -4.551110955969835 -1.829329705325862 13.000000000000000
2.889144546634759 -4.491092184657629 -1.911679569791390 6.000000000000000
3.040731037732551 -4.687550121533604 -2.108462144379220 26.000000000000000
3.001874692328298 -4.589302279070912 -2.176477181794796 33.000000000000000
2.994524575186308 -4.540032493736180 -2.266404978026853 30.000000000000000
3.031045775113331 -4.556742199610278 -2.390323416497968 9.000000000000000
3.254083011202231 -4.725957423527016 -2.985179087963554 16.000000000000000
3.241125323093222 -4.663811848960266 -3.078240678943361 12.000000000000000
2.799493589253989 -4.749673672342268 -0.958463170906704 9.000000000000000
2.804835173788664 -4.721591893156439 -1.053533882871027 12.000000000000000
2.811166482393827 -4.695677106983602 -1.148226247398839 22.000000000000000
2.825051793374384 -4.681290356378074 -1.246702436042305 30.000000000000000
2.839835505349309 -4.668842947768663 -1.345965761684988 37.000000000000000
2.852138984949435 -4.651422307386400 -1.443713866692357 60.000000000000000
2.871606395964622 -4.645469740626123 -1.546112413630440 58.000000000000000
2.889962555015790 -4.637953571286051 -1.648868430530942 45.000000000000000
2.895723108801584 -4.609043862375958 -1.744751659075582 12.000000000000000
2.902457571828720 -4.581912606725774 -1.841684258514890 30.000000000000000
2.871829286392777 -4.496296838227205 -1.913670633198095 6.000000000000000
3.016508701129870 -4.683801486488642 -2.106327346633130 35.000000000000000
2.975811652285929 -4.582452782828322 -2.172572554201182 34.000000000000000
2.974548496524780 -4.542588225355746 -2.266806003318656 31.000000000000000
3.012870967335044 -4.562539026360207 -2.392252111950087 8.000000000000000
3.295609119905894 -4.949345944834318 -2.722964422673420 7.000000000000000
3.603100532348235 -5.364112201651195 -3.093034568492347 21.000000000000000
3.250616419879019 -4.756035391879455 -3.001938747210368 14.000000000000000
2.796786358520686 -4.778043395386235 -0.965757410843211 8.000000000000000
2.798110380048677 -4.743120693364975 -1.059739774301597 9.000000000000000
2.806397200410267 -4.720530237715550 -1.155540145707880 14.000000000000000
2.816193972002204 -4.699410312797990 -1.252594996008825 16.000000000000000
2.826865280361665 -4.680310780947423 -1.350165797386790 31.000000000000000
2.843102257861982 -4.669524062754147 -1.450051922760048 44.000000000000000
2.858421064118498 -4.657015743228359 -1.550494562237120 56.000000000000000
2.874638578799153 -4.646288658064320 -1.652186051031315 57.000000000000000
2.872280554777274 -4.604486477530235 -1.743189230373337 12.000000000000000
2.882982909475473 -4.583904335327677 -1.842452329976669 44.000000000000000
2.856523426930167 -4.504626537511620 -1.916986611571717 27.000000000000000
2.990328220667355 -4.676809789442195 -2.102732347698600 18.000000000000000
2.957881720885665 -4.587993197498156 -2.174541364279169 34.000000000000000
2.952575184377842 -4.541982410266131 -2.265630059261488 30.000000000000000
2.986654103765499 -4.556023861044962 -2.387728594721282 9.000000000000000
3.279885803247232 -4.962027650550255 -2.728473330056933 22.000000000000000
3.475633414398179 -5.212630233955384 -3.003857921535756 19.000000000000000
3.248956886918062 -4.789082127297004 -3.020555499399423 13.000000000000000
2.797886734841107 -4.813253477431942 -0.974435621777796 0.000000000000000
2.795244977687509 -4.771432033388941 -1.067457664482588 6.000000000000000
2.799505450716565 -4.742029442611075 -1.162028397595313 11.000000000000000
2.809239067510198 -4.720874171793951 -1.259372429292945 11.000000000000000
2.817840528196546 -4.698408483424839 -1.356270061799832 24.000000000000000
2.831973882346703 -4.684310774046739 -1.455353050587995 32.000000000000000
2.841182073408863 -4.661960626828465 -1.552669810243395 43.000000000000000
2.857282953859498 -4.651319661166760 -1.654320262593513 55.000000000000000
2.856915619359269 -4.612788220705932 -1.746487324539649 12.000000000000000
2.859512753028543 -4.579407364726864 -1.840606151014515 51.000000000000000
2.845199788479274 -4.519283672434279 -1.922989665002501 96.000000000000000
2.876041466741591 -4.530791842402047 -2.036642030992672 19.000000000000000
2.937941750523100 -4.590348889471100 -2.174998699646670 34.000000000000000
2.932638352477606 -4.544397260832398 -2.265961568367041 30.000000000000000
2.966509274634495 -4.558614672315889 -2.387981363590143 9.000000000000000
3.264108412312928 -4.974672176273221 -2.733959950562741 0.000000000000000
3.283631209738644 -4.961235888693666 -2.857254720036051 14.000000000000000
3.251051558819290 -4.828054848752509 -3.042889110588169 11.000000000000000
2.821846632387266 -4.850687473630287 -1.086585761203817 0.000000000000000
2.796460186852371 -4.770285141587773 -1.170168402964519 7.000000000000000
2.800188843955840 -4.738986270700276 -1.265249210353256 8.000000000000000
2.806738130699499 -4.713163545543510 -1.361401652208932 17.000000000000000
2.822764514554198 -4.702392604466610 -1.461670376258386 22.000000000000000
2.831902970692583 -4.680016528500701 -1.559203276530282 32.000000000000000
2.843906945922763 -4.662831883728220 -1.658751369862221 46.000000000000000
2.847505014558469 -4.630776078763133 -1.753445779150161 20.000000000000000
2.760312280870993 -4.452568681088952 -1.789582144596488 40.000000000000000
2.829816545182815 -4.527540450748072 -1.926263685856518 99.000000000000000
2.854483732201338 -4.529664424274901 -2.035693205288126 23.000000000000000
2.916024558209969 -4.589502362074469 -2.173937635818751 35.000000000000000
2.910726589331492 -4.543639076368623 -2.264711607656646 31.000000000000000
2.944391936878119 -4.558061932311865 -2.386589940324174 10.000000000000000
3.285145105529446 -4.958630831425766 -2.986994796321167 22.000000000000000
3.252896797513645 -4.867095377710297 -3.065242079998990 11.000000000000000
3.268299474824023 -5.657758877962152 -1.268983459981042 28.000000000000000
2.962549170391361 -5.089389809049308 -1.249725483679715 29.000000000000000
2.804854988500839 -4.780624354435851 -1.277404898713311 4.000000000000000
2.801492832811170 -4.737923610868166 -1.369416578432435 12.000000000000000
2.809506398838390 -4.713827662860893 -1.465913558070035 16.000000000000000
2.820551117910905 -4.694767858867403 -1.564628435954405 22.000000000000000
2.832463852687556 -4.677586516464803 -1.664328364297453 34.000000000000000
2.839985040557881 -4.652004652872073 -1.761624727081233 42.000000000000000
2.771092985384784 -4.502464387157169 -1.809586170573998 31.000000000000000
2.802505403905573 -4.516576100632258 -1.921355716226846 70.000000000000000
2.856752986389015 -4.566486873705786 -2.051793363628560 15.000000000000000
2.896124945315650 -4.591717718858659 -2.174325801585370 37.000000000000000
2.892808850501475 -4.549025052346463 -2.266524217294974 30.000000000000000
2.922310936231574 -4.557429728602161 -2.385160175089837 10.000000000000000
3.371071994563274 -5.126539799800360 -3.086079598541499 16.000000000000000
3.262324904585327 -4.918010669039423 -3.095044955430654 15.000000000000000
3.242852272453867 -5.653460116065183 -1.269605393459330 29.000000000000000
2.970026923879801 -5.138505904212842 -1.263060229679824 32.000000000000000
2.928949678957411 -5.027754509880285 -1.344515662427828 40.000000000000000
2.800043225843742 -4.769392512193152 -1.379366883045431 7.000000000000000
2.806038435568095 -4.741858470644748 -1.475310998565799 11.000000000000000
2.811098729230433 -4.712802338167135 -1.571140367976532 16.000000000000000
2.822921319460130 -4.695600555318785 -1.671057943049070 23.000000000000000
2.820516429970589 -4.653710401523511 -1.762403633398959 39.000000000000000
2.779591755199262 -4.549239427878227 -1.828328827718490 34.000000000000000
2.771352323927779 -4.499095695508799 -1.913672965612018 30.000000000000000
2.874571017313597 -4.628768048172832 -2.079320038530611 16.000000000000000
2.876240499034244 -4.593865983982464 -2.174680646192463 36.000000000000000
2.868981227334630 -4.545003612371543 -2.263650344185494 32.000000000000000
2.902231557881739 -4.559805454302345 -2.385307150735501 9.000000000000000
3.236364623474433 -4.915798273718404 -3.091403460570999 15.000000000000000
3.215515870529664 -5.645656805128060 -1.269415977953275 30.000000000000000
2.948012940794495 -5.136818938287155 -1.263901458248471 32.000000000000000
2.893459773768746 -5.002413880749111 -1.338794197504134 27.000000000000000
2.970386042533256 -5.095925680705850 -1.474702754810690 48.000000000000000
2.800457122795438 -4.766584078584596 -1.483675208786662 6.000000000000000
2.805472548801880 -4.737445010749034 -1.579848900385150 12.000000000000000
2.811325920652450 -4.710321331434097 -1.676608339029889 17.000000000000000
2.801063758234492 -4.655350465455990 -1.763149984001349 36.000000000000000
2.803497368052101 -4.621985173366656 -1.857501430552273 41.000000000000000
2.791347822406710 -4.564887422331373 -1.941402625883194 36.000000000000000
2.886108142993840 -4.681659519155447 -2.102614547092698 28.000000000000000
2.854412390393637 -4.592795027478349 -2.173510464924756 38.000000000000000
2.849126425721149 -4.547138203341529 -2.263843804234163 33.000000000000000
2.878259284902906 -4.555927673716485 -2.382186080207530 10.000000000000000
3.214332240795033 -4.919416771666810 -3.091440905537236 17.000000000000000
3.188254845583296 -5.637749388705852 -1.269178029183228 25.000000000000000
2.922161640149025 -5.128257012949851 -1.263031020193969 32.000000000000000
2.877559857116349 -5.010704941777729 -1.342054117819689 19.000000000000000
2.903501147866755 -5.017141233706939 -1.452773528590761 22.000000000000000
2.905674160014955 -4.981508406688986 -1.551262605076375 21.000000000000000
2.803607600535522 -4.768729412207048 -1.590767178241645 6.000000000000000
2.805508696452097 -4.734893129221788 -1.685658331032705 11.000000000000000
2.785528593969738 -4.663456395468743 -1.766337708293250 27.000000000000000
2.762558346781390 -4.587992568394426 -1.843771019672995 56.000000000000000
2.810923327102625 -4.630842020198203 -1.969189740252812 36.000000000000000
2.866115337898499 -4.683687935237163 -2.103057344719065 38.000000000000000
2.834570041865509 -4.594803688380008 -2.173796619513433 38.000000000000000
2.827341523004764 -4.546077154733417 -2.262446997280605 34.000000000000000
2.858232354960155 -4.558156876222149 -2.382261466927521 10.000000000000000
3.188460896706761 -4.917023840594772 -3.087712690843263 16.000000000000000
3.153383158523188 -5.616048883401144 -1.265806302240229 15.000000000000000
2.900240701170365 -5.126403022063650 -1.263792677084136 34.000000000000000
3.019861362259318 -5.296466641397233 -1.419675480276953 48.000000000000000
2.881599458889189 -5.015388219335746 -1.453121319050047 18.000000000000000
2.893400275275034 -4.996553915050964 -1.556625780663820 25.000000000000000
2.935248346011613 -5.029097658483439 -1.678122131631808 28.000000000000000
2.805371825692991 -4.769366379948500 -1.698227680090308 6.000000000000000
2.777725321556481 -4.684604914270604 -1.774458462510646 23.000000000000000
2.783957312394419 -4.657674347413391 -1.871697453172621 27.000000000000000
2.797102411387510 -4.642229692673800 -1.973764317406687 31.000000000000000
2.850015809121825 -4.692032921282784 -2.106332583746973 32.000000000000000
2.814743697993456 -4.596745582198560 -2.174049669888927 37.000000000000000
2.809464385904026 -4.551206822771132 -2.264131250766709 36.000000000000000
2.838221141851314 -4.560318745126763 -2.382303442635656 11.000000000000000
3.168388845638663 -4.923459971626987 -3.089539452834240 17.000000000000000
3.126316927990311 -5.607912362413115 -1.265463314859572 15.000000000000000
2.884101335205268 -5.134699876525946 -1.267040909470413 37.000000000000000
3.152695392735775 -5.569532091839671 -1.493990642069304 64.000000000000000
2.886640777706931 -5.060727988441889 -1.467106419957475 34.000000000000000
2.871432338670818 -4.994838382329615 -1.556756197624505 47.000000000000000
2.899523687864388 -5.004311446708191 -1.670338087890795 27.000000000000000
2.920705062548247 -5.001984448624652 -1.781357211039431 21.000000000000000
2.769807750601244 -4.705755383952165 -1.782573221810110 16.000000000000000
2.779835507951514 -4.685259170267380 -1.882699406744839 21.000000000000000
2.790947394141136 -4.666484865641209 -1.983803327418913 26.000000000000000
2.830032742534646 -4.693938433007928 -2.106713237085890 27.000000000000000
2.794933630469714 -4.598620808879727 -2.174269683688699 38.000000000000000
2.787733790019597 -4.550000953227238 -2.262663837518557 37.000000000000000
2.820147000401356 -4.565523409166421 -2.383936009309110 11.000000000000000
3.142596937957050 -4.920892991452991 -3.085727248512384 19.000000000000000
3.101227761871149 -5.603106183345630 -1.265848121677173 14.000000000000000
2.886977623076373 -5.177101901164496 -1.278699381721618 21.000000000000000
3.148344996577861 -5.602338965283508 -1.503902224411299 63.000000000000000
2.847462355998559 -5.028523265321413 -1.458599294286272 35.000000000000000
2.849501669767939 -4.993044876915470 -1.556849090662905 55.000000000000000
2.873566939520261 -4.996022032039499 -1.668045832545401 49.000000000000000
2.894590164426518 -4.993890321907038 -1.778765648636288 27.000000000000000
2.759857909801870 -4.723624788964360 -1.789438227708758 11.000000000000000
2.769800785993742 -4.703096837648630 -1.889777696346295 15.000000000000000
2.778902025870178 -4.681060844544382 -1.989720809633368 20.000000000000000
2.813899538029748 -4.702183178844240 -2.109935246037244 26.000000000000000
2.773224899826522 -4.597254569686271 -2.172956068695561 37.000000000000000
2.764128900978125 -4.545571518531398 -2.259595315248645 33.000000000000000
2.796336894407248 -4.561325220380196 -2.380661296131893 11.000000000000000
3.116861777542157 -4.918230823454568 -3.081869923750540 19.000000000000000
3.070525766142440 -5.587892170339205 -1.263856246618729 14.000000000000000
2.912334291994369 -5.260613362485311 -1.300522980233203 22.000000000000000
3.145710549016770 -5.638574361639808 -1.514730441386461 62.000000000000000
2.825618177783881 -5.026564919376918 -1.458845785087176 35.000000000000000
2.831414259621069 -4.997891182503843 -1.559000005857861 52.000000000000000
2.849596063652458 -4.990968309300026 -1.666821409023554 55.000000000000000
2.872368388374937 -4.992320620185718 -1.778487747141612 53.000000000000000
2.765071102848012 -4.767789194406375 -1.806258008673371 7.000000000000000
2.763487591089046 -4.727449415955400 -1.899466860326814 11.000000000000000
2.768692378036181 -4.698851389159239 -1.996998282022456 15.000000000000000
2.790115515869121 -4.697548527117858 -2.107374965087898 26.000000000000000
2.755363408263554 -4.602171665019320 -2.174610874178540 37.000000000000000
2.748192448281084 -4.553658526024783 -2.262748836166449 33.000000000000000
2.772587440706527 -4.557037570498624 -2.377344624723228 11.000000000000000
3.096828049124420 -4.924449042534579 -3.083587790486353 19.000000000000000
2.500132955304819 -4.617577024481928 -0.948795883620616 0.000000000000000
3.045580834887030 -5.582886615665908 -1.264148098439135 15.000000000000000
2.886353441351558 -5.251820459811714 -1.299526709806729 7.000000000000000
3.137213486194383 -5.664628807988285 -1.522818442805743 41.000000000000000
2.805701146555945 -5.027915004413519 -1.460038281898138 36.000000000000000
2.833260412418015 -4.999192258170662 -1.670020419417506 47.000000000000000
2.848289278575905 -4.987353986531477 -1.776989701314593 67.000000000000000
2.815519533852461 -4.891079363146929 -1.853049491485173 10.000000000000000
2.764622294460212 -4.764885972198563 -1.914405714815674 7.000000000000000
2.767868660223211 -4.732839563493605 -2.011152094194723 12.000000000000000
2.773971477820086 -4.705681838815813 -2.110539426800568 25.000000000000000
2.731817491153712 -4.597475391504403 -2.171722178258091 37.000000000000000
2.726556534075915 -4.552230846219329 -2.261173984729432 33.000000000000000
2.754562963904663 -4.562041226483934 -2.378877618908910 11.000000000000000
3.069304090591089 -4.918616674627595 -3.077771662673529 20.000000000000000
2.454187513942540 -4.565769222544841 -0.939435496918662 17.000000000000000
2.566748046901974 -4.739569205880712 -1.074385501760047 1.000000000000000
2.888533014114528 -5.294396411326960 -1.311231354909815 1.000000000000000
3.130453621871602 -5.694099521564993 -1.531818122305738 25.000000000000000
2.783921992790447 -5.025807539098420 -1.460212627667335 35.000000000000000
3.169549361836248 -5.677992784570140 -1.772556002289593 33.000000000000000
3.048500489123928 -5.419073372776859 -1.810763526325845 27.000000000000000
2.829922474813023 -4.992269157195149 -1.779002936665976 61.000000000000000
2.848206988806280 -4.985017881989693 -1.888716406758319 66.000000000000000
2.835282951660437 -4.923501000807976 -1.978020343441023 22.000000000000000
2.859195253913334 -4.925984036146124 -2.092918482796934 24.000000000000000
2.754032795300152 -4.707330968192003 -2.110791917340922 24.000000000000000
2.712097348992422 -4.599073904072259 -2.171806435774105 36.000000000000000
2.704960159432375 -4.550725846981447 -2.259562081797837 34.000000000000000
2.732779662384310 -4.560724490294534 -2.377116623240508 11.000000000000000
3.051156790808262 -4.927693087587047 -3.081295031711738 20.000000000000000
2.440079351471766 -4.572767185304393 -0.942144907922587 65.000000000000000
2.512957483184613 -4.674352851353816 -1.060761098809199 7.000000000000000
2.542421411582096 -4.694390383475244 -1.163652995297161 2.000000000000000
3.022834524841010 -5.539063498396009 -1.491141507760482 12.000000000000000
2.764048853851591 -5.027019688501942 -1.461337395995723 35.000000000000000
3.151141876067863 -5.687125873490508 -1.776092389479315 31.000000000000000
3.068202405388722 -5.494927910803067 -1.836583037775397 23.000000000000000
2.892094216921790 -5.140283441194703 -1.832007965219333 42.000000000000000
2.827823494331364 -4.986666216633998 -1.889410047816172 67.000000000000000
2.852426286176450 -4.990761238918243 -2.004921579025195 60.000000000000000
2.872412808053274 -4.986349815309120 -2.118250263660600 48.000000000000000
2.734111371997066 -4.708913434460611 -2.111011433477493 24.000000000000000
2.690523851611822 -4.597409237821597 -2.170348751675760 36.000000000000000
2.685272313949617 -4.552311651951314 -2.259485610364440 33.000000000000000
2.712901746883528 -4.562467947978962 -2.376953162227001 11.000000000000000
3.027434444560992 -4.927694274041698 -3.079151478161207 19.000000000000000
2.424105816640094 -4.576248766294178 -0.944115574875602 62.000000000000000
2.483600253904383 -4.653854170520550 -1.057246961846932 9.000000000000000
2.461019561804639 -4.577762872339671 -1.135724350819056 22.000000000000000
2.554712828953519 -4.716092082430117 -1.270457331680312 5.000000000000000
2.742335943058156 -5.024763746119524 -1.461439999142702 35.000000000000000
3.121548891136783 -5.675924858429348 -1.773264086848461 23.000000000000000
3.048354514588102 -5.500431342871418 -1.838883845094099 23.000000000000000
2.893726708270869 -5.181999648105335 -1.847127874532791 26.000000000000000
2.807456561231203 -4.988246839857753 -1.890070136648111 75.000000000000000
2.835608903161557 -4.999050199241430 -2.008124312331068 56.000000000000000
2.851720684670374 -4.988197516568722 -2.118714391398888 55.000000000000000
2.716069074123028 -4.713660088838560 -2.112646054473617 25.000000000000000
2.672710320803768 -4.602072755166652 -2.171877044683198 37.000000000000000
2.667460012251963 -4.557004881502204 -2.260951037285381 35.000000000000000
2.691186795354837 -4.561001526258619 -2.375119935913618 11.000000000000000
3.005585711044193 -4.930626237078576 -3.078849694902194 20.000000000000000
2.408130570009404 -4.579680780907238 -0.946060834605814 36.000000000000000
2.432362883881805 -4.591646002961800 -1.044221137786010 15.000000000000000
2.468672420566531 -4.626179763301872 -1.148712878638705 16.000000000000000
2.510223322458379 -4.668582392896074 -1.258499627384449 15.000000000000000
2.626527901799933 -4.848656383374792 -1.410938147838282 16.000000000000000
3.092057142403319 -5.664608565743267 -1.770383129444199 25.000000000000000
3.026649026058502 -5.502510916190129 -1.840028611263310 23.000000000000000
2.900664145867268 -5.233796744368572 -1.865835778281955 13.000000000000000
2.788958360690748 -4.993075308544077 -1.891953018851325 72.000000000000000
2.976184986303643 -5.286937802300514 -2.123627933962678 38.000000000000000
2.832896577083618 -4.993240178580043 -2.120530476687818 39.000000000000000
2.694321381881513 -4.711878794824254 -2.111351821469276 25.000000000000000
2.653043969880675 -4.603473305184393 -2.171863536766174 37.000000000000000
2.645950833522164 -4.555285436818918 -2.259234997889515 34.000000000000000
2.673199212363895 -4.565755382026790 -2.376527669207841 12.000000000000000
2.987403634266029 -4.939524751079091 -3.082280123455874 18.000000000000000
2.393974316614871 -4.586551121547564 -0.948702156010587 57.000000000000000
2.407083474129382 -4.577776730551859 -1.042154189067601 18.000000000000000
2.423009212545475 -4.574560828271783 -1.136846332782552 18.000000000000000
2.484379669490429 -4.655192213255614 -1.255714583600479 20.000000000000000
2.502701284218278 -4.654867495709387 -1.355223553278354 7.000000000000000
2.539055776150243 -4.686677407410122 -1.465276303114750 3.000000000000000
2.999441162684550 -5.494413119467072 -1.837757651112266 21.000000000000000
2.859445216693154 -5.198706221767454 -1.853559460197330 19.000000000000000
2.750205965549060 -4.961317903001700 -1.879964843398187 73.000000000000000
2.853437336522254 -5.107757769355352 -2.051513084562421 37.000000000000000
3.029401086224110 -5.380692331772574 -2.284717726457254 46.000000000000000
2.678132105852934 -4.719745065974109 -2.114377198092331 27.000000000000000
2.629720722548855 -4.598381272413329 -2.168786433680249 37.000000000000000
2.624482430021314 -4.553489372018182 -2.257482339560350 40.000000000000000
2.647877807002916 -4.557836933020393 -2.371342575668200 11.000000000000000
2.914973911649021 -4.978599920765441 -2.714746014521424 11.000000000000000
2.963747164113672 -4.939298973860859 -3.080024739190456 19.000000000000000
2.374365979973473 -4.582903128501359 -0.949151783392449 56.000000000000000
2.420006941670878 -4.636798294346227 -1.056675910491325 28.000000000000000
2.406777229129717 -4.578047243769069 -1.138649552391393 27.000000000000000
2.455000620205011 -4.634821244672990 -1.251026772183926 16.000000000000000
2.482279247344800 -4.651817062699225 -1.354999539993165 11.000000000000000
2.501944450605450 -4.653242507196490 -1.455337807969111 7.000000000000000
2.533596438807035 -4.676439328807708 -1.564525579607065 4.000000000000000
2.816656781531056 -5.160078609292233 -1.840009054591814 35.000000000000000
2.634842982840909 -4.789687000503504 -1.814965810416761 41.000000000000000
2.569072368437944 -4.634157405948233 -1.861157785525930 5.000000000000000
2.610468755808726 -4.672446647676469 -1.983673158452110 2.000000000000000
2.658260137900804 -4.721072673065628 -2.114469639148445 27.000000000000000
2.611940395762742 -4.602858407281136 -2.170221613454286 36.000000000000000
2.606703412252354 -4.557996168376250 -2.258854632246032 34.000000000000000
2.629926973404109 -4.562458354237806 -2.372684951780820 11.000000000000000
2.891724984861467 -4.977797408654056 -2.712923804739991 22.000000000000000
2.914621368827189 -4.976287715593079 -2.839141921076389 15.000000000000000
2.947343146406427 -4.951110807844213 -3.085282182520634 21.000000000000000
2.372788992514682 -4.614167257752440 -0.956822300370600 12.000000000000000
2.403730013524972 -4.640239227139800 -1.058530083177738 47.000000000000000
2.419454492856779 -4.636890592454062 -1.154219039266878 33.000000000000000
2.409480322380372 -4.583333882486149 -1.237914010630879 16.000000000000000
2.456460430101107 -4.638424216856061 -1.351748105170012 14.000000000000000
2.477779622381894 -4.643451715458998 -1.452778134854023 10.000000000000000
2.500117548510080 -4.649970912688663 -1.556020165287489 11.000000000000000
2.536002907672879 -4.681619194692703 -1.669590059912774 5.000000000000000
2.602491536659961 -4.767353367604940 -1.806531391921854 27.000000000000000
2.531633323156745 -4.601959703893089 -1.848086470062092 7.000000000000000
2.501843963147615 -4.512795187732141 -1.915586692802875 5.000000000000000
2.638406736555794 -4.722334084523047 -2.114529424398929 26.000000000000000
2.594156767445022 -4.607280740243937 -2.171628616153433 37.000000000000000
2.587108138383660 -4.559253159945862 -2.258615970861959 36.000000000000000
2.608352384405762 -4.560694571900093 -2.370708514475324 10.000000000000000
2.872127300073453 -4.983181723441531 -2.714476871025258 50.000000000000000
2.891246541410319 -4.975585446633457 -2.837128636497158 22.000000000000000
2.931949480653135 -5.005912016969551 -2.984475351088972 17.000000000000000
2.925509766328835 -4.953776788967208 -3.084845560510984 23.000000000000000
2.374614230593182 -4.652470833097240 -0.965953623650655 117.000000000000000
2.387451774228714 -4.643629821746920 -1.060358479154497 72.000000000000000
2.403045415559012 -4.640359374274198 -1.156002425752813 49.000000000000000
2.403894140480388 -4.607500913254568 -1.245216565791822 13.000000000000000
2.437957330711174 -4.638641058986137 -1.352448586645572 20.000000000000000
2.455505266196472 -4.636973854343476 -1.451242006633079 14.000000000000000
2.474059067870747 -4.636893451900259 -1.551982875037943 45.000000000000000
2.498847148480703 -4.648633406127225 -1.658009162811793 9.000000000000000
2.528741429789438 -4.668134865389466 -1.768954397321121 6.000000000000000
2.507089674096235 -4.592770887183979 -1.844250781177904 10.000000000000000
2.462999538897531 -4.477387027267429 -1.900248057346168 6.000000000000000
2.596901226729365 -4.684438130788780 -2.097056846493111 19.000000000000000
