# This PCD file was generated using the MATLAB® pcwrite function
# from Computer Vision Toolbox®.
# .PCD v.7 - Point Cloud Data file format
VERSION .7
FIELDS x y z intensity
SIZE 8 8 8 8
TYPE F F F F
COUNT 1 1 1 1
WIDTH 638
HEIGHT 1
VIEWPOINT 0 0 0 1 0 0 0
POINTS 638
DATA ascii
6.110318650051827 -7.293853704246237 -1.643788348870455 7.000000000000000
6.122758003012058 -7.239672208069273 -1.805570479449952 31.000000000000000
6.160808791497738 -7.216526672747000 -1.975105520253361 24.000000000000000
7.127382321042552 -8.269323988583251 -2.465677598862366 0.000000000000000
5.791139032848725 -6.654782440371076 -2.150111479329555 31.000000000000000
5.682783223233606 -6.468286713700806 -2.253273580170929 20.000000000000000
5.700863695816215 -6.425685952103916 -2.403562598864248 5.000000000000000
5.558389664498386 -6.204022322860429 -2.482997252323693 52.000000000000000
5.470377516472668 -6.046022777802499 -2.580171001612811 1.000000000000000
5.370336530918986 -5.876946158818970 -2.667171796307841 55.000000000000000
5.373468695734165 -5.822304609260042 -2.802466630123222 71.000000000000000
5.369632337469214 -5.760356793460130 -2.934715347770995 78.000000000000000
5.374517850872867 -5.707622417294758 -3.071482412816849 20.000000000000000
7.291763066546489 -8.921031218939294 -1.596501604151728 40.000000000000000
7.344023426771046 -8.901864390962396 -1.801257969296385 39.000000000000000
6.967665568920802 -8.368176371187330 -1.889964216692366 23.000000000000000
6.115093478445805 -7.275101140878940 -1.817556364972351 19.000000000000000
6.132732967215994 -7.228074600948315 -1.981004774337489 32.000000000000000
6.176972567192802 -7.211201251617368 -2.152506077301457 15.000000000000000
5.779617516754956 -6.683055984651345 -2.161018293776136 19.000000000000000
5.679281050021548 -6.504920799513362 -2.267367669109843 18.000000000000000
5.605596322463536 -6.358220540865086 -2.379230426693590 7.000000000000000
5.527294092033165 -6.208498427413768 -2.485265236745580 85.000000000000000
5.477529906983436 -6.032740299349833 -2.737503716655467 12.000000000000000
5.373561379240046 -5.859997530212026 -2.819816137525417 70.000000000000000
5.372240878956247 -5.800574827322691 -2.953973529180945 78.000000000000000
5.374512197099385 -5.744886253080876 -3.089855107022384 18.000000000000000
7.294503344705001 -8.978537746050090 -1.611980426941129 43.000000000000000
7.354132507161951 -8.968489042952083 -1.819488761589985 37.000000000000000
7.469144396301841 -9.025450158478487 -2.042742133509129 27.000000000000000
6.094663711024048 -7.295480307829430 -1.825771433558854 0.000000000000000
6.117253742316816 -7.254494517025353 -1.990962569854082 24.000000000000000
6.148668291879149 -7.222855624806480 -2.158290726394685 27.000000000000000
5.866712342055658 -6.826227892093126 -2.209100056761044 8.000000000000000
5.673054335138153 -6.538676563564469 -2.280453311879668 19.000000000000000
5.716346192401248 -6.524855800697859 -2.442496057052962 4.000000000000000
5.503837519273417 -6.221467846356875 -2.490922399069426 52.000000000000000
5.368370071560001 -5.892180362991092 -2.834504073865660 22.000000000000000
5.372085967185688 -5.838112874140379 -2.971853702651419 75.000000000000000
7.294459453731120 -9.033057149312061 -1.626934483971303 41.000000000000000
7.361391653943621 -9.032188367816948 -1.837145123696374 36.000000000000000
7.483526583151122 -9.098358960112003 -2.063563450010713 32.000000000000000
6.989920808407700 -8.418772835584321 -2.110451855650012 0.000000000000000
6.104172014049808 -7.283894252260541 -2.001727390224991 4.000000000000000
6.125379814359704 -7.240371693409998 -2.165807902631696 27.000000000000000
5.761220828357264 -6.745504965683742 -2.184718133956512 14.000000000000000
5.840899028589279 -6.774554839920494 -2.364066255149089 10.000000000000000
5.699659650839831 -6.547021334271389 -2.451691561592455 11.000000000000000
5.465172417036886 -6.217103613744976 -2.489628307201373 24.000000000000000
6.359573775822385 -7.164480688970121 -3.057641876879369 9.000000000000000
5.357952620537380 -5.918808473548444 -2.846511192587824 43.000000000000000
5.379302996767756 -5.884003086290028 -2.993971100310567 40.000000000000000
7.301576293458532 -9.096922945572150 -1.643586490917730 39.000000000000000
7.368315202774507 -9.096009658108777 -1.854843220370373 36.000000000000000
7.500007186148843 -9.174481867397690 -2.085137566806250 29.000000000000000
7.553215915299280 -9.153456487542844 -2.298457671467859 21.000000000000000
7.005098664596424 -8.410882330841364 -2.314518333478898 16.000000000000000
6.112068027795319 -7.269761103569608 -2.176863321531385 15.000000000000000
5.852306097723821 -6.895170517967574 -2.234948068008607 40.000000000000000
5.816055410907658 -6.788311367419219 -2.370196666147931 8.000000000000000
5.695468250110510 -6.583709028833178 -2.466317261757623 12.000000000000000
5.451782479004707 -6.241422462882362 -2.499809881059908 31.000000000000000
6.252005952272646 -7.088454013834400 -3.025230117941834 10.000000000000000
5.433043846298193 -6.040655155940938 -2.904290593450573 84.000000000000000
5.486930720020497 -6.040838238278246 -3.072501367396071 11.000000000000000
7.308358777909218 -9.160909322648479 -1.660279601624219 37.000000000000000
7.382334298886276 -9.169182339999789 -1.874469395675286 35.000000000000000
7.518556686602455 -9.253838558613857 -2.107472723775306 30.000000000000000
7.554205006279339 -9.211345559150713 -2.316807223965459 21.000000000000000
7.093029840615752 -8.569467835521937 -2.361256592598409 17.000000000000000
6.983419704782619 -8.358117793277913 -2.505332748467758 31.000000000000000
6.117686925278309 -7.253163169827853 -2.352808261659158 24.000000000000000
5.715996901910751 -6.713692933912744 -2.345438681031076 8.000000000000000
5.696101993949001 -6.626273349780242 -2.483139055414002 15.000000000000000
5.448319344450872 -6.277292909676152 -2.514610515967018 38.000000000000000
6.252957981664177 -7.135049074539189 -3.045141570347714 7.000000000000000
7.307424942445872 -9.215706196172436 -1.675320869669127 38.000000000000000
7.386088147887576 -9.230180800121847 -1.891625826821117 34.000000000000000
7.531722574694204 -9.327256117565790 -2.128479357469375 27.000000000000000
7.559851712521102 -9.275411381471006 -2.336717738446367 22.000000000000000
7.095508482846697 -8.625907529397578 -2.379890473137935 15.000000000000000
7.073480249050687 -8.518953441859832 -2.556130947685264 18.000000000000000
5.959389162250942 -7.109981475166734 -2.308125697537271 4.000000000000000
5.638949376660776 -6.665123236547381 -2.329737789772316 16.000000000000000
5.669022166589014 -6.636732197521377 -2.487920700726910 24.000000000000000
5.444666698522614 -6.313206413368442 -2.529421539443833 23.000000000000000
5.336915363021723 -5.952654828502605 -3.025151054186772 48.000000000000000
7.316015924396585 -9.283018877072676 -1.692652215278713 38.000000000000000
7.396897973445269 -9.300556013219980 -1.910720862763303 33.000000000000000
7.546955334593960 -9.403904217596232 -2.150245252039762 25.000000000000000
7.555273856887571 -9.327394113094844 -2.353588750490368 21.000000000000000
7.092735840644818 -8.676385137980530 -2.396881146878794 11.000000000000000
7.031117953788242 -8.521081584802554 -2.559325877072989 19.000000000000000
7.081219835587707 -8.501699215551465 -2.762001464223147 12.000000000000000
5.679139257517066 -6.755186561373280 -2.362483399893072 11.000000000000000
5.626993613874527 -6.629509157096585 -2.486058568374412 33.000000000000000
5.445804395390651 -6.354973849091065 -2.546571393955515 1.000000000000000
5.964667184233504 -6.827636032334919 -3.095566441104086 34.000000000000000
3.950758732373611 -4.478785750651985 -2.151531463476744 0.000000000000000
3.950265581396131 -4.434847936015019 -2.252871416850155 0.000000000000000
7.316927187405796 -9.341111737996409 -1.708318480982872 37.000000000000000
7.404882331393365 -9.367977921955848 -1.929228683170086 32.000000000000000
7.564225253826390 -9.483802289174291 -2.172778509012729 24.000000000000000
7.552891436367704 -9.382494094875852 -2.371246826052313 19.000000000000000
7.092167267634291 -8.729963590559821 -2.414728795412985 8.000000000000000
6.986333132872967 -8.520036730817385 -2.561536152788785 19.000000000000000
7.018856125499007 -8.480070486951886 -2.757021440952665 19.000000000000000
5.659345137748613 -6.774391772068467 -2.370449056692037 13.000000000000000
5.592503123962477 -6.630929101280289 -2.487421167045119 36.000000000000000
6.146154069289037 -7.218259950124331 -2.892966893863963 31.000000000000000
6.209619378832213 -7.223352116932623 -3.082848579615361 15.000000000000000
5.881611275103756 -6.776206959635235 -3.071794922966601 41.000000000000000
3.932677561251314 -4.487340957363614 -2.155030007122273 23.000000000000000
3.924731289737880 -4.435048779315617 -2.252048540427914 20.000000000000000
7.322403168781891 -9.405539882760612 -1.725157195044104 36.000000000000000
7.410069100105014 -9.432424249698837 -1.947139621435038 33.000000000000000
7.576165977835276 -9.557714228803334 -2.193962578719505 26.000000000000000
7.373724951987866 -9.217046339358253 -2.333079748005662 9.000000000000000
7.110967295964392 -8.807960266137879 -2.439340088192138 4.000000000000000
6.936694960863247 -8.512778243053274 -2.561844180377340 19.000000000000000
6.973946791097021 -8.479140982164802 -2.758737820004092 24.000000000000000
5.639476321353319 -6.793550030383430 -2.378386176711539 29.000000000000000
5.555586727094092 -6.629271052965255 -2.487613600230730 31.000000000000000
6.126771380435305 -7.241733200957832 -2.902821506400954 28.000000000000000
6.157828914354760 -7.209371568266771 -3.076869943985802 29.000000000000000
3.950810595118397 -4.581281941480329 -2.076479572296933 9.000000000000000
3.907168147007017 -4.487329580073482 -2.154412753121205 25.000000000000000
3.904172930740657 -4.440763642906250 -2.254026618013620 26.000000000000000
3.927217396903841 -4.423484427037509 -2.368994099024408 0.000000000000000
7.327541311367664 -9.470082230941122 -1.742033544284811 36.000000000000000
7.422204413260231 -9.506319773800257 -1.967019574390298 30.000000000000000
7.595013602013163 -9.641057000870662 -2.217334501422334 24.000000000000000
7.347051370327280 -9.241078163078090 -2.342777527989645 14.000000000000000
7.107310438232939 -8.858700996219744 -2.456410998623889 0.000000000000000
5.906785280260858 -7.294596567727772 -2.197350351443272 1.000000000000000
6.936469796477924 -8.487046626209109 -2.763302793235324 29.000000000000000
5.867706471449614 -7.113526321640988 -2.491679761973665 20.000000000000000
5.521193123677171 -6.630420868238251 -2.488844229977168 29.000000000000000
6.117131998506712 -7.276876615955708 -2.917344482402151 12.000000000000000
6.130806537381974 -7.224168319144438 -3.083163845445823 30.000000000000000
3.930107884142329 -4.586909153465269 -2.078716054890335 13.000000000000000
3.886619059395617 -4.492905567172908 -2.156476721787049 26.000000000000000
3.876241705122472 -4.437964581278936 -2.251684840021558 26.000000000000000
3.911460256185187 -4.434840146931879 -2.373827191571648 12.000000000000000
7.332340917193561 -9.534737477224018 -1.758946819681840 35.000000000000000
7.431521344655522 -9.577250705385739 -1.986306982849770 26.000000000000000
7.613401645393191 -9.724594334916684 -2.240777634489987 23.000000000000000
7.327583209665102 -9.274278207334632 -2.354780677343859 14.000000000000000
5.858830050680739 -7.281105174480596 -2.195362811790390 8.000000000000000
6.896558855433302 -8.491810038040283 -2.766820238357174 33.000000000000000
5.844249248038918 -7.130314097052262 -2.498814839913975 20.000000000000000
5.496641881635792 -6.643281408770221 -2.494457085005731 21.000000000000000
6.116000369429115 -7.253419408706658 -3.095617282956746 20.000000000000000
3.904504073218277 -4.586706130522786 -2.078306718087243 16.000000000000000
3.863621375703020 -4.495559576747068 -2.157136517962742 31.000000000000000
3.858163627165196 -4.446336722128262 -2.255012013154966 34.000000000000000
3.888328104542478 -4.437779443207847 -2.374156305904677 13.000000000000000
7.339204439147433 -9.602648599006931 -1.776477999973217 34.000000000000000
7.442868444343824 -9.651445851633170 -2.006291676996094 26.000000000000000
7.628912488910068 -9.805218561510781 -2.263573987647956 20.000000000000000
7.283743734813502 -9.276603385767190 -2.358917300105648 17.000000000000000
5.830464604005220 -7.291735931549838 -2.200621186389711 34.000000000000000
5.897328222074997 -7.307651853137615 -2.382664104411730 5.000000000000000
5.803672603497651 -7.126087193157268 -2.498567915212780 18.000000000000000
5.457419001654288 -6.638262323021462 -2.493342168884254 19.000000000000000
3.878941208901971 -4.586403270441521 -2.077848921063661 17.000000000000000
3.835765123910476 -4.492412696432384 -2.155012315307078 28.000000000000000
3.830314884713780 -4.443338408463396 -2.252573566348951 26.000000000000000
3.862781655084481 -4.437834797771649 -2.372946731983224 13.000000000000000
7.345708793964875 -9.670683600236838 -1.794050450343396 33.000000000000000
7.451414705086596 -9.722659629679054 -2.025676335999509 26.000000000000000
7.648794549726108 -9.892245470088170 -2.287873575091123 20.000000000000000
7.179637761101358 -9.201468153060485 -2.343288596733477 14.000000000000000
5.802081728133958 -7.302274406753182 -2.205831387148962 74.000000000000000
5.856508621179950 -7.303334136992252 -2.382901016301048 21.000000000000000
5.768032660433848 -7.127697803176644 -2.500347826755161 14.000000000000000
5.445008123329308 -6.665803776322149 -2.504444559667318 30.000000000000000
3.853419734817940 -4.586000788762051 -2.077342800981459 17.000000000000000
3.810400692006042 -4.492017253970103 -2.154207872141118 29.000000000000000
3.809812467252649 -4.448732847420295 -2.254391495869779 28.000000000000000
3.842127928859442 -4.443400736207263 -2.374687111126644 14.000000000000000
7.349469363078429 -9.735683227042045 -1.811075974072807 32.000000000000000
7.464360992187266 -9.800287378393802 -2.046417914114381 27.000000000000000
7.670591331182126 -9.982594771979306 -2.312970005954477 18.000000000000000
7.140941444830446 -9.209493310560074 -2.348772497338159 12.000000000000000
5.780916986965626 -7.321884407806651 -2.213764104083831 21.000000000000000
5.823015585904360 -7.307947167127692 -2.386028853301074 51.000000000000000
5.727599867189695 -7.123160738575084 -2.499951370285245 12.000000000000000
5.444563887978647 -6.708247400044028 -2.521138808063014 38.000000000000000
3.922860376274727 -4.743752579124792 -2.024445093426984 0.000000000000000
3.830361307878533 -4.588399281376836 -2.078102087426791 21.000000000000000
3.787498666327817 -4.494394581863312 -2.154732279213059 28.000000000000000
3.786894257064898 -4.451213844951396 -2.254733508049654 25.000000000000000
3.819060648552656 -4.446083003025271 -2.374888985381494 12.000000000000000
7.352888617601725 -9.800790447772464 -1.828135546395558 32.000000000000000
7.472123496515435 -9.871784747814104 -2.065899403564158 26.000000000000000
7.128576632487153 -9.251545366536837 -2.362913355514521 13.000000000000000
5.771685717162931 -7.356750848476416 -2.226298483074304 9.000000000000000
5.799166113112929 -7.324591467426131 -2.393066699411235 57.000000000000000
5.692065561069803 -7.124489687176567 -2.501593961017222 11.000000000000000
5.439068068303822 -6.744778120033072 -2.535604594545627 19.000000000000000
3.899465347547815 -4.746231055031203 -2.025459151780450 0.000000000000000
3.804913951447307 -4.587805184826435 -2.077502685476318 21.000000000000000
3.767029488981768 -4.499565850033385 -2.156594535455168 29.000000000000000
3.761590572624052 -4.450760490811541 -2.253590783034236 26.000000000000000
3.796015734415058 -4.448679865555073 -2.375048630634370 12.000000000000000
7.358330391868723 -9.869175270939007 -1.845821582815379 33.000000000000000
7.486616883965286 -9.952872758042803 -2.087408799189870 26.000000000000000
7.118388607692088 -9.296725148294442 -2.377845484246020 12.000000000000000
5.767063841550690 -7.397771292463919 -2.240689749134254 8.000000000000000
5.780050976072655 -7.347259984539409 -2.402058582463698 24.000000000000000
5.651779340284755 -7.119643873742135 -2.501048859941867 12.000000000000000
5.440579543650185 -6.790330044094573 -2.553455721464882 0.000000000000000
3.871288972389527 -4.742739218903473 -2.023919562070123 2.000000000000000
3.779509285294562 -4.587112095079791 -2.076855360766579 23.000000000000000
3.744163249526978 -4.501780551597384 -2.157038114209189 34.000000000000000
3.741126347879695 -4.455921119739788 -2.255291693741022 36.000000000000000
3.775389107755642 -4.454017615303514 -2.376674182046426 12.000000000000000
7.365764870546221 -9.940856456375828 -1.864141836223359 33.000000000000000
7.117467486287791 -9.354409761184311 -2.395973831554893 10.000000000000000
5.759845505964070 -7.435760549194135 -2.254158113902762 15.000000000000000
5.770381660730775 -7.382097078018897 -2.415018472021861 15.000000000000000
5.611577386049547 -7.114637353995264 -2.500426875857922 13.000000000000000
6.017808136063972 -7.559482613694116 -2.843482345782828 1.000000000000000
3.847957843780267 -4.745031969475607 -2.024842720100591 4.000000000000000
3.758930102155765 -4.592162679898213 -2.078805043398086 18.000000000000000
3.750001139041372 -4.538622865262965 -2.174067603387852 12.000000000000000
3.732606006344683 -4.475327436428177 -2.264199800846382 14.000000000000000
3.752379975881986 -4.456451022082820 -2.376752575338226 12.000000000000000
7.109150715529260 -9.402797891754572 -2.411719699862644 9.000000000000000
5.750060189346368 -7.470697399957208 -2.266694548713305 10.000000000000000
5.781916117547973 -7.444476962879427 -2.436986819577919 17.000000000000000
5.564326667347607 -7.100367507419548 -2.496527588196249 15.000000000000000
5.975943064924634 -7.555684216874932 -2.842828960673899 1.000000000000000
3.819886295331451 -4.741327149555565 -2.023200818412807 10.000000000000000
3.764546538599338 -4.629351565543413 -2.095296981652123 8.000000000000000
3.738961229523758 -4.555249228204238 -2.181405371099759 47.000000000000000
3.738256703502283 -4.511953288848368 -2.281810320331346 34.000000000000000
3.731769704125738 -4.461639414917735 -2.378302883701281 14.000000000000000
7.112354967061268 -9.466889079348061 -2.431493775817515 6.000000000000000
5.876370327937377 -7.753109637539983 -2.172230815825467 0.000000000000000
5.770808045768715 -7.545803213613699 -2.291421471556089 10.000000000000000
5.762343702906920 -7.467145160766161 -2.445950571376184 15.000000000000000
5.533797065813873 -7.107185014564341 -2.500023040522189 15.000000000000000
5.872543300929691 -7.473308509031185 -2.812585840031895 1.000000000000000
3.796620736537782 -4.743434945625172 -2.024033571735715 17.000000000000000
3.765202707285754 -4.660750609095293 -2.109160101288161 40.000000000000000
3.715994795785295 -4.557327371096093 -2.181773111566594 36.000000000000000
3.717641842637492 -4.517011811738110 -2.283449894893539 26.000000000000000
3.720624256889435 -4.478144224379452 -2.385884206055040 9.000000000000000
7.388602070264246 -9.985606218753100 -2.337911010129842 2.000000000000000
7.122244018099356 -9.540504171415447 -2.453722947248203 4.000000000000000
5.846885570494710 -7.763629315165792 -2.177518996986962 9.000000000000000
5.765246871695008 -7.587048660422322 -2.305870146559601 18.000000000000000
5.825117266276789 -7.597297042274705 -2.490130616166158 4.000000000000000
5.493842194943541 -7.101705659355338 -2.499174796795590 13.000000000000000
5.597482657503464 -7.169760153043844 -2.699050063776631 17.000000000000000
3.720818198933288 -4.722539048701669 -1.895666865241564 8.000000000000000
3.787546372567705 -4.763275122313810 -2.032426772308312 17.000000000000000
3.739710419160581 -4.659841557302433 -2.108397173603451 38.000000000000000
3.690692716599378 -4.556407558085558 -2.180704802640901 35.000000000000000
3.697030860595981 -4.521999291174821 -2.285053440603819 21.000000000000000
3.728243085492988 -4.517462697079413 -2.405609751387312 10.000000000000000
7.131726762394210 -9.614263789347897 -2.476001045109630 0.000000000000000
5.815045787502160 -7.770929449500365 -2.181880377138345 18.000000000000000
5.766496466295190 -7.637641229804532 -2.323157108117096 12.000000000000000
6.163856455294133 -8.091183383413004 -2.653633180096702 40.000000000000000
5.458670068957719 -7.102176643656248 -2.500401567862406 17.000000000000000
3.663238458300751 -4.722894347916374 -1.778383810105654 0.000000000000000
3.693147631770408 -4.718220345564412 -1.894126009707555 23.000000000000000
3.776023105611900 -4.780135261589827 -2.039542200296584 10.000000000000000
3.716613200723314 -4.661782542315608 -2.108920540079836 33.000000000000000
3.670134691273278 -4.561229845502897 -2.182383477853059 35.000000000000000
3.671728748321335 -4.521134286203305 -2.283700673220458 21.000000000000000
3.726242273158400 -4.545431650457185 -2.419277915566833 16.000000000000000
6.202753773531679 -8.637840353723444 -1.640475433685419 16.000000000000000
5.778553153919906 -7.771858744598735 -2.184426492543636 15.000000000000000
5.769801952500462 -7.691422520167914 -2.341414325824397 38.000000000000000
6.518105797057558 -8.611766595203004 -2.826069519334281 40.000000000000000
5.439909595831195 -7.123945916422472 -2.509111828729689 27.000000000000000
3.390128930632886 -4.399431277438697 -1.656999175853760 2.000000000000000
3.670223483196430 -4.719810450580191 -1.894949311719836 13.000000000000000
3.771445539388442 -4.805927469781565 -2.050462313388368 11.000000000000000
3.691199737007456 -4.660683315488563 -2.108065353408811 31.000000000000000
3.647241750561968 -4.563054466525332 -2.182626296112295 33.000000000000000
3.646471789868477 -4.520171180902746 -2.282300589543295 21.000000000000000
3.712408540012066 -4.559101204710319 -2.425328645205512 6.000000000000000
6.167066442780881 -8.642544037451453 -1.645375352628786 28.000000000000000
6.217071811495191 -8.637698681030397 -1.837982477184607 5.000000000000000
5.746740885604762 -7.778929155949006 -2.188672287128675 5.000000000000000
5.779776940052829 -7.754642582936838 -2.362547974991458 43.000000000000000
5.820288890526411 -7.739859144371720 -2.541448731747368 5.000000000000000
5.439676823598308 -7.170222610260384 -2.526445680025236 27.000000000000000
3.375457286306442 -4.409166174660486 -1.661071266547758 1.000000000000000
3.407276726301717 -4.410584430877890 -1.770964225640995 8.000000000000000
3.664170082773793 -4.700185011762375 -2.005258701442239 19.000000000000000
3.670492333179375 -4.665410255333685 -2.109841980220013 26.000000000000000
3.622044746954717 -4.561861199029886 -2.181424821497027 35.000000000000000
3.623587706750215 -4.522014518155465 -2.282319177740029 20.000000000000000
3.686894605792299 -4.558369198066191 -2.423719129746893 5.000000000000000
6.140543172184427 -8.660019322103373 -1.652673861152113 26.000000000000000
6.176530886404259 -8.636112130727646 -1.841252148618705 27.000000000000000
6.215006199553010 -8.616081915203146 -2.030439944944676 0.000000000000000
5.728781864482690 -7.804758794335214 -2.198177088275956 6.000000000000000
5.763961416579843 -7.783649162726001 -2.373254832455575 0.000000000000000
5.797326262926443 -7.759619272805826 -2.549426002511884 4.000000000000000
5.789132329993940 -7.680863748322628 -2.707460608304801 20.000000000000000
3.387770486121398 -4.414339404276070 -1.772630462679794 3.000000000000000
3.657442896086411 -4.722729865121554 -2.014782887299771 30.000000000000000
3.645149140609464 -4.664128383562325 -2.108897855364829 27.000000000000000
3.596893750178681 -4.560570396357728 -2.180176371257849 36.000000000000000
3.596095066478523 -4.517951592459037 -2.279359050488903 20.000000000000000
3.659111594494700 -4.554657794759358 -2.420531080501195 5.000000000000000
6.129894426119954 -8.700035941279184 -1.664257475595034 9.000000000000000
6.147463366154950 -8.650434774551297 -1.847878884834313 30.000000000000000
6.190295797424487 -8.636949242797272 -2.038564621917177 22.000000000000000
5.731389670547879 -7.858919692333444 -2.215655594579330 0.000000000000000
6.495784782820573 -8.751350343334277 -2.876913489053808 36.000000000000000
3.435657465499321 -4.588281495623407 -1.617982291830972 0.000000000000000
4.865281568937463 -6.381594251275837 -2.562823846275938 4.000000000000000
3.655219351496411 -4.751290885001088 -2.026867143784159 2.000000000000000
3.619851884485401 -4.662748754121820 -2.107906637003381 26.000000000000000
3.574098039477915 -4.562129403823387 -2.180289546590128 35.000000000000000
3.575589828720966 -4.522531098635223 -2.280760802588570 20.000000000000000
3.636003225920259 -4.556609840715116 -2.420357680301741 5.000000000000000
6.131993238215760 -8.683982827953590 -1.858592254983145 18.000000000000000
6.154113333603335 -8.641757996409616 -2.042871461608903 31.000000000000000
6.202455266754129 -8.634107730931820 -2.237907137165738 15.000000000000000
6.503918502495551 -8.819745569788346 -2.901039158145738 6.000000000000000
3.413622073125475 -4.588872063393449 -1.618818559220792 17.000000000000000
3.310554363737011 -4.410562404512377 -1.662759477688770 3.000000000000000
4.873672518040001 -6.435075046793997 -2.584511816384455 3.000000000000000
4.602851164715363 -6.023019555489513 -2.569243583171775 5.000000000000000
3.596900804171810 -4.664253859741726 -2.108216435006754 27.000000000000000
3.549030091999529 -4.560650909609612 -2.178950363537185 35.000000000000000
3.550497282031906 -4.521191276221535 -2.279178469120472 20.000000000000000
3.608332729275048 -4.552688683283022 -2.417069437965980 5.000000000000000
6.118627050643608 -8.720746733311033 -1.869982734834005 0.000000000000000
6.131562155682247 -8.665676121543047 -2.051669292923180 21.000000000000000
6.166015732750198 -8.639040055235279 -2.241950246441138 29.000000000000000
6.214068710536086 -8.631992767219247 -2.438400075338543 6.000000000000000
3.387040533551096 -4.583192109428469 -1.617430836899841 15.000000000000000
3.346196964519570 -4.487604830894399 -1.692179882983268 14.000000000000000
4.703149398702590 -6.251278484182665 -2.510888099194853 0.000000000000000
3.573975988161112 -4.665674959275846 -2.108484956179228 26.000000000000000
3.528586051726936 -4.564996433715345 -2.180392633386083 36.000000000000000
3.527738283357388 -4.522685562916934 -2.279026525321153 21.000000000000000
3.587580346602156 -4.557359171025780 -2.418346675508118 6.000000000000000
6.122461879945781 -8.708819944603727 -2.065006465143175 1.000000000000000
6.140914763454103 -8.659805141743252 -2.250076615368591 25.000000000000000
6.175104656333035 -8.633879740650480 -2.441283905513501 23.000000000000000
6.228605555073598 -8.633103307520711 -2.640269706106041 1.000000000000000
3.436929540669837 -4.722233295575397 -1.554980396863619 14.000000000000000
3.369635170819880 -4.589809751890300 -1.620371950209698 19.000000000000000
3.283379618639120 -4.432624986924954 -1.671810397501400 6.000000000000000
3.366811778189663 -4.504935586226108 -1.809584983966490 2.000000000000000
4.721358795247323 -6.261132076463528 -2.670515352440475 2.000000000000000
3.553357051285126 -4.670007719091078 -2.110065773788108 25.000000000000000
3.505870494056948 -4.566304760663436 -2.180382744300490 34.000000000000000
3.505006360181192 -4.524096349644396 -2.278833612667596 21.000000000000000
3.557740552594238 -4.550328381662976 -2.413419519987944 6.000000000000000
6.127001211431700 -8.696499929929702 -2.262326484804343 7.000000000000000
6.147470197506736 -8.651511942085442 -2.448594553354936 28.000000000000000
6.184859528867166 -8.628833838212227 -2.640897423359087 21.000000000000000
3.423765735503229 -4.735212216450727 -1.560095334769589 22.000000000000000
3.343151274015006 -4.583941670738213 -1.618894165262696 22.000000000000000
3.252716658516564 -4.420485608318709 -1.667584278546669 8.000000000000000
3.274474578039257 -4.410705542983584 -1.771856893450631 5.000000000000000
4.731805868937002 -6.317167847099891 -2.694253813259002 5.000000000000000
3.528206591336764 -4.668265747200105 -2.108898566163399 25.000000000000000
3.483182371986571 -4.567529833989775 -2.180332034139605 35.000000000000000
3.484567519840184 -4.528368113113650 -2.280082330050900 22.000000000000000
3.537041511840532 -4.554830443558380 -2.414614042440450 6.000000000000000
6.131013379284844 -8.684986326458979 -2.460372218232605 14.000000000000000
6.154703201225318 -8.643365592771772 -2.647254376616631 29.000000000000000
3.417310693352447 -4.757576387574473 -1.568295425451735 26.000000000000000
3.321249874530858 -4.584195360839408 -1.619566659507168 22.000000000000000
3.289905764768834 -4.500888675122392 -1.698265348258567 25.000000000000000
3.264125982440287 -4.426262963206052 -1.778223200644007 3.000000000000000
3.402252746090518 -4.572764345360422 -1.950148326030613 0.000000000000000
3.507621339490067 -4.672444399244370 -2.110402775472926 24.000000000000000
3.458264690081453 -4.565691592549707 -2.178818398824637 36.000000000000000
3.457369877735680 -4.523717149154474 -2.276840065303595 22.000000000000000
3.511843752244239 -4.553420247194030 -2.412677664394180 6.000000000000000
6.133471366538779 -8.670479171628855 -2.657446881914884 19.000000000000000
3.395033128330439 -4.757936736967927 -1.569232954200818 23.000000000000000
3.303869763820118 -4.590610017810028 -1.622405697751771 19.000000000000000
3.286130770190617 -4.525828322352293 -1.708018313075201 30.000000000000000
3.357139208005836 -4.583010095477036 -1.841308991675630 20.000000000000000
4.659494069291933 -6.304853784084045 -2.688657244714247 11.000000000000000
3.484794824571534 -4.673537529806270 -2.110509888186209 24.000000000000000
3.440136850583539 -4.572717594369617 -2.181533463277543 36.000000000000000
3.434731704090331 -4.524871824915578 -2.276522147707309 22.000000000000000
3.486694333595028 -4.551913149101582 -2.410694776845967 6.000000000000000
3.843686096646548 -4.973099212443830 -2.768354278923959 0.000000000000000
6.491337643938180 -9.237183561417343 -2.833121149028459 44.000000000000000
3.377251421538283 -4.764517973038338 -1.572210329540005 26.000000000000000
3.282006671745800 -4.590715737132197 -1.623004999210671 16.000000000000000
3.284457942193690 -4.553893405774730 -1.718945861509962 19.000000000000000
3.328262483174790 -4.574226361420918 -1.837886296149228 25.000000000000000
4.633544245111016 -6.312203411496796 -2.691608407715872 13.000000000000000
3.459758469698105 -4.671525709862184 -2.109211908142198 24.000000000000000
3.415286189902384 -4.570707091279286 -2.179935991443627 37.000000000000000
3.414356584291680 -4.528907597856072 -2.277654294528824 22.000000000000000
3.461593681092818 -4.550309391144189 -2.408665529267872 6.000000000000000
3.823595949601883 -4.981383931118370 -2.771357816122590 27.000000000000000
5.567567527293859 -8.318493921021235 -1.620015652688487 0.000000000000000
6.501424924049369 -9.313015300065750 -2.858349869713452 43.000000000000000
3.352787464615020 -4.761570977229482 -1.572031184781734 27.000000000000000
3.260173511853441 -4.590741206556564 -1.623565165625570 18.000000000000000
3.284856057633052 -4.585102716982374 -1.731055676560490 22.000000000000000
3.312844761539098 -4.583818264891464 -1.841839759694194 25.000000000000000
3.342062796756130 -4.583753442050090 -1.954436145038399 0.000000000000000
3.436998785424669 -4.672445996412819 -2.109234875397988 25.000000000000000
3.394937564876567 -4.574600453197323 -2.181153278473751 36.000000000000000
3.393989510675017 -4.532873649411202 -2.278751342270922 23.000000000000000
3.440985065718795 -4.554489771556499 -2.409701371184291 6.000000000000000
3.648244451038517 -4.785949095731430 -2.661090693406402 35.000000000000000
3.854386670342629 -4.963977915211356 -3.036943636747144 13.000000000000000
5.533243967920012 -8.321140391462672 -1.623948822175518 51.000000000000000
6.506658804819869 -9.382619541479970 -2.881669262337071 40.000000000000000
3.328373395565551 -4.758530105130240 -1.571807169553772 28.000000000000000
3.233940573438006 -4.584406579688143 -1.621864568816868 41.000000000000000
3.260693950725517 -4.582095443187439 -1.730240535076824 13.000000000000000
3.292959715439892 -4.587189686965414 -1.843287033613638 13.000000000000000
3.324234498254652 -4.590341282748889 -1.957101915717457 0.000000000000000
3.414267872514475 -4.673283362700891 -2.109217273449686 27.000000000000000
3.367950020296140 -4.569405686100581 -2.178036807911864 37.000000000000000
3.366989766352946 -4.527839404061592 -2.275325524908842 23.000000000000000
3.420384284223381 -4.558599812414541 -2.410701785474889 6.000000000000000
3.567046748406234 -4.712013607018384 -2.618473078333652 28.000000000000000
3.598178945373865 -4.709198517370958 -2.746558137207254 6.000000000000000
3.627321248038377 -4.704382451538278 -2.875991361806917 25.000000000000000
5.538267848203792 -8.313895577527138 -1.808268112732956 45.000000000000000
6.511499953338588 -9.452343322732037 -2.905025656835858 10.000000000000000
3.301806953361079 -4.752225338848419 -1.570490742266083 29.000000000000000
3.221007686418613 -4.596844784911209 -1.626795471922279 77.000000000000000
3.238789352874212 -4.582116345621443 -1.730559829331951 20.000000000000000
3.266462898420698 -4.581206763312334 -1.840968420430503 13.000000000000000
3.368196274775450 -4.682796195473461 -1.996369115731872 2.000000000000000
3.391566085555881 -4.674037968672971 -2.109159205633986 28.000000000000000
3.345444441794661 -4.570128119989145 -2.177740676423550 35.000000000000000
3.344467828815959 -4.528663648533720 -2.274846038848415 23.000000000000000
3.393190090047341 -4.553780093073670 -2.406983979325677 6.000000000000000
3.690728582658367 -4.909429888236941 -2.726613412575089 37.000000000000000
3.570121847542925 -4.705246524674046 -2.742449477335819 31.000000000000000
3.601305919914959 -4.703554500628439 -2.873365053522338 30.000000000000000
3.559154394013698 -4.560208015728596 -3.050987193165132 18.000000000000000
5.525465252867646 -8.349334577094712 -1.819016728642961 0.000000000000000
5.545315035030487 -8.310939435336616 -1.993266380700667 31.000000000000000
3.259965773136943 -4.723578472572530 -1.561772573528237 30.000000000000000
3.210216959216270 -4.612406678949794 -1.632824455579832 33.000000000000000
3.223503128261507 -4.591440096775261 -1.734384449830156 61.000000000000000
3.246628309754019 -4.584422937954955 -1.842339530123646 15.000000000000000
3.341265178972764 -4.677150769217425 -1.993806331064516 14.000000000000000
3.371089928022263 -4.677757374414112 -2.110435652490083 33.000000000000000
3.327358459201184 -4.576806444656399 -2.180280819558337 33.000000000000000
3.324168556842729 -4.532395395503170 -2.275827626275725 23.000000000000000
3.368257263556257 -4.551811344996028 -2.404778677148060 7.000000000000000
3.714645881636518 -4.975828266694466 -2.761911482000319 33.000000000000000
3.574871147793790 -4.744632472931111 -2.763596022120296 27.000000000000000
3.573161288164196 -4.699763869911492 -2.868943006725533 56.000000000000000
3.524713122195104 -4.548285951345609 -3.040321744654309 19.000000000000000
4.917362379724355 -7.541480535300755 -1.480876281851901 21.000000000000000
5.525725862164627 -8.336545255257624 -2.002090633124920 2.000000000000000
5.555285387395984 -8.311012193256698 -2.181674720970834 33.000000000000000
3.227069582607483 -4.707469346072117 -1.557180228747115 31.000000000000000
3.210272680338468 -4.643747052373708 -1.644433833099695 7.000000000000000
3.214741711428679 -4.610123766401291 -1.741737806692671 34.000000000000000
3.228989968332782 -4.590679350935332 -1.844925711594433 48.000000000000000
3.320964854256840 -4.680642139668920 -1.995133478528789 35.000000000000000
3.341879975682710 -4.669192034602974 -2.106167128252423 39.000000000000000
3.302707789274844 -4.574352179387173 -2.178469049033997 31.000000000000000
3.303878568609821 -4.536057839000606 -2.276774403651330 23.000000000000000
3.347734273843619 -4.555678955299881 -2.405660094022120 7.000000000000000
3.509662178411225 -4.734239725490224 -2.626318643085797 22.000000000000000
3.568515366057965 -4.769583961019636 -2.776319671974469 37.000000000000000
3.562421608550133 -4.718824679687205 -2.878475625276339 20.000000000000000
3.545021073230265 -4.652100863417527 -2.970586330498281 26.000000000000000
3.501183941150314 -4.550224350609383 -3.038944778924518 22.000000000000000
4.892010482008654 -7.552128246021795 -1.485931492215308 79.000000000000000
4.927024147830452 -7.543938048334280 -1.648948686160367 13.000000000000000
5.531087771175287 -8.330125218116981 -2.189013000885724 7.000000000000000
5.560491493445014 -8.305456155529800 -2.369454873994818 13.000000000000000
3.213852046276547 -4.719919712527261 -1.562022065126047 15.000000000000000
3.212324681730315 -4.678298658454583 -1.657177057965825 7.000000000000000
3.210236195697437 -4.635083607516531 -1.751456399447494 7.000000000000000
3.222219547790914 -4.612452674892237 -1.853741488911967 38.000000000000000
3.307201339599489 -4.693327509536707 -2.000374011923101 58.000000000000000
3.319288699822538 -4.669686676077855 -2.105983113534236 36.000000000000000
3.280282567589214 -4.574835103081110 -2.178055567791408 32.000000000000000
3.277083074578323 -4.530643813068900 -2.273167209294730 22.000000000000000
3.325051401419953 -4.556504391827799 -2.404937609413015 7.000000000000000
3.419050718478929 -4.644463558965495 -2.575054646781363 13.000000000000000
3.492853677968869 -4.701453368333988 -2.734886727029174 13.000000000000000
3.517013538919157 -4.648274500215797 -2.965764646377544 27.000000000000000
3.479828341759292 -4.554885972049006 -3.039400021964854 22.000000000000000
2.972510603951476 -4.619253259972717 -0.910661314445419 3.000000000000000
4.897147309390424 -7.548052219273663 -1.652501112026265 40.000000000000000
4.932431442833516 -7.541011092367099 -1.815801687008705 9.000000000000000
3.289031948984565 -4.986676997542887 -1.311784037383991 14.000000000000000
5.529570206889878 -8.314879426294301 -2.374095502136246 11.000000000000000
5.568604776358558 -8.303438966206901 -2.558503894699697 23.000000000000000
3.217871221898840 -4.757903095084115 -1.575309156027563 8.000000000000000
3.214178336327403 -4.712908012352337 -1.669937630388856 6.000000000000000
3.212088160337025 -4.669503425969338 -1.764744572192622 7.000000000000000
3.211003348584179 -4.627992206490288 -1.860045599453503 7.000000000000000
3.293384461727204 -4.705981547989652 -2.005595287498132 46.000000000000000
3.303221884931478 -4.679298411834795 -2.109907000772806 33.000000000000000
3.257888316012604 -4.575236380195003 -2.177602302012168 33.000000000000000
3.254683011089013 -4.531140228324815 -2.272527827901145 22.000000000000000
3.300240592055774 -4.554268791527569 -2.402603548042281 7.000000000000000
3.393765668817214 -4.642642520975361 -2.572591107733443 15.000000000000000
3.422028473352521 -4.638765430665429 -2.696678031732372 12.000000000000000
3.615751720949992 -4.857821882323973 -2.958970437848533 13.000000000000000
3.499779103794432 -4.658583989210549 -2.969973306296704 30.000000000000000
3.454210503995030 -4.553846401250626 -3.036065998608585 22.000000000000000
2.907286485815571 -4.547906553164989 -0.898340288016243 20.000000000000000
2.936566774423413 -4.556368595812504 -0.999112004955430 7.000000000000000
4.902340345512838 -7.545206797149719 -1.819151869691678 52.000000000000000
3.268931074331803 -4.989533736824399 -1.313889919422117 30.000000000000000
3.291890651466487 -4.983484493954461 -1.424056964205782 9.000000000000000
5.541729284564950 -8.319397653229212 -2.565006671344059 35.000000000000000
3.217369983715688 -4.789552497623898 -1.586497166839576 5.000000000000000
3.217985789493118 -4.750752092761819 -1.683841444952446 6.000000000000000
3.211587031480142 -4.700827616400996 -1.776858030375610 6.000000000000000
3.214796585735003 -4.665402519462798 -1.875133660232448 6.000000000000000
3.283823794771328 -4.724804604805046 -2.013439527601135 17.000000000000000
3.280660464780998 -4.679647926860887 -2.109650728307774 27.000000000000000
3.237678094462795 -4.578600460199185 -2.178557867604063 33.000000000000000
3.234464865188798 -4.534570108485370 -2.273360280969599 24.000000000000000
3.277629632401212 -4.554923221936046 -2.401798167014298 7.000000000000000
3.372820041202153 -4.646633274941851 -2.573353488712397 20.000000000000000
3.398784044913570 -4.639998374568069 -2.695660605500372 16.000000000000000
3.427118924604901 -4.637264381111964 -2.822593654121192 10.000000000000000
3.473990044865379 -4.657423741114506 -2.966879381417318 27.000000000000000
3.426518340414957 -4.549888847960329 -3.030806416451925 23.000000000000000
2.891169647056529 -4.552833109097766 -0.901039817456580 27.000000000000000
2.913914363159566 -4.551474189799378 -0.999600812205789 10.000000000000000
3.007963953902352 -4.660672120154359 -1.125116989668185 1.000000000000000
3.248840047106897 -4.992322429317285 -1.315961667393857 25.000000000000000
3.273785883674626 -4.989650569785501 -1.426958015952812 24.000000000000000
3.293917401951895 -4.978554263334413 -1.535904162424599 6.000000000000000
3.334401009261977 -4.997671643918464 -1.656161842636772 15.000000000000000
3.225857208615249 -4.795032644920229 -1.700024471522204 6.000000000000000
3.215194403875455 -4.738513799375063 -1.791371518814581 6.000000000000000
3.216224757228536 -4.699748650374231 -1.888984101123098 6.000000000000000
3.287032825281631 -4.762259875873679 -2.029216617358697 4.000000000000000
3.260273764575238 -4.682994529078184 -2.110742338762882 25.000000000000000
3.213194115927809 -4.575794664857196 -2.176576844136526 33.000000000000000
3.209977259499085 -4.531888601942696 -2.271130047593183 25.000000000000000
3.255049889470869 -4.555495570807807 -2.400952794497660 7.000000000000000
3.356150671279588 -4.656473607270228 -2.577357215534035 20.000000000000000
3.375569523629680 -4.641147428937212 -2.694602184741191 18.000000000000000
3.397371812268155 -4.629925481553670 -2.816109160608979 15.000000000000000
3.431295963485885 -4.633271443822547 -2.949165939519850 10.000000000000000
3.405238957386229 -4.554302849801558 -3.031139916828082 23.000000000000000
2.887673839623248 -4.577728282212195 -0.907682527203281 17.000000000000000
2.899758051466474 -4.559766881725633 -1.002968208505863 11.000000000000000
2.908706145224065 -4.537255478139136 -1.096695621780330 26.000000000000000
3.158799165698356 -4.886811752937660 -1.289441244157223 4.000000000000000
3.266288889101850 -5.012054483283206 -1.434493203026949 0.000000000000000
3.277800999418708 -4.987997617311799 -1.539739061627500 27.000000000000000
3.322318833580987 -5.013676137879026 -1.662182045533980 27.000000000000000
3.382670218454998 -5.062713644488773 -1.795432189497784 11.000000000000000
3.216447984424900 -4.773102782582455 -1.804709447637659 6.000000000000000
3.217452722868711 -4.734150507057121 -1.902850743656875 5.000000000000000
4.361089388974291 -6.362357544356425 -2.710771443546419 15.000000000000000
3.239897441741306 -4.686271917691213 -2.111799251931124 21.000000000000000
3.193026387744529 -4.579008758601129 -2.177458444108927 34.000000000000000
3.187672265962061 -4.532140898589562 -2.270371863846998 26.000000000000000
3.232501712646100 -4.555986006525571 -2.400067537817051 7.000000000000000
3.343694140676595 -4.672200955360237 -2.584617520318218 20.000000000000000
3.358742506708082 -4.651015943087638 -2.698610655647998 18.000000000000000
3.378288638883835 -4.636973742845621 -2.818386840117707 17.000000000000000
3.403583604715196 -4.628998542601962 -2.944134361455473 13.000000000000000
3.381864906628085 -4.555811792862193 -3.029553211504165 23.000000000000000
2.907086511699311 -4.639412285804402 -0.921632060978297 18.000000000000000
2.931776620904896 -4.641162078817998 -1.022426722683470 16.000000000000000
2.898661189773691 -4.552161781453608 -1.101658033317453 26.000000000000000
2.987181547776765 -4.652687392454729 -1.228878524800081 6.000000000000000
3.294602557227805 -5.089966107232165 -1.457921471525764 14.000000000000000
3.257419658643659 -4.990910637771634 -1.541546033454651 37.000000000000000
3.286851393951995 -4.994239921873839 -1.656439409346874 26.000000000000000
3.332012834120724 -5.021308486031184 -1.781237648761666 9.000000000000000
3.221746136132091 -4.814089253331170 -1.820461615986251 2.000000000000000
3.220603146185956 -4.771752819115100 -1.917997499488517 5.000000000000000
4.328810652344856 -6.359381300219918 -2.709244140818416 14.000000000000000
3.217409479128569 -4.686388888945738 -2.111428763936770 24.000000000000000
3.170748867388932 -4.579091322809330 -2.176849622120027 33.000000000000000
3.165399655402609 -4.532312162605296 -2.269574295386065 28.000000000000000
3.207869441502272 -4.553391142487468 -2.397561000223470 7.000000000000000
3.329049755445498 -4.684934384067533 -2.590218821402940 16.000000000000000
3.341882283565489 -4.660838079618759 -2.702593420839847 17.000000000000000
3.359193251906623 -4.643962847988149 -2.820633574722318 17.000000000000000
3.384336274252564 -4.636113304280395 -2.946357991258461 16.000000000000000
3.358520858930577 -4.557236602768235 -3.027925393155792 24.000000000000000
2.888627477323293 -4.640975453021596 -0.923641782134095 37.000000000000000
2.908977955446748 -4.636185809997333 -1.022864795515139 31.000000000000000
2.930440138359250 -4.633289974876240 -1.122657830420452 15.000000000000000
2.936729266839831 -4.605262113249371 -1.217537712580735 17.000000000000000
2.990200687855082 -4.651278785516731 -1.333285230456332 2.000000000000000
3.213881794338752 -4.958015564663258 -1.532273302180392 30.000000000000000
3.274736564824913 -5.010136032527965 -1.662402287824359 42.000000000000000
3.283770940834150 -4.982864225655267 -1.768074805209931 24.000000000000000
3.243695717252514 -4.880573884647547 -1.845852824678622 0.000000000000000
3.221419068278880 -4.806269889712768 -1.931897754481237 5.000000000000000
4.305045214569399 -6.368783967058103 -2.712983686175928 14.000000000000000
3.194953730070622 -4.686424505129452 -2.111018716267096 24.000000000000000
3.150614286423902 -4.582162156357865 -2.177660118343411 34.000000000000000
3.143159772740340 -4.532402566057712 -2.268737451143336 26.000000000000000
3.187501450136174 -4.556721817916616 -2.398177803980029 7.000000000000000
3.320656260503366 -4.706570485604446 -2.600737638366649 14.000000000000000
3.333380160089666 -4.682400779423725 -2.713380852216048 16.000000000000000
3.344271452925008 -4.656720973621280 -2.826386778731200 17.000000000000000
3.362989118610761 -4.640288098004345 -2.946721323034270 17.000000000000000
3.337289072351291 -4.561422998463435 -3.028145616817906 24.000000000000000
2.870181931563623 -4.642475532206683 -0.925620123262227 76.000000000000000
2.892472392766140 -4.641131763154225 -1.025473263486996 52.000000000000000
2.913795366317987 -4.638331470352337 -1.125229636280061 26.000000000000000
2.899135823474511 -4.577379089988294 -1.211328255917733 56.000000000000000
2.958550549219384 -4.633624893666267 -1.329223454694490 4.000000000000000
2.994558785957372 -4.651493101247787 -1.438362126340148 6.000000000000000
3.243664863995221 -4.996921903210016 -1.658693987239016 39.000000000000000
3.282010059387703 -5.014777440835107 -1.779865497437719 28.000000000000000
3.084530982261153 -4.673448387044063 -1.767747943884052 28.000000000000000
3.274578322981137 -4.919784188609065 -1.977545029619880 0.000000000000000
4.279157182793885 -6.374983580026797 -2.715351571957530 14.000000000000000
3.174631553808266 -4.689482500042113 -2.111966945613421 23.000000000000000
3.130491400116263 -4.585164596139143 -2.178436416356989 35.000000000000000
3.120952961941637 -4.532412282178602 -2.267861440587645 28.000000000000000
3.165050058497130 -4.556967536231768 -2.397173544184294 7.000000000000000
3.318417632320769 -4.737164323244043 -2.616196206725794 9.000000000000000
3.324759731924622 -4.703966014008755 -2.724162341715908 11.000000000000000
3.331377312415922 -4.672364690949810 -2.833890152614591 16.000000000000000
3.347881768818222 -4.653050553886422 -2.952543345150390 17.000000000000000
3.309852948452261 -4.556982805392173 -3.022655317925276 24.000000000000000
2.860004115323536 -4.657353749241889 -0.930251855550398 134.000000000000000
