# This PCD file was generated using the MATLAB® pcwrite function
# from Computer Vision Toolbox®.
# .PCD v.7 - Point Cloud Data file format
VERSION .7
FIELDS x y z intensity
SIZE 8 8 8 8
TYPE F F F F
COUNT 1 1 1 1
WIDTH 628
HEIGHT 1
VIEWPOINT 0 0 0 1 0 0 0
POINTS 628
DATA ascii
-1.103287448067972 -5.324025407713555 -1.543571917649508 48.000000000000000
-1.115577566450673 -5.312782001356484 -1.643599129743803 45.000000000000000
-1.127050526572260 -5.296008860594082 -1.742237429015391 45.000000000000000
-1.138538845307955 -5.281210143802325 -1.842230364184741 41.000000000000000
-1.150724495160921 -5.268197874890602 -1.943643045220696 38.000000000000000
-1.164196039435673 -5.260759998558210 -2.047620037832247 35.000000000000000
-1.176682350821642 -5.247628327666036 -2.150599818641726 34.000000000000000
-1.188940472903284 -5.232710209992968 -2.253345160007196 30.000000000000000
-1.200292191336910 -5.212135460155413 -2.354841523416418 28.000000000000000
-1.214517373928925 -5.203934848499262 -2.462816607260832 21.000000000000000
-1.228967505305189 -5.193433991801403 -2.571314497237880 28.000000000000000
-1.241594646995193 -5.177284950842008 -2.678761518003749 25.000000000000000
-1.255556166390401 -5.162343175602357 -2.788152013494030 25.000000000000000
-1.269429516666703 -5.148733463154676 -2.899832482680093 23.000000000000000
-1.283319590492542 -5.136162100347875 -3.014198684162700 25.000000000000000
-1.183973791338875 -4.481478032764089 -3.077768136698338 8.000000000000000
-1.086863811179292 -5.524137334692028 -1.076316757934429 4.000000000000000
-1.102208270898155 -5.524914742809156 -1.179826263588729 23.000000000000000
-1.083287517930601 -5.355739334233891 -1.243929393991341 51.000000000000000
-1.096731851998461 -5.349712385440161 -1.344296335589798 51.000000000000000
-1.108569371056926 -5.334312379044882 -1.442456721126489 50.000000000000000
-1.120358341817481 -5.321182579681651 -1.541076617048135 46.000000000000000
-1.132759675318675 -5.309921771756437 -1.641088143823761 45.000000000000000
-1.144326424160391 -5.293133299714051 -1.739712880456579 42.000000000000000
-1.156726012345173 -5.282018322165101 -1.840981090798110 42.000000000000000
-1.169840319530957 -5.272638917791165 -1.943798464191622 38.000000000000000
-1.181808899974220 -5.257832365409501 -2.045048298010112 34.000000000000000
-1.194405361827937 -5.244683250837197 -2.148012437120525 33.000000000000000
-1.206768310042349 -5.229748294465765 -2.250742771266843 28.000000000000000
-1.219874908605732 -5.216289999809830 -2.355446421644552 28.000000000000000
-1.233401409103411 -5.204472607338868 -2.461854959879050 20.000000000000000
-1.247981086798638 -5.193918762942086 -2.570395901597853 27.000000000000000
-1.259874228208365 -5.174247982588163 -2.676093186676933 25.000000000000000
-1.274799278488915 -5.162725255463409 -2.787323220612282 25.000000000000000
-1.289649306136653 -5.152467099470951 -2.900963883961785 24.000000000000000
-1.302817440787673 -5.136435728219996 -3.013454948368165 24.000000000000000
-1.302066424786747 -5.068175781832194 -3.095903304351203 23.000000000000000
-1.270100878975960 -4.873189300761775 -3.096871614414368 4.000000000000000
-1.177333887613520 -4.333837431275256 -3.091284852024207 34.000000000000000
-1.104597621457161 -5.525113633774168 -1.074560109325672 21.000000000000000
-1.116988001238014 -5.510500521207186 -1.174843738914083 8.000000000000000
-1.100804844032087 -5.356722427782509 -1.242343562404277 51.000000000000000
-1.113590278559996 -5.346854117336235 -1.341806148227534 50.000000000000000
-1.125524739112731 -5.331437674959816 -1.439952214368341 48.000000000000000
-1.138222616159896 -5.322055473873867 -1.539646325969482 47.000000000000000
-1.150741078885390 -5.310755725617216 -1.639708691258798 45.000000000000000
-1.162407472699169 -5.293929313085016 -1.738385830439360 44.000000000000000
-1.175747936223547 -5.286470242337160 -1.840991354501637 40.000000000000000
-1.188165653016598 -5.273350182241422 -1.942569493337625 37.000000000000000
-1.201074516923717 -5.262148442749157 -2.045286721041595 35.000000000000000
-1.212953463648975 -5.245308179554010 -2.146881924216083 31.000000000000000
-1.226267349164956 -5.233920655718062 -2.251205667641181 30.000000000000000
-1.238648435955209 -5.216822362906123 -2.354410857515800 29.000000000000000
-1.253147909803585 -5.208488940251648 -2.462535131816634 18.000000000000000
-1.267006880173666 -5.194348177980911 -2.569448300997511 27.000000000000000
-1.280714867473738 -5.181571231573296 -2.678781999410132 24.000000000000000
-1.294054435342329 -5.163051354283806 -2.786465113974873 25.000000000000000
-1.308176283366003 -5.149333488532528 -2.898231087321391 24.000000000000000
-1.323194231117882 -5.140020979968664 -3.014657087003152 25.000000000000000
-1.280669310695899 -4.911756603298270 -2.999558165229928 32.000000000000000
-1.281154885971503 -4.843783763237176 -3.077466655083568 11.000000000000000
-1.188590420523727 -4.311987458771220 -3.075256244224039 8.000000000000000
-1.120779154194193 -5.518336246767767 -1.071281081291358 8.000000000000000
-1.134843551890231 -5.511391752280592 -1.173113406975905 21.000000000000000
-1.119131605430582 -5.361472958714350 -1.241615142748011 51.000000000000000
-1.131241093733464 -5.347749152873061 -1.340244972306994 49.000000000000000
-1.143279256003295 -5.332296955450172 -1.438444201799075 49.000000000000000
-1.156916297108022 -5.326637878875985 -1.539275670180433 45.000000000000000
-1.168734856713834 -5.311537116464835 -1.638301649611122 45.000000000000000
-1.180500895590273 -5.294672488739192 -1.737031051103837 43.000000000000000
-1.193137816360663 -5.283475333429930 -1.838398909977812 41.000000000000000
-1.206503315658582 -5.274007936199951 -1.941312452493098 37.000000000000000
-1.219532298093618 -5.262761940800111 -2.044077720726965 33.000000000000000
-1.231513830435405 -5.245878987227503 -2.145723033574290 31.000000000000000
-1.244949207094531 -5.234444233777612 -2.250093117012497 28.000000000000000
-1.256575809710827 -5.213738691105648 -2.351740227005852 29.000000000000000
-1.272068587569390 -5.208914517383315 -2.461513977029698 17.000000000000000
-1.286044680905641 -5.194722163558395 -2.568471670497745 28.000000000000000
-1.299876325047331 -5.181893414613252 -2.677849543788682 24.000000000000000
-1.313321430243909 -5.163321399141584 -2.785577668999498 24.000000000000000
-1.327567377233548 -5.149548949826960 -2.897386144828006 24.000000000000000
-1.341848453103259 -5.136812892725106 -3.011878489255090 24.000000000000000
-1.292497136458170 -4.885354511351882 -2.982647557231871 8.000000000000000
-1.289350333448101 -4.804481943900895 -3.051790452892783 23.000000000000000
-1.185405915957483 -4.177947396793639 -3.093508099882437 40.000000000000000
-1.136131231447100 -5.507666370750088 -1.067236137618592 22.000000000000000
-1.154314126362647 -5.519897238085252 -1.172984816039166 4.000000000000000
-1.137494362609011 -5.366167956118522 -1.240856172873987 50.000000000000000
-1.149720052340649 -5.352391219309277 -1.339607418875681 48.000000000000000
-1.161868805230487 -5.336883925198209 -1.437927275071046 48.000000000000000
-1.173988097246387 -5.323644471934240 -1.536703446982474 45.000000000000000
-1.187575958912853 -5.316004270792269 -1.638018905486309 45.000000000000000
-1.199447624482386 -5.299078797466649 -1.736866515988772 42.000000000000000
-1.211362059936014 -5.284124019144351 -1.837065951469712 42.000000000000000
-1.224853109343873 -5.274612106341854 -1.940027316344435 38.000000000000000
-1.236288677468544 -5.256036650793764 -2.040012997869315 33.000000000000000
-1.249224727613446 -5.242779890287338 -2.143057769150845 31.000000000000000
-1.263643076402427 -5.234913284149698 -2.248951996573789 27.000000000000000
-1.277972885318837 -5.224841114183464 -2.355462722253941 29.000000000000000
-1.291875809232386 -5.212814238748264 -2.462130907531832 17.000000000000000
-1.305094284109473 -5.195040646903410 -2.567465985481833 27.000000000000000
-1.318167193855242 -5.178693430853393 -2.675097306319848 24.000000000000000
-1.332600056128276 -5.163535317709267 -2.784660861429264 25.000000000000000
-1.346970000580135 -5.149707947261211 -2.896511673626030 24.000000000000000
-1.361381196557310 -5.136916285270130 -3.011045717983491 24.000000000000000
-1.316647086664218 -4.905524032737844 -2.994176082565964 6.000000000000000
-1.290098124564272 -4.738849518480505 -3.009410585179900 29.000000000000000
-1.291856875458230 -4.680730660957592 -3.090857857117147 16.000000000000000
-1.196077387602469 -4.156348552601791 -3.077178836556474 7.000000000000000
-1.159481578314858 -5.535424333475394 -1.070614738324190 4.000000000000000
-1.173843787078442 -5.528341915011285 -1.172821569662966 23.000000000000000
-1.153430059734143 -5.359363765889750 -1.237424390486030 48.000000000000000
-1.166579013710822 -5.349384095737410 -1.337041211422124 49.000000000000000
-1.178824634302973 -5.333859523388104 -1.435346322781539 47.000000000000000
-1.191888916500822 -5.324360430339331 -1.535190808518365 44.000000000000000
-1.205605984262029 -5.316678163216063 -1.636554771308633 45.000000000000000
-1.217577323892701 -5.299713919488458 -1.735454358928108 43.000000000000000
-1.229598268353086 -5.284719394399284 -1.835705047365495 40.000000000000000
-1.243214835599273 -5.275162619912823 -1.938714059891336 36.000000000000000
-1.257352886589217 -5.267467389956609 -2.042986787605214 34.000000000000000
-1.268670557428683 -5.246857946816553 -2.143320018718990 31.000000000000000
-1.282348755272480 -5.235327734194936 -2.247782281587884 29.000000000000000
-1.295923969108902 -5.221647713128942 -2.352734627250662 29.000000000000000
-1.310832280598743 -5.213127204173182 -2.461050077761485 15.000000000000000
-1.324155484541795 -5.195303555834552 -2.566431221656008 26.000000000000000
-1.338234189554263 -5.182370191117139 -2.675896944227966 24.000000000000000
-1.351890105573606 -5.163693038255261 -2.783714667333260 24.000000000000000
-1.366383944811469 -5.149810409386023 -2.895607650000394 23.000000000000000
-1.381828898733705 -5.140324676263984 -3.012153236011733 23.000000000000000
-1.343671369114249 -4.935590393675599 -3.011742139971445 6.000000000000000
-1.296727351122233 -4.696270134922920 -2.981692304159262 7.000000000000000
-1.298418049012269 -4.638617506725270 -3.062450358177421 20.000000000000000
-1.175650580664352 -5.528499212132437 -1.067261061612665 28.000000000000000
-1.190130954637516 -5.521409535465602 -1.169379772564553 8.000000000000000
-1.171828432004441 -5.363953658554288 -1.236609588685158 48.000000000000000
-1.185105639618075 -5.353918273485482 -1.336345667775997 48.000000000000000
-1.197461971308809 -5.338338011907560 -1.434771095991294 45.000000000000000
-1.210654703870161 -5.328779238300315 -1.534732229887867 44.000000000000000
-1.222788486690343 -5.313565182386442 -1.633914737478084 44.000000000000000
-1.235718800704751 -5.300295951590069 -1.734014380316015 42.000000000000000
-1.248717036924272 -5.288949636417171 -1.835596226063277 40.000000000000000
-1.261588295593539 -5.275659404730549 -1.937372658447387 37.000000000000000
-1.274977418819568 -5.264278660715643 -2.040281050207082 36.000000000000000
-1.288152453036994 -5.250877286245273 -2.143550088644595 32.000000000000000
-1.300175510359208 -5.232103879061514 -2.245046244728965 28.000000000000000
-1.314757152616070 -5.221958478057952 -2.351582293495927 28.000000000000000
-1.330699337629085 -5.216909748383543 -2.461603532263933 12.000000000000000
-1.342324762496515 -5.192016863940608 -2.563642158442751 27.000000000000000
-1.358336950283451 -5.185986581544701 -2.676663577204459 24.000000000000000
-1.372101856441858 -5.167223304047400 -2.784586831409333 24.000000000000000
-1.386722520427164 -5.153251028876333 -2.896582207486117 23.000000000000000
-1.401396054117416 -5.140312016299013 -3.011259117810375 24.000000000000000
-1.363585430321191 -4.938972739154361 -3.013024901341809 5.000000000000000
-1.321456790342959 -4.719424226075942 -2.995717430864264 4.000000000000000
-1.298221123497298 -4.573768790958820 -3.019053653275559 35.000000000000000
-1.300012678368225 -4.515275288274018 -3.097844429144865 14.000000000000000
-1.192612931361889 -5.525372949341096 -1.064627712694950 8.000000000000000
-1.204707546480083 -5.506779658190505 -1.164299584983697 25.000000000000000
-1.189417419467191 -5.364677461816171 -1.234887012219988 48.000000000000000
-1.202815892978506 -5.354603935450191 -1.334673975943051 46.000000000000000
-1.214417185473341 -5.335213621340508 -1.432139139291185 45.000000000000000
-1.227725741033263 -5.325634906432665 -1.532083009562559 43.000000000000000
-1.240829810700022 -5.314135595449669 -1.632397088349809 43.000000000000000
-1.253871858008872 -5.300824822241317 -1.732546555681456 41.000000000000000
-1.266988707915320 -5.289435943478308 -1.834177476106065 39.000000000000000
-1.280861543637196 -5.279763806527661 -1.937346601233730 36.000000000000000
-1.293482384793299 -5.264676068722394 -2.038958854820559 34.000000000000000
-1.304975811138434 -5.244010458273877 -2.139330840673737 31.000000000000000
-1.318892000272123 -5.232411155405863 -2.243821158738478 28.000000000000000
-1.333601678453969 -5.222214181542730 -2.350401158381000 28.000000000000000
-1.349690749292249 -5.217109677055909 -2.460462862724109 12.000000000000000
-1.362311854340323 -5.195662364686704 -2.564274362017839 27.000000000000000
-1.376637275305553 -5.182623038030193 -2.673827267778906 24.000000000000000
-1.391426340203143 -5.167266170422079 -2.783579900739412 24.000000000000000
-1.406170681105742 -5.153237964970427 -2.895617117642812 23.000000000000000
-1.421902126367807 -5.143599734361565 -3.012301464944429 22.000000000000000
-1.382605225298281 -4.938973742752241 -3.012249186136799 4.000000000000000
-1.380866379406628 -4.864011834364442 -3.086806264958506 3.000000000000000
-1.304089785642218 -4.531679179141445 -2.990700528023417 7.000000000000000
-1.301127179523851 -4.457630684035334 -3.057809141763265 36.000000000000000
-1.224668751964837 -4.027154391638084 -3.093927916721880 82.000000000000000
-1.207039280835329 -5.510678278183499 -1.059755202335463 26.000000000000000
-1.224294573959654 -5.515062459918004 -1.164050196244184 4.000000000000000
-1.207017777174911 -5.365349599233771 -1.233137366065007 49.000000000000000
-1.219673737558943 -5.351447616182559 -1.332031675735604 46.000000000000000
-1.232230667127227 -5.335812316437678 -1.430494497278184 45.000000000000000
-1.246538582998153 -5.329944122355891 -1.531565608670049 44.000000000000000
-1.258882531759426 -5.314653085449243 -1.630851726109958 42.000000000000000
-1.271146762669091 -5.297593257361138 -1.729840335787585 40.000000000000000
-1.285271740905402 -5.289868691075024 -1.832730690312737 40.000000000000000
-1.299270014716899 -5.280150650305133 -1.935946935982450 37.000000000000000
-1.310187743870937 -5.257752167895808 -2.034795866124492 34.000000000000000
-1.324492616523875 -5.247918664618727 -2.139502044476737 30.000000000000000
-1.338534625739456 -5.236242764705798 -2.244101326759267 28.000000000000000
-1.352457342619755 -5.222414752815243 -2.349191198257736 28.000000000000000
-1.368693206160910 -5.217254069294590 -2.459293167525580 10.000000000000000
-1.381406611448285 -5.195758123206136 -2.563152219237951 27.000000000000000
-1.396786449076967 -5.186122726466928 -2.674531488260739 23.000000000000000
-1.409826715757410 -5.163828303414538 -2.780699531483330 23.000000000000000
-1.426567439912532 -5.156558362797184 -2.896526746026668 22.000000000000000
-1.441502815807606 -5.143470604644351 -3.011345840513543 23.000000000000000
-1.399752068238823 -4.932280871521869 -3.007396806522310 4.000000000000000
-1.405463839537824 -4.883629939161123 -3.098569672135957 3.000000000000000
-1.329526865215074 -4.557718155987909 -3.007318327887748 3.000000000000000
-1.305610556567587 -4.412833478025517 -3.026606312323509 35.000000000000000
-1.302157669148250 -4.345016239319532 -3.096333845813132 14.000000000000000
-1.241277090061139 -4.027320687344340 -3.093849263777674 65.000000000000000
-1.225646822456553 -5.515139021895017 -1.058553463823644 3.000000000000000
-1.245661503907328 -5.530928390108867 -1.165376574833680 11.000000000000000
-1.224629313171339 -5.365970001135461 -1.231360626394961 48.000000000000000
-1.238270354973537 -5.355819177010813 -1.331248838931672 43.000000000000000
-1.250055360788561 -5.336358681994932 -1.428822456451847 43.000000000000000
-1.264497419635415 -5.330447545468791 -1.529940927206384 42.000000000000000
-1.276946453366021 -5.315117582069115 -1.629278626882372 43.000000000000000
-1.290211924690814 -5.301722795915011 -1.729527272019944 41.000000000000000
-1.304473081119990 -5.293929261662239 -1.832530205248911 38.000000000000000
-1.316777084371331 -5.276826673450196 -1.933179342026777 36.000000000000000
-1.329608397458328 -5.261676962813346 -2.034825065799914 33.000000000000000
-1.343122354712533 -5.248163226941789 -2.138172369956970 30.000000000000000
-1.357285517572404 -5.236438098699618 -2.242816992595548 28.000000000000000
-1.372255546697725 -5.226108056561511 -2.349547466151769 27.000000000000000
-1.389577987968372 -5.224379055880813 -2.461409453103585 10.000000000000000
-1.401452082307056 -5.199285137279427 -2.563720367407973 26.000000000000000
-1.415083923883308 -5.182651391510458 -2.671640328046000 23.000000000000000
-1.432001651295239 -5.174026452024022 -2.785161672945293 23.000000000000000
-1.446048942108672 -5.156429356718638 -2.895500431047561 22.000000000000000
-1.461113856121265 -5.143284239532044 -3.010360365609361 22.000000000000000
-1.420677511412260 -4.938809052623604 -3.010610660695039 3.000000000000000
-1.425434378397230 -4.886766579343835 -3.099878906004468 3.000000000000000
-1.309767152734325 -4.368048427855729 -2.995429674942365 7.000000000000000
-1.306221455569900 -4.300773504089562 -3.064430253004633 31.000000000000000
-1.258859375110742 -4.030517379574364 -3.096110257507764 67.000000000000000
-1.246882628518560 -5.531050045720033 -1.059524941867376 12.000000000000000
-1.262770257611485 -5.527623073008472 -1.162642868311761 14.000000000000000
-1.241371429885823 -5.362735240078217 -1.228685361631061 47.000000000000000
-1.255126534369546 -5.352563212046539 -1.328555773675884 44.000000000000000
-1.268785843392918 -5.340618952413538 -1.428130137181846 42.000000000000000
-1.283368501959427 -5.334644435358554 -1.529362624257707 41.000000000000000
-1.295928891898440 -5.319253983336571 -1.628818396231116 43.000000000000000
-1.308398538491873 -5.302091758724171 -1.727975765611762 41.000000000000000
-1.321871097409933 -5.290573226692977 -1.829752916333706 39.000000000000000
-1.335195483922577 -5.277107832920221 -1.931725120053267 35.000000000000000
-1.348134502017520 -5.261913896561448 -2.033419659008808 31.000000000000000
-1.361762948424438 -5.248353167273233 -2.136814148182148 30.000000000000000
-1.375107923194346 -5.233004021620220 -2.239973908168291 27.000000000000000
-1.390201268171441 -5.222650218596568 -2.346684710004248 26.000000000000000
-1.407678363635355 -5.220891717193414 -2.458522178442593 11.000000000000000
-1.420580368425998 -5.199266762636016 -2.562537911483662 26.000000000000000
-1.435278642773778 -5.186033961935138 -2.672281976748113 23.000000000000000
-1.450422970684025 -5.170475455187991 -2.782222272466859 23.000000000000000
-1.465540698434052 -5.156243398403665 -2.894444416058469 22.000000000000000
-1.481699683748916 -5.146391085992979 -3.011305503795717 21.000000000000000
-1.439729590712937 -4.938643220232874 -3.009747804862299 3.000000000000000
-1.442533321750080 -4.880010836294163 -3.094919684465531 3.000000000000000
-1.330126510218451 -4.377677861531597 -3.001580251712460 3.000000000000000
-1.308987024409544 -4.253384281771769 -3.030302150199597 29.000000000000000
-1.275504006190141 -4.030583934003433 -3.095978469102508 64.000000000000000
-1.262964269971627 -5.523890065914502 -1.056056718394479 13.000000000000000
-1.277212304864408 -5.512816284570961 -1.157480600646151 21.000000000000000
-1.259885150482505 -5.367055322480446 -1.227725772731019 46.000000000000000
-1.272869246818999 -5.353042776655477 -1.326776888477885 43.000000000000000
-1.285737605935989 -5.337294146994543 -1.425396084300706 41.000000000000000
-1.300447908045304 -5.331296005761104 -1.526608704749286 42.000000000000000
-1.314026653264959 -5.319609926912143 -1.627187813378370 42.000000000000000
-1.327521688978123 -5.306107494090158 -1.727601061140253 39.000000000000000
-1.341118354507644 -5.294521626690015 -1.829492362300107 38.000000000000000
-1.353624617760715 -5.277334911353779 -1.930242634385318 34.000000000000000
-1.366671307008964 -5.262096453523194 -2.031985839620209 31.000000000000000
-1.382307767188068 -5.255687988965719 -2.138356611843080 28.000000000000000
-1.394819482779664 -5.236663833234426 -2.240162161128695 27.000000000000000
-1.409089119806099 -5.222684974518657 -2.345388136190068 27.000000000000000
-1.426724899507749 -5.220866699952535 -2.457263307513326 12.000000000000000
-1.438754690719038 -5.195709979229183 -2.559610664080038 25.000000000000000
-1.454540229263204 -5.185905066598965 -2.671113131576070 23.000000000000000
-1.469801533992556 -5.170289748977245 -2.781095352966874 23.000000000000000
-1.485042497969581 -5.156000420073278 -2.893358679360103 22.000000000000000
-1.500366141864055 -5.142739531487186 -3.008299777553251 21.000000000000000
-1.455856823834407 -4.928485176124438 -3.002801821169100 3.000000000000000
-1.461555935673115 -4.879758886992259 -3.094092346992695 3.000000000000000
-1.391913677100110 -4.521545301746434 -3.099764571666114 12.000000000000000
-1.313372078302244 -4.212329982628345 -3.000704234240077 8.000000000000000
-1.312729359396256 -4.151115390016116 -3.071248385876734 27.000000000000000
-1.278120929439346 -5.512855902591528 -1.051837766478673 25.000000000000000
-1.294259037626289 -5.509421549523903 -1.154705041629373 9.000000000000000
-1.278433191480391 -5.371318774932450 -1.226735176384627 46.000000000000000
-1.291534033238334 -5.357250793799560 -1.325906396892746 44.000000000000000
-1.304513438898782 -5.341444689864281 -1.424644977828916 41.000000000000000
-1.318439167177849 -5.331640905398604 -1.524901117558685 41.000000000000000
-1.332135014176548 -5.319912635642805 -1.625529407034176 41.000000000000000
-1.343866136349924 -5.298971473245772 -1.723586125872290 39.000000000000000
-1.360400336334903 -5.298411384834289 -1.829199749059210 39.000000000000000
-1.373962022551467 -5.284807297622891 -1.931399541156132 31.000000000000000
-1.386172617753836 -5.265848686591003 -2.031922017134832 32.000000000000000
-1.400034819009754 -5.252166279772013 -2.135474625273298 29.000000000000000
-1.413602147948190 -5.236694096105238 -2.238791618514956 26.000000000000000
-1.428955417247017 -5.226205110427965 -2.345651841014992 26.000000000000000
-1.446753926767995 -5.224296787768777 -2.457626934400383 12.000000000000000
-1.457891295305028 -5.195581896013464 -2.558371695608551 26.000000000000000
-1.474791791755861 -5.189167690627541 -2.671690073626949 23.000000000000000
-1.489190040086879 -5.170047290750261 -2.779938854707405 23.000000000000000
-1.505540722328579 -5.159081141675661 -2.894139752502788 21.000000000000000
-1.520995906714431 -5.145726780392267 -3.009181176551487 22.000000000000000
-1.476874063763273 -4.934834490451956 -3.005918753331357 3.000000000000000
-1.480588679107601 -4.879451245472171 -3.093235960342904 3.000000000000000
-1.330411194860131 -4.212305902418638 -3.000347486048898 3.000000000000000
-1.316731239634161 -4.110581055842801 -3.041010066724174 21.000000000000000
-1.295917012382540 -5.513269445615045 -1.049790034752230 8.000000000000000
-1.316740825615905 -5.528856757100853 -1.156692075539797 6.000000000000000
-1.296099360167842 -5.371729154621209 -1.224847883602295 45.000000000000000
-1.309309678887415 -5.357623393935869 -1.324070894447434 44.000000000000000
-1.322392968379778 -5.341778635620235 -1.422861147551274 42.000000000000000
-1.336440840598352 -5.331932827283075 -1.523165849447091 40.000000000000000
-1.350253776630985 -5.320162041515783 -1.623843154589872 41.000000000000000
-1.363022320992150 -5.302877721781861 -1.723153510371843 39.000000000000000
-1.376850366331850 -5.291226591853453 -1.825075401838167 38.000000000000000
-1.391475247785640 -5.281273839370672 -1.928524635149588 30.000000000000000
-1.403776210000399 -5.262298162836941 -2.029032872488731 31.000000000000000
-1.419689953742705 -5.255784422472551 -2.135489297499965 28.000000000000000
-1.433370741360134 -5.240236411932926 -2.238916404170784 25.000000000000000
-1.447875855383753 -5.226126529285737 -2.344295418093161 27.000000000000000
-1.463863954425178 -5.217140555946242 -2.453008508431152 15.000000000000000
-1.478026489020754 -5.198875190818144 -2.558815047643851 24.000000000000000
-1.494085425226375 -5.188923411280602 -2.670460367425474 23.000000000000000
-1.509584046374548 -5.173160388566188 -2.780586916660071 23.000000000000000
-1.524075381300212 -5.155343135298784 -2.891097955698201 21.000000000000000
-1.539657285195408 -5.141965073079830 -3.006119530453146 21.000000000000000
-1.496947095347958 -4.937810954272096 -3.006984598164714 3.000000000000000
-1.501641575077378 -4.885628176823365 -3.096495744842664 3.000000000000000
-1.380744777866594 -4.316276382392810 -3.074065394423509 13.000000000000000
-1.322451950352644 -4.076282847601474 -3.015400302672683 57.000000000000000
-1.324498913762862 -4.027420459611649 -3.093071461984429 32.000000000000000
-1.318281346779612 -5.532761775971658 -1.051350284671988 6.000000000000000
-1.332911169968040 -5.521540793194128 -1.153061612433435 24.000000000000000
-1.312847924983398 -5.368293578316442 -1.222069712771424 46.000000000000000
-1.328030776053665 -5.361719437861402 -1.323139798930373 42.000000000000000
-1.341225258089561 -5.345816599069038 -1.422049118765080 42.000000000000000
-1.355401892123253 -5.335908334552978 -1.522469032879411 40.000000000000000
-1.367427167745515 -5.316642743239203 -1.620996262078785 40.000000000000000
-1.381250898870708 -5.303032507346461 -1.721490104646429 38.000000000000000
-1.396164928031556 -5.295005966395999 -1.824724447571580 37.000000000000000
-1.408974413938838 -5.277690976131178 -1.925625368894283 28.000000000000000
-1.423322131269773 -5.265936379787418 -2.028908118833639 31.000000000000000
-1.437413000861608 -5.252157779969248 -2.132553989764977 29.000000000000000
-1.451197820328241 -5.236589073309123 -2.235964168669541 26.000000000000000
-1.466806190789191 -5.225992369447020 -2.342910018149231 26.000000000000000
-1.482928349209753 -5.216950281109450 -2.451664184904219 15.000000000000000
-1.499196520290677 -5.205582336123527 -2.560934660507185 24.000000000000000
-1.514392917204097 -5.192065545629737 -2.670972381400948 23.000000000000000
-1.530011864472951 -5.176211629555088 -2.781201334069623 23.000000000000000
-1.544616916514844 -5.158304550112341 -2.891815476393074 22.000000000000000
-1.561343298960167 -5.148173122736333 -3.008889596034960 21.000000000000000
-1.516039328750728 -4.937421718540286 -3.006005244002034 3.000000000000000
-1.520718133056574 -4.885204007784941 -3.095577193693427 3.000000000000000
-1.340178285187564 -4.079299571746478 -3.017406364389907 54.000000000000000
-1.342199489214999 -4.030360820823407 -3.095194369522319 40.000000000000000
-1.336155605136377 -5.533058101568074 -1.049237934662363 25.000000000000000
-1.349975699851688 -5.517989650780284 -1.150205122441917 11.000000000000000
-1.330522480457808 -5.368602135186680 -1.220129928763906 43.000000000000000
-1.344891430687418 -5.358211282801904 -1.320317722564504 43.000000000000000
-1.358182511058772 -5.342288345030785 -1.419210874113612 43.000000000000000
-1.372474641276352 -5.332357468972861 -1.519612181493253 40.000000000000000
-1.386521712462518 -5.320500675507019 -1.620387022534853 39.000000000000000
-1.400463366066846 -5.306823999820910 -1.720995466359375 38.000000000000000
-1.414533960635182 -5.295059353511371 -1.823078746791118 36.000000000000000
-1.427444472160688 -5.277701049027744 -1.924029603719583 27.000000000000000
-1.442902134530217 -5.269514924805515 -2.028750819450256 31.000000000000000
-1.458107527084580 -5.259250933517538 -2.133963930752860 27.000000000000000
-1.471010424371983 -5.240015866892143 -2.236027291002405 24.000000000000000
-1.486750778267541 -5.229335899385454 -2.343078781159395 25.000000000000000
-1.502002341566067 -5.216703992591555 -2.450290680635541 17.000000000000000
-1.517385813407582 -5.201805597710005 -2.557894215346341 24.000000000000000
-1.532701339573207 -5.188264984897887 -2.667912489223181 21.000000000000000
-1.548433157269000 -5.172386107321079 -2.778121796153265 23.000000000000000
-1.565191900486094 -5.161203643805637 -2.892499137738880 21.000000000000000
-1.581036212970321 -5.147636908855421 -3.007720523563631 21.000000000000000
-1.536167932268961 -4.940278790755714 -3.007006743171317 2.000000000000000
-1.540833460787903 -4.887989068451130 -3.096698098429782 3.000000000000000
-1.358973187007000 -4.085368882883707 -3.021680487371484 52.000000000000000
-1.359935069783537 -4.033247135872759 -3.097287546700669 59.000000000000000
-1.351233973054001 -5.521837631889124 -1.044928666042717 9.000000000000000
-1.366082722431214 -5.510584707825065 -1.146533110450571 17.000000000000000
-1.349158312544846 -5.372647375407541 -1.219022570429934 42.000000000000000
-1.362697146050914 -5.358426439103873 -1.318400009427066 44.000000000000000
-1.377058488186881 -5.346215706245705 -1.418339713328301 41.000000000000000
-1.391479435722211 -5.336221679350506 -1.518855874924234 40.000000000000000
-1.403690941081736 -5.316879456825688 -1.617488356529980 41.000000000000000
-1.417737832653839 -5.303180872755712 -1.718079179985589 38.000000000000000
-1.432912745401504 -5.295058599805541 -1.821404811866739 37.000000000000000
-1.446921445731402 -5.281296466353846 -1.923731260951210 25.000000000000000
-1.462515986550831 -5.273033629144207 -2.028560902462019 31.000000000000000
-1.475837894111337 -5.255516678198220 -2.130973241381823 28.000000000000000
-1.490856826210737 -5.243382197150888 -2.236057481001323 25.000000000000000
-1.504695726941057 -5.225557047904652 -2.340052202071429 26.000000000000000
-1.522106586235086 -5.219902565300242 -2.450531523753923 25.000000000000000
-1.537610275327102 -5.204917428223283 -2.558239474049691 24.000000000000000
-1.553051710962224 -5.191288646142756 -2.668361402716396 23.000000000000000
-1.567871452071040 -5.171913424104257 -2.776844727987293 22.000000000000000
-1.584764973109416 -5.160669465564918 -2.891260390762378 21.000000000000000
-1.600737968305484 -5.147042927677134 -3.006521421422775 20.000000000000000
-1.553213208513363 -4.933175346450419 -3.001950987287004 2.000000000000000
-1.562023554870449 -4.893975675603501 -3.099852335294561 3.000000000000000
-1.376781515303627 -4.088274610159214 -3.023624872738972 51.000000000000000
-1.366251365294324 -5.510579359473764 -1.040603829405366 16.000000000000000
-1.388838273846353 -5.529758633300147 -1.148370021614104 4.000000000000000
-1.367827389355726 -5.376635286672196 -1.217883913613968 43.000000000000000
-1.380512493311575 -5.358588982645292 -1.316454849542189 42.000000000000000
-1.394989642065631 -5.346335887041925 -1.416443603345093 40.000000000000000
-1.408547728667189 -5.332569398914448 -1.515947526079874 40.000000000000000
-1.423820388360113 -5.324333049099732 -1.617945945930952 41.000000000000000
-1.436993700493710 -5.306859639642176 -1.717524343314613 38.000000000000000
-1.452304746727993 -5.298665467740231 -1.820961060431700 36.000000000000000
-1.464413564595942 -5.277557872578902 -1.920752928777634 24.000000000000000
-1.479119996506380 -5.265657638248465 -2.024173330693439 30.000000000000000
-1.496611946111212 -5.262486793216230 -2.132315509952024 27.000000000000000
-1.509712561239316 -5.243130819412490 -2.234538698023179 24.000000000000000
-1.525712115933107 -5.232312143406340 -2.341737853231544 27.000000000000000
-1.540178286019301 -5.216043111996121 -2.447456046811152 25.000000000000000
-1.555793677144312 -5.201032906273565 -2.555144368136040 24.000000000000000
-1.572394679881733 -5.190814982628404 -2.667011583551917 21.000000000000000
-1.588362912609924 -5.174785852491764 -2.777363973032056 22.000000000000000
-1.605394019927329 -5.163446002101979 -2.891878182800697 19.000000000000000
-1.620448350601694 -5.146391115498452 -3.005292270204489 20.000000000000000
-1.574423332411533 -4.939214851666903 -3.004897971550990 2.000000000000000
-1.578003908348005 -4.883595479772436 -3.092646577801068 3.000000000000000
-1.392509863357646 -4.084922431006308 -3.020951673415711 50.000000000000000
-1.389834231440757 -5.533630188399370 -1.042735703402657 4.000000000000000
-1.406885727088453 -5.529850986617887 -1.146220143216817 21.000000000000000
-1.384579374133500 -5.372998101430837 -1.215002616764546 42.000000000000000
-1.398337276248568 -5.358698848632231 -1.314482221835403 40.000000000000000
-1.413920365721691 -5.350149669292831 -1.415511114602511 39.000000000000000
-1.427595433415956 -5.336321915051404 -1.515131577597148 40.000000000000000
-1.442000137867373 -5.324312346005000 -1.616118078782989 39.000000000000000
-1.455273040350151 -5.306796575622546 -1.715746625522209 38.000000000000000
-1.470714451332428 -5.298553629510097 -1.819228528208408 35.000000000000000
-1.484954772000625 -5.284673644414887 -1.921715326769097 22.000000000000000
-1.498764646511425 -5.269064000414051 -2.023924181857649 29.000000000000000
-1.515380385442757 -5.262226845560754 -2.130719811067399 27.000000000000000
-1.528577430008109 -5.242823882123933 -2.232990994496113 23.000000000000000
-1.544704180997724 -5.231949765480207 -2.340232177519950 27.000000000000000
-1.560324914514311 -5.219124119654668 -2.447634283299855 24.000000000000000
-1.576060337286133 -5.204026533758861 -2.555426705888325 24.000000000000000
-1.592799157647141 -5.193717152111671 -2.667395168935340 21.000000000000000
-1.605718067504583 -5.167397047168662 -2.772377543662107 20.000000000000000
-1.624996475918962 -5.162794175366127 -2.890577581739772 19.000000000000000
-1.641228742028746 -5.149011947366714 -3.005977408799604 20.000000000000000
-1.595690633521906 -4.945187736007287 -3.007807450242382 3.000000000000000
-1.599248083290366 -4.889462020566821 -3.095736215753323 3.000000000000000
-1.411432757029006 -4.090823192742953 -3.025131927387937 54.000000000000000
-1.405804688658957 -5.526087592943862 -1.039078963532798 28.000000000000000
-1.422006013063302 -5.518495962949673 -1.141685248095976 7.000000000000000
-1.403290690585561 -5.376876051066662 -1.213805243513830 43.000000000000000
-1.416171298314031 -5.358755972841081 -1.312482105543377 39.000000000000000
-1.430880040492219 -5.346417178415296 -1.412568463497189 40.000000000000000
-1.446676195525092 -5.340015815182183 -1.514283685081896 39.000000000000000
-1.461204514119399 -5.327940440151147 -1.615384794443446 37.000000000000000
-1.473561560578591 -5.306679502661023 -1.713940775879536 40.000000000000000
-1.489133291919176 -5.298387420946775 -1.817467682367679 35.000000000000000
-1.503486587407948 -5.284460360455110 -1.920001765692691 19.000000000000000
-1.518442471684579 -5.272410121969236 -2.023642252459847 30.000000000000000
-1.534157801934459 -5.261911537624923 -2.129095302933468 26.000000000000000
-1.548499634341379 -5.246013124025157 -2.232926148577338 24.000000000000000
-1.562652086581484 -5.228008496788196 -2.337122507232550 27.000000000000000
-1.579447312176427 -5.218650467773062 -2.446141754533178 24.000000000000000
-1.596359867500155 -5.206958254470255 -2.555675431199933 23.000000000000000
-1.612171548198969 -5.193126978424567 -2.665984074434181 19.000000000000000
-1.628375726340761 -5.176946325954095 -2.776478926996314 19.000000000000000
-1.644607244708893 -5.162084706020886 -2.889247046985822 19.000000000000000
-1.660967807208952 -5.148241633723622 -3.004686010918647 20.000000000000000
-1.613789412472814 -4.941217879606392 -3.004673958759712 2.000000000000000
-1.618394078645712 -4.888752121569867 -3.094667558890715 3.000000000000000
-1.428251394250597 -4.090470935729043 -3.024698576515880 60.000000000000000
-1.420755242540785 -5.514691270946901 -1.034687743686433 7.000000000000000
-1.436074181611079 -5.503307819222852 -1.136351174501386 22.000000000000000
-1.421035975151547 -5.376917667696455 -1.211724866518305 42.000000000000000
-1.435020688503754 -5.362520825157835 -1.311374097393547 40.000000000000000
-1.448838889261512 -5.346378160860412 -1.410589392430811 39.000000000000000
-1.463748294888202 -5.336208523740624 -1.511295973782036 39.000000000000000
-1.479414396219625 -5.327809545813823 -1.613498834146845 38.000000000000000
-1.493926778451429 -5.313863184684186 -1.714479756393694 39.000000000000000
-1.508600763034065 -5.301820686177995 -1.816930694712415 34.000000000000000
-1.523072644098149 -5.287821583054316 -1.919577199954412 28.000000000000000
-1.536051933687713 -5.268488602118537 -2.020563363609590 29.000000000000000
-1.551888283012983 -5.257963959373210 -2.125995710009642 27.000000000000000
-1.569515190689636 -5.252690417646382 -2.234337808515163 24.000000000000000
-1.582714624434284 -5.231057024125777 -2.337133463871121 26.000000000000000
-1.599647535947156 -5.221610826776183 -2.446255124559158 23.000000000000000
-1.616692025765366 -5.209827902818391 -2.555890474343845 20.000000000000000
-1.631552271367231 -5.192479749511301 -2.664543344873842 19.000000000000000
-1.648952995482847 -5.179633677893433 -2.776898446382273 19.000000000000000
-1.664226112048348 -5.161317531898393 -2.887886559907561 19.000000000000000
-1.681800576977984 -5.150738469997247 -3.005304648944421 20.000000000000000
-1.632959731603175 -4.940486211952065 -3.003515024845726 2.000000000000000
-1.638638019222904 -4.891238027080443 -3.095627885324630 3.000000000000000
-1.445080258411763 -4.090068968016692 -3.024239223939712 50.000000000000000
-1.444759125676548 -4.034654365439676 -3.097931442142145 5.000000000000000
-1.438624870170009 -5.514683202716910 -1.032420290676377 22.000000000000000
-1.460078215736187 -5.526014825355481 -1.138822090532170 4.000000000000000
-1.438790087538568 -5.376906689926535 -1.209617101327538 42.000000000000000
-1.452884411057412 -5.362469604261062 -1.309316856793100 39.000000000000000
-1.466806573341860 -5.346285950016086 -1.408582626991298 38.000000000000000
-1.481838051138137 -5.336071558637264 -1.509336381096540 37.000000000000000
-1.498672364062308 -5.331321929802226 -1.612703204562377 38.000000000000000
-1.512256977757674 -5.313632496996315 -1.712613359777370 37.000000000000000
-1.527049256566686 -5.301542837731464 -1.815111045560946 35.000000000000000
-1.540576692639200 -5.283869489904427 -1.916489151483511 29.000000000000000
-1.555771331649687 -5.271719177611958 -2.020219907835595 29.000000000000000
-1.571738741040118 -5.261114586293243 -2.125759779421488 27.000000000000000
-1.586297315676897 -5.245115465881352 -2.229681720750412 24.000000000000000
-1.602809742717289 -5.234044036946375 -2.337111026022645 25.000000000000000
-1.619880250537327 -5.224509302055286 -2.446334917107000 20.000000000000000
-1.635970987981820 -5.209178659214690 -2.554376758206200 20.000000000000000
-1.653119137419997 -5.198624711102163 -2.666586250360885 18.000000000000000
-1.668469771229639 -5.178866615190841 -2.775466303984731 19.000000000000000
-1.684948408499217 -5.163850101271822 -2.888374108783512 20.000000000000000
-1.701567421694410 -5.149849271297485 -3.003950863836658 19.000000000000000
-1.654336750043297 -4.946271193121794 -3.006321872579462 2.000000000000000
-1.657812672034068 -4.890412659680980 -3.094498531664744 3.000000000000000
-1.463024166215976 -4.092708392691292 -3.026039375398528 52.000000000000000
-1.459518339052736 -5.526039589149621 -1.032258047737983 3.000000000000000
-1.479161945130601 -5.529686050343632 -1.137342571397244 26.000000000000000
-1.455530688899268 -5.373069832257813 -1.206634572417602 42.000000000000000
-1.471786712374743 -5.366120576857919 -1.308147479414754 39.000000000000000
-1.485820478169144 -5.349876430485683 -1.407531060114477 38.000000000000000
-1.500980948575070 -5.339596791325317 -1.508398587271637 37.000000000000000
-1.515860312758962 -5.327386013562872 -1.609642747536542 37.000000000000000
-1.530595730863842 -5.313347542559121 -1.710718738028649 38.000000000000000
-1.544442600540787 -5.297561936256781 -1.812015062067120 33.000000000000000
-1.560203939057212 -5.287115571221086 -1.916003289428775 28.000000000000000
-1.575523215422346 -5.274889084409958 -2.019843495134686 29.000000000000000
-1.591621647755376 -5.264204190351896 -2.125490713383146 26.000000000000000
-1.606293301240599 -5.248126534215887 -2.229521408564789 21.000000000000000
-1.622937200357966 -5.236969370653912 -2.337055124409139 20.000000000000000
-1.640145213573706 -5.227345729203337 -2.446381063074781 19.000000000000000
-1.655257952046543 -5.208472535153478 -2.552833516455505 19.000000000000000
-1.671438945665224 -5.194435772313724 -2.663327403497559 18.000000000000000
-1.689099036068063 -5.181430793979000 -2.775819766043914 20.000000000000000
-1.706810080833579 -5.169674082196671 -2.890703241743933 19.000000000000000
-1.722451622441140 -5.152221594791425 -3.004502795224994 19.000000000000000
-1.674658654789231 -4.948704844090900 -3.007095401880489 2.000000000000000
-1.679222405020556 -4.896024186881778 -3.097447864927770 3.000000000000000
-1.482118604047310 -4.098381003212602 -3.030092671197189 52.000000000000000
-1.479472949546042 -5.533523603214311 -1.031346849625110 25.000000000000000
-1.496226088863634 -5.525723585432333 -1.134276134105218 9.000000000000000
-1.474324009419773 -5.376726702551008 -1.205319327532485 41.000000000000000
-1.488637569356350 -5.362208207476337 -1.305119659944724 40.000000000000000
-1.502767652328899 -5.345941698539447 -1.404485934045285 38.000000000000000
-1.519099612540245 -5.339349814791703 -1.506381068144406 37.000000000000000
-1.535159073993697 -5.330784930050843 -1.608786700304814 37.000000000000000
-1.548942835113421 -5.313008259177867 -1.708795871793517 38.000000000000000
-1.562895954407396 -5.297177612313445 -1.810140762289555 32.000000000000000
-1.578782091877468 -5.286680143373085 -1.914173494757397 29.000000000000000
-1.595307346745591 -5.277998158525738 -2.019434056367888 29.000000000000000
-1.612628590704523 -5.270801193320315 -2.126628272391645 25.000000000000000
-1.625224814133211 -5.247535266202235 -2.227824484444299 18.000000000000000
-1.640894212920484 -5.232808956729365 -2.333833028384209 19.000000000000000
-1.659336694416836 -5.226637840709359 -2.444764736457643 19.000000000000000
-1.675662416262312 -5.211160569151791 -2.552951427121858 19.000000000000000
-1.691968586326446 -5.197033314336359 -2.663547828097431 18.000000000000000
-1.708643211110638 -5.180545818433611 -2.774325755969467 20.000000000000000
-1.727607726426335 -5.172077015622109 -2.891120005822229 19.000000000000000
-1.775901076791697 -5.250721435401299 -3.061098458603941 20.000000000000000
-1.693889124331724 -4.947795242342871 -3.005841957641809 2.000000000000000
-1.697311289398036 -4.891836268636317 -3.094203662937573 3.000000000000000
-1.499012670235271 -4.097821265808095 -3.029548792801505 55.000000000000000
-1.494339708874061 -5.521941606851400 -1.026865972269779 8.000000000000000
-1.511200304067011 -5.514143764939416 -1.129635419313475 26.000000000000000
-1.492103424944766 -5.376557570059791 -1.203129280294036 40.000000000000000
-1.507580123994657 -5.365747557246936 -1.303890839616113 39.000000000000000
-1.521821891488614 -5.349419952772827 -1.403374611236064 39.000000000000000
-1.537226482109519 -5.339049084283589 -1.504335606941404 37.000000000000000
-1.552339756028850 -5.326746407812104 -1.605674309663433 36.000000000000000
-1.568379728723915 -5.316280985928321 -1.708022688720760 36.000000000000000
-1.583532609478399 -5.304024351707294 -1.810725310811817 33.000000000000000
-1.598461647036760 -5.289807884922912 -1.913624023563647 29.000000000000000
-1.614024763106356 -5.277453688221808 -2.017618059186007 26.000000000000000
-1.630380002702952 -5.266633910246531 -2.123415244889152 18.000000000000000
-1.645272867284142 -5.250426016660819 -2.227599568088892 16.000000000000000
-1.661061541396841 -5.235616093796794 -2.333714351429571 18.000000000000000
-1.678535843818878 -5.225873232178645 -2.443118986503515 19.000000000000000
-1.693855037779104 -5.206889401484803 -2.549658383332085 20.000000000000000
-1.710279423051673 -5.192735320309582 -2.660233859700192 19.000000000000000
-1.730452329837032 -5.186369459458978 -2.776424060577342 19.000000000000000
-1.785781890500886 -5.284937761871225 -2.953262584449044 19.000000000000000
-1.808535131892393 -5.286025330429659 -3.080833796680205 19.000000000000000
-1.714262447594947 -4.950107102992230 -3.006550170822306 2.000000000000000
-1.716521278999027 -4.890838389413500 -3.092984084566667 3.000000000000000
-1.514775539050839 -4.094128526653445 -3.026699633848020 49.000000000000000
-1.509144403629940 -5.510322898420182 -1.022370150258032 28.000000000000000
-1.531356496395324 -5.521435957982496 -1.128845535423582 4.000000000000000
-1.509890880356720 -5.376335597400161 -1.200911767593044 40.000000000000000
-1.525488976257030 -5.365481305392026 -1.301721070278481 39.000000000000000
-1.539834739628852 -5.349111533798573 -1.401254714038534 37.000000000000000
-1.556441468339569 -5.342401965630898 -1.503305422479439 36.000000000000000
-1.571678459914402 -5.330031475998969 -1.604757702427798 36.000000000000000
-1.586754844334689 -5.315830022833975 -1.706041099246245 34.000000000000000
-1.602025889601430 -5.303524911846774 -1.808789804943464 32.000000000000000
-1.615962381898701 -5.285644135953408 -1.910428132212679 25.000000000000000
-1.633860680779694 -5.280443459876868 -2.017144551797348 20.000000000000000
-1.649230954470755 -5.265979410988772 -2.121613089575440 19.000000000000000
-1.663111228347415 -5.246184656183113 -2.224343407698915 7.000000000000000
-1.680135161676317 -5.234854864459194 -2.332000082878817 19.000000000000000
-1.697742450235393 -5.225051843421850 -2.441443795425697 18.000000000000000
-1.714298530014923 -5.209457679852218 -2.549712774376249 20.000000000000000
-1.734259531292944 -5.205452679514815 -2.665634310900805 18.000000000000000
-1.787682461131302 -5.296912870902205 -2.834559834654068 18.000000000000000
-1.811613302596301 -5.300503899086924 -2.961015308575833 18.000000000000000
-1.831126938011463 -5.291405571416407 -3.083125883851026 19.000000000000000
-1.733519860156560 -4.949081084362636 -3.005235650468484 2.000000000000000
-1.736888115624706 -4.893022056522211 -3.093782608424321 3.000000000000000
-1.532828955068825 -4.096551505940996 -3.028382596977334 54.000000000000000
-1.529145340893776 -5.517641723264480 -1.021371793282856 3.000000000000000
-1.553687902100610 -5.536221207697412 -1.129561260980394 15.000000000000000
-1.528755237496167 -5.379822838440675 -1.199505585989558 38.000000000000000
-1.543405660912776 -5.365161811790748 -1.299523643172609 38.000000000000000
-1.558940272955787 -5.352474336828565 -1.400081318691220 36.000000000000000
-1.573504033762123 -5.338286118197662 -1.500160783380394 35.000000000000000
-1.591048690984229 -5.333256614850112 -1.603808574323911 35.000000000000000
-1.605137690126309 -5.315324514102454 -1.704031192648035 33.000000000000000
-1.619415385073939 -5.299333444598296 -1.805586567724682 23.000000000000000
-1.636798645031502 -5.292268374793973 -1.911121567242284 20.000000000000000
-1.651482749797061 -5.276198323914123 -2.013899693095100 20.000000000000000
-1.669217260022208 -5.268829069280099 -2.121215212455576 18.000000000000000
-1.684331119662724 -5.252489739218833 -2.225552564810949 5.000000000000000
-1.700353494668455 -5.237540532806118 -2.331816279294272 19.000000000000000
-1.719239488382239 -5.231120654247645 -2.442983479741701 18.000000000000000
-1.737064868556856 -5.218848067311733 -2.553101347918279 19.000000000000000
-1.792820188445712 -5.320404899431932 -2.723359593957834 19.000000000000000
-1.814585769902063 -5.316017692443532 -2.843738802579500 18.000000000000000
