# This PCD file was generated using the MATLAB® pcwrite function
# from Computer Vision Toolbox®.
# .PCD v.7 - Point Cloud Data file format
VERSION .7
FIELDS x y z intensity
SIZE 8 8 8 8
TYPE F F F F
COUNT 1 1 1 1
WIDTH 637
HEIGHT 1
VIEWPOINT 0 0 0 1 0 0 0
POINTS 637
DATA ascii
5.510415617257856 -5.519675443720634 -1.005484321642138 90.000000000000000
5.556919784314776 -5.509143523342685 -1.142997878345528 84.000000000000000
5.616432436682515 -5.509598867433539 -1.285609195733904 82.000000000000000
5.586513394087016 -5.423061193245913 -1.407486906509819 4.000000000000000
5.642815238499526 -5.419677893119093 -1.549936682253092 3.000000000000000
5.683297710079872 -5.400379789289736 -1.690096230997465 0.000000000000000
7.279981871663429 -6.844187807175958 -2.329497200761527 21.000000000000000
8.824800703605810 -8.206360780020162 -3.022302316080453 10.000000000000000
8.262498894883453 -7.599709854409364 -3.015443274353356 8.000000000000000
7.597461376258690 -6.911467754935671 -2.942456475250204 36.000000000000000
5.461795245815294 -4.913747031029459 -2.237472414989428 1.000000000000000
5.616972478484964 -4.997352232975795 -2.426126714645036 2.000000000000000
5.790030753419082 -5.093794031221291 -2.630344129948698 35.000000000000000
5.836247252636041 -5.076378880002770 -2.781545518728767 55.000000000000000
5.806342977616098 -4.993313979109156 -2.897678507412673 17.000000000000000
5.778268199436762 -4.910874580492135 -3.013391356935579 57.000000000000000
5.425943890590228 -5.523976091749463 -0.871828557657348 84.000000000000000
5.476767530909707 -5.518327318754984 -1.009297287946237 91.000000000000000
5.525859546738472 -5.510868648934403 -1.147060157058550 87.000000000000000
5.582321468781062 -5.508852468018837 -1.288772867804407 83.000000000000000
5.555248842196716 -5.425138353974729 -1.410938744773991 3.000000000000000
5.611328931538780 -5.422054784939782 -1.553140538131525 2.000000000000000
5.662945267274008 -5.413822134263709 -1.696418815745470 5.000000000000000
7.274478149676188 -6.880953485260038 -2.344163557342242 18.000000000000000
8.769194535456570 -8.204994318272888 -3.023698304465612 9.000000000000000
8.202910977712467 -7.591795958641375 -3.013413614836300 9.000000000000000
5.974632495738374 -5.469179990048182 -2.328738022475610 0.000000000000000
5.941123707647523 -5.378657547145684 -2.448977762447286 6.000000000000000
5.829173526125395 -5.219051021875509 -2.533065027467522 16.000000000000000
5.602003617438100 -4.959868975669595 -2.560023283956745 17.000000000000000
5.801081081086250 -5.078265224053125 -2.780844584804381 66.000000000000000
5.841956056885542 -5.056509441964871 -2.932056904757888 28.000000000000000
5.779986503312914 -4.944417321218054 -3.031144565202962 29.000000000000000
5.389802755561724 -5.519357248439179 -0.875452922915414 84.000000000000000
5.448740932790841 -5.522485240632252 -1.014078406400866 91.000000000000000
5.494832102797664 -5.512468085501597 -1.151060280085525 85.000000000000000
5.548260349876288 -5.507963606696763 -1.291866865158573 84.000000000000000
5.524017297593666 -5.427088848500498 -1.414327941591874 3.000000000000000
5.577062850552656 -5.421570190146284 -1.555496909126687 2.000000000000000
5.620018703009023 -5.405524312234010 -1.695905860499279 14.000000000000000
5.680775825655243 -5.406425063571242 -1.843499403482316 3.000000000000000
8.705207732624888 -8.195417262342723 -3.022038753547466 9.000000000000000
8.151931177156465 -7.591512355044040 -3.014391853445409 10.000000000000000
5.905119375601803 -5.439376715325093 -2.316351033127613 24.000000000000000
5.919746964684359 -5.393074551221423 -2.455344936883240 20.000000000000000
5.816602977869992 -5.240838682678357 -2.542943904213407 35.000000000000000
5.624013216689603 -5.011171100440203 -2.585330837748547 23.000000000000000
5.720807217036514 -5.040219740259615 -2.758299069245439 35.000000000000000
5.803886204638205 -5.056118375096728 -2.929550801849930 31.000000000000000
5.826559850731062 -5.016801853001545 -3.072669763181377 12.000000000000000
5.362034390966986 -5.523137450851356 -0.880365770058383 84.000000000000000
5.415176573546899 -5.520871773364595 -1.017761042374359 91.000000000000000
5.463838027577411 -5.513942032714705 -1.154998384527445 87.000000000000000
5.519833790662104 -5.512509194309835 -1.296202648552439 85.000000000000000
5.492819339817946 -5.428912877900078 -1.417654635054892 4.000000000000000
5.542847557922576 -5.420942373595775 -1.557783274972977 2.000000000000000
5.577195432686942 -5.397034459879269 -1.695301195803151 25.000000000000000
5.646142554849515 -5.406433074811069 -1.845150307673143 6.000000000000000
5.702738125751772 -5.401934095446919 -1.993163790947756 0.000000000000000
7.946108374213237 -7.445845022488484 -2.957602002694361 11.000000000000000
5.883771467346865 -5.453634078513614 -2.322716654633074 7.000000000000000
5.803939745849677 -5.262608994964959 -2.552808256148566 13.000000000000000
5.721745839341731 -5.130827588504537 -2.645867874066335 43.000000000000000
5.503011420095317 -4.879530257442588 -2.668712381843118 4.000000000000000
5.779932959501445 -5.067882395480654 -2.934097307392196 38.000000000000000
5.339802282134511 -5.532528055751129 -0.886140451642796 85.000000000000000
5.381663642754189 -5.519118135557449 -1.021375269927057 92.000000000000000
5.432877894978261 -5.515290692262901 -1.158874608443376 83.000000000000000
5.483073584907765 -5.508555803020695 -1.298505690204603 85.000000000000000
5.458866141931958 -5.427837095414728 -1.420193265055394 9.000000000000000
5.514273452053157 -5.425671530036349 -1.561582768903007 2.000000000000000
5.548473527782344 -5.401980667234063 -1.698890927142759 40.000000000000000
5.600348249934892 -5.395494798892053 -1.843040790264823 36.000000000000000
5.667939279887641 -5.402137493445500 -1.994435965734961 8.000000000000000
7.662722289733537 -7.224950011734053 -2.870860574525505 19.000000000000000
7.575873838509946 -7.065991079872259 -3.009792292193311 25.000000000000000
5.765907096213077 -5.261297024774520 -2.551472707073009 13.000000000000000
5.706415607681454 -5.149774438989149 -2.654443094124170 39.000000000000000
5.690271233373013 -5.078036907557161 -2.775573896716650 16.000000000000000
5.601905930488275 -4.943614643205094 -2.859951783762878 10.000000000000000
5.339560581729927 -5.564777641820384 -0.895566073013002 83.000000000000000
5.348202790159584 -5.517224601885536 -1.024921269014471 93.000000000000000
5.399184884123058 -5.513688184720705 -1.162093450944619 84.000000000000000
5.454706242610669 -5.512857260719601 -1.302720472609288 83.000000000000000
5.444429534561525 -5.446089632691835 -1.427767052386588 10.000000000000000
5.477358032034777 -5.422016066946721 -1.562941700344485 2.000000000000000
5.528139970702913 -5.415015814439413 -1.705006801654431 53.000000000000000
5.568646995978566 -5.397890611295418 -1.845462430576055 63.000000000000000
5.647176668768366 -5.415607506150112 -2.000591665245259 9.000000000000000
5.777085355180066 -5.480919706509487 -2.178609641436472 1.000000000000000
7.537801559559488 -7.074499438419677 -3.013773273572879 21.000000000000000
5.747539897248811 -5.277817720110817 -2.558782765851250 10.000000000000000
5.699405153313219 -5.176311316438638 -2.666924455940963 37.000000000000000
5.719620454644657 -5.137068200028823 -2.806123333544530 31.000000000000000
5.497435248234432 -4.882854629429705 -2.822642796977071 6.000000000000000
5.654009269054517 -4.964179780186383 -3.032101959933781 36.000000000000000
5.341905499164562 -5.599949253469265 -0.905471146179951 80.000000000000000
5.345054882033827 -5.546592642883070 -1.034254495741624 89.000000000000000
5.368303112580056 -5.514779060224628 -1.165842874649601 85.000000000000000
5.423590455324090 -5.514236788877779 -1.306214074761219 83.000000000000000
5.457640202312913 -5.492204290802224 -1.442647375553534 12.000000000000000
5.454398982191108 -5.432031348466153 -1.568216557862332 6.000000000000000
5.504988547632491 -5.425245790583284 -1.710223728695597 4.000000000000000
5.536980257662155 -5.400158484031857 -1.847820871621026 70.000000000000000
5.631952857960813 -5.434393108744622 -2.008700710742147 8.000000000000000
5.750266286568747 -5.489417382020055 -2.182720879894387 76.000000000000000
6.310726815582289 -5.959937137535436 -2.539254295204904 3.000000000000000
5.731906811900251 -5.296867071776449 -2.567313678462736 12.000000000000000
5.661588308324791 -5.174821819089441 -2.664964721664410 27.000000000000000
5.706810358414094 -5.158540699807375 -2.816138736200406 31.000000000000000
5.705163382146521 -5.100192267489686 -2.946039649708205 29.000000000000000
5.507953668412355 -4.867500919153581 -2.970364487510230 19.000000000000000
5.338609969276398 -5.629418164053356 -0.914460895921084 79.000000000000000
5.341767884890990 -5.575992174757140 -1.043595290806918 90.000000000000000
5.345706572090174 -5.524270397758288 -1.171338472672776 90.000000000000000
5.392510082910722 -5.515490816143005 -1.309645777585822 84.000000000000000
5.440211131760085 -5.507675487504743 -1.449479067186917 62.000000000000000
5.461873698739218 -5.472478086429233 -1.582271560944140 9.000000000000000
5.465182246636036 -5.418900214853362 -1.710192817350279 5.000000000000000
5.513677436236424 -5.410471542651046 -1.852915220753642 82.000000000000000
5.619435269330332 -5.455843659558952 -2.017786216688150 10.000000000000000
5.712320356457909 -5.487131144947358 -2.182531544639219 97.000000000000000
5.731211991826624 -5.446540963097854 -2.320775870703543 33.000000000000000
5.720446468736035 -5.377838308223055 -2.447350266907869 20.000000000000000
5.710636200952293 -5.310708499874278 -2.573315645181572 9.000000000000000
5.540443123169442 -5.096454975088989 -2.623436808046867 22.000000000000000
5.655022797489726 -5.144619455081562 -2.806838759577716 24.000000000000000
5.706101680514634 -5.134081864043480 -2.963374938297195 37.000000000000000
5.567649693256566 -4.952361281118215 -3.019436145120673 3.000000000000000
5.340625245968872 -5.664698101298145 -0.924401105186006 79.000000000000000
5.343808379569167 -5.611163010779673 -1.054021664342984 89.000000000000000
5.345021704913178 -5.556479756377602 -1.181641100746292 84.000000000000000
5.358717637603864 -5.513791966332030 -1.312342726746945 82.000000000000000
5.411712968095093 -5.511878969415950 -1.453324801089406 92.000000000000000
5.460856959829306 -5.504674029996931 -1.593945133234260 16.000000000000000
5.450340151637155 -5.437195156716466 -1.717918816251478 7.000000000000000
5.493123877913289 -5.423436713312424 -1.858904053089831 21.000000000000000
5.592976044455726 -5.463745710487443 -2.021850087735105 15.000000000000000
5.679988377919687 -5.490042037009747 -2.184396131328545 99.000000000000000
5.734841583577055 -5.484140271680140 -2.337045462076313 85.000000000000000
5.743501908932739 -5.433568614679718 -2.472483353160046 99.000000000000000
5.692100067844617 -5.327078259682730 -2.580538322300001 7.000000000000000
5.500267593181301 -5.091837248607026 -2.619895004975886 33.000000000000000
5.545258125130081 -5.077225175670248 -2.768400412010345 42.000000000000000
5.687502619351473 -5.150505524350688 -2.970621281567742 33.000000000000000
5.342466441418737 -5.700038981581159 -0.934361777241481 79.000000000000000
5.342949516220535 -5.643517314080097 -1.063926121869802 87.000000000000000
5.338714728009236 -5.583020861066755 -1.190738895741075 83.000000000000000
5.346892993624379 -5.534635406760922 -1.320382607034370 84.000000000000000
5.380488189352111 -5.513159386102112 -1.456372352002263 90.000000000000000
5.429424867791400 -5.506232827198455 -1.596734686067301 93.000000000000000
5.465730988221523 -5.485873349058803 -1.735244755785571 12.000000000000000
5.455984634079749 -5.419896999993888 -1.859218164213904 6.000000000000000
5.555471409028185 -5.460694540371892 -2.021844840788483 24.000000000000000
5.647690866690874 -5.492823319819767 -2.186196663509630 102.000000000000000
5.702337331435868 -5.487237908417173 -2.338604946317868 92.000000000000000
5.763465729888297 -5.486854883624846 -2.496494795998048 87.000000000000000
5.585075326238850 -5.260110137739470 -2.547396894692393 2.000000000000000
5.471230129015479 -5.097335497723616 -2.621562072314900 39.000000000000000
5.507780967404761 -5.075367335347464 -2.765727974038996 67.000000000000000
5.555856302713409 -5.063892468645384 -2.918484162985338 25.000000000000000
5.341425912316035 -5.732534662701067 -0.943864166164591 78.000000000000000
5.344648947049580 -5.678802492715417 -1.074390004388982 87.000000000000000
5.340455189233007 -5.618171535955914 -1.201675066051139 82.000000000000000
5.345902054309848 -5.566835090246862 -1.331128207094245 82.000000000000000
5.349300299913421 -5.514314144961484 -1.459358013656652 91.000000000000000
5.400770906446126 -5.510462401296909 -1.600274270235630 92.000000000000000
5.450648096766236 -5.504189485939688 -1.742966846526235 47.000000000000000
5.465656594631212 -5.462913655067539 -1.875493638176617 11.000000000000000
5.518038697908801 -5.457483472521733 -2.021762368710296 35.000000000000000
5.612674400316533 -5.492780021033638 -2.186860241662721 103.000000000000000
5.669867669308733 -5.490205456364063 -2.340100138762832 94.000000000000000
5.725260549336057 -5.484882084886335 -2.495356519038731 87.000000000000000
5.500611647549680 -5.213469276934293 -2.524114419217763 39.000000000000000
5.444964191690659 -5.105302195545890 -2.624499655812666 43.000000000000000
5.475877286584076 -5.078450205034470 -2.765756217973296 83.000000000000000
5.518290620941301 -5.062250521659932 -2.915370350193098 43.000000000000000
5.342926614417494 -5.767987841493826 -0.953861338627697 76.000000000000000
5.343465961583546 -5.711254492270574 -1.084324509506821 87.000000000000000
5.342019594373963 -5.653382693442964 -1.212631343320882 79.000000000000000
5.344752272309070 -5.599080087547363 -1.341887223606230 81.000000000000000
5.345422435366402 -5.543627273768584 -1.469780812573971 87.000000000000000
5.369403647779918 -5.511776375169061 -1.602942811623643 93.000000000000000
5.419072646507479 -5.505788315254218 -1.745378663638505 90.000000000000000
5.461393305360203 -5.492259344096527 -1.887075637421865 18.000000000000000
5.497137150395380 -5.470491585528801 -2.027673781060835 54.000000000000000
5.574966788451365 -5.489888755167684 -2.186376628933747 99.000000000000000
5.631941289307010 -5.487691890243476 -2.339250100257536 95.000000000000000
5.687126398263033 -5.482747118904589 -2.494139803684465 86.000000000000000
5.485163730091728 -5.231862833397358 -2.532321888426029 24.000000000000000
5.426930223000843 -5.120939096973188 -2.631378938840138 50.000000000000000
5.452234297303131 -5.089080217493281 -2.769898862274573 94.000000000000000
5.483535678514766 -5.062975420407965 -2.913633531314532 52.000000000000000
5.346941731685377 -5.806420765043349 -0.964363011129520 76.000000000000000
5.344822907181372 -5.746651490070969 -1.094824525910147 86.000000000000000
5.337996516868315 -5.682893012708436 -1.222368271844198 79.000000000000000
5.343443344202088 -5.631369810550534 -1.352659337794421 80.000000000000000
5.346839442575333 -5.578642125668945 -1.481716575135945 87.000000000000000
5.354415177691125 -5.529840765276637 -1.610464285724958 92.000000000000000
5.387534642988575 -5.507260395907905 -1.747728068740183 93.000000000000000
5.437867641579234 -5.502288926751684 -1.892011648804332 95.000000000000000
5.487136010106298 -5.494384864066062 -2.037610701806536 91.000000000000000
5.542803508365547 -5.492258951389609 -2.187975520551194 99.000000000000000
5.599560807392893 -5.490384183928903 -2.340610236065110 93.000000000000000
5.638116231437396 -5.469829317839361 -2.488013785031573 75.000000000000000
5.442281755769082 -5.223958171585211 -2.527798708827718 17.000000000000000
5.397904839212680 -5.126139396853942 -2.632894648637925 93.000000000000000
5.428574113167201 -5.099629059104895 -2.773999018994758 46.000000000000000
5.457021794789340 -5.071162348509302 -2.916200536015268 58.000000000000000
5.528015339266576 -5.079665406909133 -3.083423707939619 19.000000000000000
5.342721321713462 -5.836142253133151 -0.973425127938593 74.000000000000000
5.346003631093534 -5.782107257571916 -1.105343764748737 84.000000000000000
5.341922137090777 -5.721095835312644 -1.233979871970289 79.000000000000000
5.344678397826560 -5.666569916585177 -1.364134232492525 79.000000000000000
5.348078509994632 -5.613716793673190 -1.493671989214897 86.000000000000000
5.350214410843291 -5.559154108738500 -1.621254869938910 85.000000000000000
5.358753461421453 -5.511402192710408 -1.750903541001195 91.000000000000000
5.406158808348356 -5.503923924971986 -1.894044446954303 98.000000000000000
5.457952437735464 -5.499057308792951 -2.040408758564897 94.000000000000000
5.507950414479303 -5.491781758343833 -2.188427597696391 99.000000000000000
5.545395209750646 -5.471416660371538 -2.332727094257563 54.000000000000000
5.572885066502106 -5.440708758861382 -2.474514949804677 55.000000000000000
5.429508289824211 -5.244839328896227 -2.537202424875386 17.000000000000000
5.390702230021924 -5.152064882966921 -2.645052156184389 45.000000000000000
5.415788555750453 -5.120394149112383 -2.783654805671510 41.000000000000000
5.435947705982196 -5.084338898638503 -2.921641063104489 45.000000000000000
5.490390649330370 -5.078032233354994 -3.079763490067596 22.000000000000000
5.349047921310771 -5.877634695124464 -0.984459611253834 70.000000000000000
5.349687964833751 -5.820537235785904 -1.116441205681117 83.000000000000000
5.345652678857406 -5.759372464532384 -1.245617217210337 80.000000000000000
5.345735695610509 -5.701828885824083 -1.375628303524510 78.000000000000000
5.343738815580552 -5.643147581836014 -1.504126603872199 83.000000000000000
5.351281842841318 -5.594152356509492 -1.633703170908388 83.000000000000000
5.351670343496183 -5.537865008623349 -1.761157483250309 83.000000000000000
5.374488246217597 -5.505431882902778 -1.896014734643816 97.000000000000000
5.423357006282965 -5.498111196570489 -2.041106575499605 94.000000000000000
5.473153107080138 -5.491160515613749 -2.188809552753173 99.000000000000000
5.524035573671699 -5.484584354502297 -2.338535746820689 69.000000000000000
5.581313485283014 -5.483385571262070 -2.493665265402097 90.000000000000000
5.479154952401287 -5.326470212793985 -2.575979829073752 42.000000000000000
5.377940826749846 -5.172778489111300 -2.654527296255323 42.000000000000000
5.394771865121136 -5.133394162459811 -2.789086749479289 42.000000000000000
5.420258609764908 -5.102552150657434 -2.929975793942770 43.000000000000000
5.469077091463602 -5.091353832449192 -3.085185232758797 26.000000000000000
5.347173768173880 -5.910384092248586 -0.994040529881955 59.000000000000000
5.347834925326254 -5.853192460822500 -1.126438470592762 81.000000000000000
5.343830468349303 -5.791915731321546 -1.256020735024574 76.000000000000000
5.349300255300725 -5.740027592196766 -1.387837893797179 77.000000000000000
5.347330156581709 -5.681183733612120 -1.516876917041357 84.000000000000000
5.346777467444815 -5.623537617175314 -1.644511897749183 82.000000000000000
5.347162810995142 -5.567152197929616 -1.772305356815798 83.000000000000000
5.350968155771030 -5.515173568143651 -1.900804121726912 95.000000000000000
5.394231550340512 -5.502543914988711 -2.043785811901947 94.000000000000000
5.441120620583098 -5.493129778697986 -2.190211776666085 100.000000000000000
5.491802862140023 -5.486857973990815 -2.339691196855699 91.000000000000000
5.548862151432164 -5.485986343359952 -2.494583465204505 91.000000000000000
5.522870316072218 -5.403141229727193 -2.612336946772080 74.000000000000000
5.367796557243473 -5.196093888270783 -2.665331578682118 36.000000000000000
5.384538194592290 -5.156688508043076 -2.800108580393497 39.000000000000000
5.399095788918360 -5.115612540588485 -2.935351596769603 43.000000000000000
5.458515495357551 -5.114717070783190 -3.096690793860525 29.000000000000000
6.802182662625554 -7.563235877885591 -1.277214970058093 32.000000000000000
5.348484758825066 -5.888820572093549 -1.137013216415607 82.000000000000000
5.344517961031264 -5.827411806628950 -1.267068822193850 76.000000000000000
5.344639196770932 -5.769631598654504 -1.397972486191069 77.000000000000000
5.345360168200142 -5.713559393444386 -1.528119016897167 80.000000000000000
5.350191566498918 -5.661480925004513 -1.657823856015438 82.000000000000000
5.350586172359418 -5.604925126452623 -1.786153951655965 82.000000000000000
5.354379524707245 -5.552780443213452 -1.915190135433563 90.000000000000000
5.357034593240000 -5.498558810559270 -2.043322630827296 103.000000000000000
5.409126827393608 -5.494971065630216 -2.191551038205017 98.000000000000000
5.405606359614563 -5.434710138488627 -2.317630167974068 58.000000000000000
5.443543968248769 -5.415923077234452 -2.462458585889666 73.000000000000000
5.385248797254163 -5.302055031156608 -2.562753955856760 48.000000000000000
5.344055753968299 -5.206265518601691 -2.669390089195915 6.000000000000000
5.376891188391480 -5.182577164633962 -2.812531791964787 36.000000000000000
5.388664735659128 -5.138874353496115 -2.946578820538085 42.000000000000000
6.795066994614674 -7.600178287757365 -1.288615742958251 9.000000000000000
5.346303644580072 -5.921566061665447 -1.147036493439423 20.000000000000000
5.345027182631025 -5.862964411394730 -1.278134862858491 76.000000000000000
5.347837329471018 -5.807952304357609 -1.410221942753482 75.000000000000000
5.348574904512323 -5.751725845268249 -1.540912811191547 80.000000000000000
5.348051403712578 -5.693794625165186 -1.669488828859890 81.000000000000000
5.351128586669996 -5.639944057761510 -1.799125863924977 81.000000000000000
5.352220703101580 -5.584856108928917 -1.927666928660186 87.000000000000000
5.354860505130124 -5.530508490679779 -2.056202520452795 90.000000000000000
5.377172306753742 -5.496684600313183 -2.192827487095268 98.000000000000000
5.397853436857741 -5.461073430917084 -2.329040844711522 71.000000000000000
5.384509692993153 -5.391114275421741 -2.450909675081207 62.000000000000000
5.455526873885971 -5.405472760282068 -2.612017374780748 76.000000000000000
5.331052926810361 -5.226899369241974 -2.678809749751655 4.000000000000000
5.374488844290815 -5.213688568602309 -2.827779548023355 30.000000000000000
5.380807232611563 -5.164706733311800 -2.959272526206200 38.000000000000000
7.264899401827963 -8.173972106151639 -1.391399543328453 47.000000000000000
6.806214542662351 -7.583622995060085 -1.473676310472351 18.000000000000000
5.353312171512234 -5.907350515264247 -1.291136973425442 72.000000000000000
5.348179894494638 -5.843440049890109 -1.421789084028852 75.000000000000000
5.348927796968938 -5.787081975441447 -1.552957704618426 80.000000000000000
5.351087046605944 -5.731867438664310 -1.682843749498419 80.000000000000000
5.351490271669582 -5.675020008195603 -1.812115829301587 79.000000000000000
5.352575436294242 -5.619783551464501 -1.941125712948168 87.000000000000000
5.352523338399925 -5.562500193068081 -2.069093887188703 89.000000000000000
5.358660990761911 -5.512057646307817 -2.199542882024832 93.000000000000000
5.395336676991626 -5.492907847463342 -2.342778163033066 92.000000000000000
5.449055409558602 -5.490311497966040 -2.495728109963508 89.000000000000000
5.498330542172337 -5.482618200889766 -2.648560913456043 88.000000000000000
5.360825642846517 -5.289811198715517 -2.709882268465392 6.000000000000000
5.374598582816657 -5.247455386678242 -2.844455314890126 20.000000000000000
5.378168338631585 -5.195714862943137 -2.974921240021752 31.000000000000000
7.266312244152108 -8.224206974186252 -1.405425919866065 47.000000000000000
5.324370423632202 -5.910769458675908 -1.295177207309772 0.000000000000000
5.356289881682486 -5.887718800119528 -1.435503407904304 75.000000000000000
5.351755189806447 -5.825383498038424 -1.565796758574156 77.000000000000000
5.348604327844543 -5.764278792380198 -1.694537620673713 80.000000000000000
5.349007012761520 -5.707310013582086 -1.824215005500644 79.000000000000000
5.352748651297326 -5.654767536058352 -1.954602258561883 87.000000000000000
5.352692475067677 -5.597324995406770 -2.083035324508076 85.000000000000000
5.358796926873210 -5.546735552148379 -2.213954880088445 91.000000000000000
5.368605088272580 -5.500143730571248 -2.346016698412772 92.000000000000000
5.414095613845381 -5.489678886856886 -2.495157390494217 89.000000000000000
5.463178943348934 -5.482321745936775 -2.647682780655107 88.000000000000000
5.499669612858640 -5.461652683252754 -2.796709516005780 72.000000000000000
5.353186785747775 -5.260311291133045 -2.849789528592171 11.000000000000000
5.383355607785391 -5.234534605234108 -2.995026855761425 19.000000000000000
7.270092242533750 -8.277502839940182 -1.419989267506208 46.000000000000000
7.292594965879115 -8.223147638018757 -1.607969398645738 44.000000000000000
6.796398040923140 -7.590370986953350 -1.667398557559929 19.000000000000000
5.345686034339067 -5.911662078165106 -1.444261851554927 21.000000000000000
5.351738247589160 -5.860858123671353 -1.577879521220434 75.000000000000000
5.351259950038503 -5.802478305231537 -1.707933975430921 78.000000000000000
5.354324589074665 -5.748190122748651 -1.839060224018031 75.000000000000000
5.355397749169907 -5.692632508958471 -1.969073402932224 86.000000000000000
5.358000121305542 -5.637804469244419 -2.099078718547119 32.000000000000000
5.356088159230118 -5.578696901190496 -2.227277377248392 89.000000000000000
5.363180375091716 -5.529245723289106 -2.358574568615583 87.000000000000000
5.381857580358230 -5.491619795880146 -2.495751790991633 94.000000000000000
5.430747828803193 -5.484569407104684 -2.648032559958578 89.000000000000000
5.480394136017110 -5.477470124755092 -2.803605026804721 88.000000000000000
5.313135651388079 -5.254699887949404 -2.845124713880482 1.000000000000000
5.367086680916491 -5.252659195102127 -3.003280862596412 31.000000000000000
7.270993882158300 -8.327904677320602 -1.434069611657057 46.000000000000000
7.293460815714608 -8.273448919179819 -1.622768101534492 45.000000000000000
6.788524401099431 -7.627302430179368 -1.679672019847181 14.000000000000000
6.810774670445466 -7.577547969892207 -1.854953140217009 14.000000000000000
5.354176648418913 -5.899291811629628 -1.590762250861280 65.000000000000000
5.353715733992875 -5.840747648371971 -1.721353754355693 76.000000000000000
5.354132623725076 -5.783440614251143 -1.852105425993133 79.000000000000000
5.357846002809387 -5.730567819165333 -1.983568168762079 85.000000000000000
5.357785763572642 -5.672755898409184 -2.113061340501532 49.000000000000000
5.358520539493986 -5.616259143999489 -2.242830991239242 90.000000000000000
5.362916890981480 -5.563878768537670 -2.373485089365690 83.000000000000000
5.368235475804283 -5.512506948409811 -2.504950901724404 89.000000000000000
5.401009730641900 -5.489384430380358 -2.649620437913559 89.000000000000000
5.389487664417667 -5.421236103052856 -2.773634047607232 69.000000000000000
5.352637425930262 -5.328004183125976 -2.883175334786759 2.000000000000000
5.414224977798649 -5.333277182665762 -3.047239141032088 28.000000000000000
7.274243467050997 -8.381380350848691 -1.448692305658227 45.000000000000000
7.299289286562065 -8.329780877992782 -1.638762470801072 44.000000000000000
7.355756393572864 -8.314523266129523 -1.835498497793657 37.000000000000000
6.847217959167335 -7.664349925728279 -1.879907028457862 11.000000000000000
5.332772486911891 -5.911585233102842 -1.596589375699333 0.000000000000000
5.358603173535963 -5.881975050359733 -1.735649024289163 77.000000000000000
5.353758455751085 -5.818745376634602 -1.865167188047019 79.000000000000000
5.352175556817361 -5.760051918699984 -1.995134758077101 84.000000000000000
5.352104966156803 -5.702133006614856 -2.124962965821543 51.000000000000000
5.360750860797098 -5.653891371351581 -2.258407972315744 87.000000000000000
5.362469720587558 -5.598566673576806 -2.388412380075251 84.000000000000000
5.365100011850965 -5.544302856205349 -2.519099779982911 84.000000000000000
5.368650316502444 -5.491382345004821 -2.649847112587359 69.000000000000000
5.391491307725392 -5.458135916228488 -2.791320439988597 84.000000000000000
5.418063788724449 -5.428032379856284 -2.935641882884316 63.000000000000000
7.272041090196725 -8.428942442379416 -1.462303554514367 45.000000000000000
7.302228923934956 -8.383236728446359 -1.654205155739667 42.000000000000000
7.366352491761226 -8.376837397308229 -1.853728725078579 37.000000000000000
7.045127453237415 -7.933815131432612 -1.949795022019344 56.000000000000000
6.808665573174761 -7.593807715891647 -2.054111361813002 6.000000000000000
5.347535552092509 -5.905906905782116 -1.744839000980254 14.000000000000000
5.355828424730384 -5.856976199979526 -1.879166750909416 77.000000000000000
5.356878660608167 -5.800950822604224 -2.010652771924630 83.000000000000000
5.359439972229545 -5.745644001234558 -2.142128426389399 53.000000000000000
5.362778688363731 -5.691592817248728 -2.274007902861037 85.000000000000000
5.364473316332186 -5.636076958722522 -2.404537076802321 84.000000000000000
5.364433828590084 -5.578877907831631 -2.534503302066598 80.000000000000000
5.365305473040814 -5.523077056353058 -2.664398808464062 82.000000000000000
5.382762506679689 -5.484377591880786 -2.803546009317358 90.000000000000000
5.356609955933036 -5.401220501631714 -2.919494968783527 68.000000000000000
6.198266865007233 -7.227356444711575 -1.258420713131924 5.000000000000000
7.307485578833561 -8.439774732486180 -1.670269732716048 43.000000000000000
7.376619262752629 -8.439287285416139 -1.872008110719714 37.000000000000000
7.007130949863708 -7.939052336503539 -1.954837039172279 49.000000000000000
7.739165783599065 -8.684433888648870 -2.352731393010366 31.000000000000000
6.812874934026970 -7.570553960138341 -2.239337372961189 12.000000000000000
5.357696780346463 -5.895274890280254 -1.893188627130513 62.000000000000000
5.358740534228595 -5.839077563755493 -2.025209394423862 83.000000000000000
5.353420213612038 -5.775105699340249 -2.154052501202750 38.000000000000000
5.359354468010181 -5.723756683760752 -2.287390021689219 88.000000000000000
5.363648271943016 -5.670880061125095 -2.419500061421066 82.000000000000000
5.366208316256179 -5.616254171560045 -2.551170983485312 79.000000000000000
5.367043557179305 -5.560248068946395 -2.681582530357399 80.000000000000000
5.366037059789518 -5.502558874390710 -2.811645089058981 84.000000000000000
5.402833640728316 -5.483137587745765 -2.962109863672163 90.000000000000000
6.160815031983233 -7.226754491865138 -1.262845064129604 25.000000000000000
7.312450783314589 -8.496417796796999 -1.686370114735517 42.000000000000000
7.383968671793001 -8.498893775804582 -1.889673845289084 37.000000000000000
6.922473404033219 -7.890930074967780 -1.946679357886579 36.000000000000000
7.779085124774297 -8.782715934286948 -2.382964422549644 33.000000000000000
7.085346400612409 -7.921834230171703 -2.346031716113119 17.000000000000000
5.828796362265142 -6.453375633130277 -2.074289252964744 21.000000000000000
5.360399891775332 -5.877271637861978 -2.039788002474321 80.000000000000000
5.362935142471516 -5.821612213468054 -2.172330981605617 83.000000000000000
5.358379782197278 -5.758768711927011 -2.301904653166575 86.000000000000000
5.365254373128840 -5.708519207452775 -2.435666227085438 82.000000000000000
5.365162960020850 -5.650943131970804 -2.566609462238526 79.000000000000000
5.368577432927887 -5.597487044759402 -2.698788456031350 78.000000000000000
5.367532326029513 -5.539581076963527 -2.829362864811755 81.000000000000000
5.378041273953643 -5.493378935401880 -2.965983804361377 84.000000000000000
5.362882563313695 -5.421803868354947 -3.089258394048200 23.000000000000000
6.136229775508764 -7.241128550871785 -1.269849381583955 32.000000000000000
6.183303923823058 -7.227814957051299 -1.438695079667632 17.000000000000000
7.388427755780522 -8.555633611688464 -1.906715710366541 41.000000000000000
6.848513940062207 -7.854256320796863 -1.941266200188966 0.000000000000000
7.813264049780106 -8.875422641643173 -2.411721754394877 14.000000000000000
7.088372976196765 -7.974102982148800 -2.364283016140208 16.000000000000000
5.797384848178490 -6.458407387954620 -2.077758150825949 21.000000000000000
5.413887910336210 -5.972936762440820 -2.074324016685528 45.000000000000000
5.359169742982198 -5.854007823261494 -2.185341179563807 83.000000000000000
5.362431609329144 -5.799468754051333 -2.318687863005693 84.000000000000000
5.364049946367840 -5.743434629657949 -2.450663344426773 81.000000000000000
5.369144964042143 -5.691209656003464 -2.584572499759640 79.000000000000000
5.364695702147380 -5.629325190348291 -2.713380534438842 78.000000000000000
5.366219078332688 -5.573965997620211 -2.845721676607179 80.000000000000000
5.371442203040464 -5.522256083177419 -2.979915504037957 83.000000000000000
6.116711610606170 -7.261491680190167 -1.277880139608037 25.000000000000000
6.148219126205507 -7.230243239319560 -1.443254751052140 30.000000000000000
6.200735915590426 -7.223946338755240 -1.613632362061364 4.000000000000000
7.549919445120654 -8.711568007661059 -2.157147009381922 14.000000000000000
7.867560844125388 -8.991999274950908 -2.447008664322086 12.000000000000000
7.085953709331134 -8.020611968695251 -2.380827519338359 14.000000000000000
5.760813938753865 -6.457517806314318 -2.079299532100347 20.000000000000000
5.723414932794842 -6.353852117134939 -2.208010140520385 22.000000000000000
5.368211408611685 -5.900699433587595 -2.203685201409306 46.000000000000000
5.366260328861024 -5.840249929126031 -2.335498843552651 82.000000000000000
5.365256954984592 -5.781199649449280 -2.466869356126698 80.000000000000000
5.367709416335084 -5.726017120397012 -2.600047607007991 78.000000000000000
5.363242993379815 -5.663941281665585 -2.729302063130191 78.000000000000000
5.367313825790660 -5.611114353254941 -2.863479353893235 79.000000000000000
5.372469820332830 -5.559199689725875 -2.998187925958721 62.000000000000000
5.297787508304666 -5.426211739764715 -3.087558529338454 23.000000000000000
6.114928893462424 -7.303082830681770 -1.289639405453924 6.000000000000000
6.125930002521703 -7.247637259336737 -1.450770747319599 30.000000000000000
6.160305778560462 -7.220517298718144 -1.616523013614910 24.000000000000000
7.563516786927275 -8.780649423231415 -2.178227150729488 20.000000000000000
7.900612817816810 -9.085315823338407 -2.476008379053972 12.000000000000000
7.083296072753082 -8.067183033271704 -2.397389132663675 10.000000000000000
5.732039248115712 -6.465210930112052 -2.083582896651992 25.000000000000000
5.715398710268448 -6.384617050551006 -2.220087092993231 27.000000000000000
5.661352062906018 -6.262032115984512 -2.339582569222191 13.000000000000000
5.362105525855505 -5.872612668194867 -2.348937798015738 81.000000000000000
5.366259059535371 -5.819030204602623 -2.483096289690932 77.000000000000000
5.368675041274796 -5.763652917021425 -2.616798301991098 78.000000000000000
5.366776769431169 -5.704106060680707 -2.747886670807144 76.000000000000000
5.368202939509431 -5.648328392487706 -2.881257984086040 79.000000000000000
5.373291607667445 -5.596208908893128 -3.016481252551684 31.000000000000000
6.964845955340051 -8.368298935431977 -1.482780410455770 45.000000000000000
6.113754307161969 -7.277078486780383 -1.460682364135534 19.000000000000000
6.132696647047004 -7.231960287485738 -1.622708302661824 30.000000000000000
6.183581628400890 -7.222631778435906 -1.794960845821101 15.000000000000000
7.364471170857176 -8.520939895620122 -2.325542446149469 10.000000000000000
7.090664812387856 -8.125578694704956 -2.417467144455446 7.000000000000000
5.716116515020980 -6.487387237509957 -2.092518773463535 23.000000000000000
5.696939253741743 -6.403828676932271 -2.228137656357067 30.000000000000000
5.673974122800049 -6.315488947629073 -2.360500160171660 15.000000000000000
5.602608074022068 -6.174840106108475 -2.470333668332478 23.000000000000000
5.364478008677173 -5.854112392236591 -2.498143269206345 78.000000000000000
5.369435042565223 -5.801353543383542 -2.633569514621515 77.000000000000000
5.364931933144293 -5.738837837640774 -2.763843270880458 75.000000000000000
5.368886003639111 -5.685607334395076 -2.899057143107215 79.000000000000000
5.371334671073313 -5.630586318148826 -3.033342309268936 22.000000000000000
7.285398588661145 -8.806307007656059 -1.565637343461759 43.000000000000000
6.093843465574139 -7.297413236856555 -1.468751806000619 0.000000000000000
6.117768618725778 -7.258384075562612 -1.632235197314770 26.000000000000000
6.145530836074322 -7.222225744227247 -1.798057296717989 28.000000000000000
6.209279609465721 -7.228655556833894 -1.975654213704326 3.000000000000000
7.100275341379469 -8.187041254194632 -2.438464594517190 3.000000000000000
5.792285055735245 -6.614810636363780 -2.135419883337880 11.000000000000000
5.683532428900610 -6.428796904957470 -2.238180842658696 26.000000000000000
5.686292777076595 -6.369080128534159 -2.381467776325744 8.000000000000000
5.604912885524652 -6.216516496830206 -2.487508430200305 21.000000000000000
5.370215153191460 -5.897705325294350 -2.516814872895400 28.000000000000000
5.367420864545474 -5.836325717965249 -2.649093312184254 74.000000000000000
5.368034476795674 -5.779146550441308 -2.782474978226279 76.000000000000000
5.366797215237452 -5.720216067331213 -2.915482771954820 78.000000000000000
5.374316033290913 -5.670421056972300 -3.053128921443927 20.000000000000000
7.286211120285683 -8.860559955489901 -1.580507762016389 42.000000000000000
7.217436223733825 -8.695472407332973 -1.754841864569498 49.000000000000000
6.110318650051827 -7.293853704246237 -1.643788348870455 7.000000000000000
6.122758003012058 -7.239672208069273 -1.805570479449952 31.000000000000000
6.165894064953370 -7.222483360054261 -1.976735817835080 23.000000000000000
7.124835007847040 -8.266368547558026 -2.464796370270922 0.000000000000000
5.791139032848725 -6.654782440371076 -2.150111479329555 31.000000000000000
5.682783223233606 -6.468286713700806 -2.253273580170929 20.000000000000000
5.700863695816215 -6.425685952103916 -2.403562598864248 5.000000000000000
5.558389664498386 -6.204022322860429 -2.482997252323693 51.000000000000000
5.470377516472668 -6.046022777802499 -2.580171001612811 1.000000000000000
5.370336530918986 -5.876946158818970 -2.667171796307841 56.000000000000000
5.373468695734165 -5.822304609260042 -2.802466630123222 73.000000000000000
5.372188088224791 -5.763098514922986 -2.936112166118340 79.000000000000000
5.371964635741811 -5.704910957714096 -3.070023276278695 20.000000000000000
7.291763066546489 -8.921031218939294 -1.596501604151728 41.000000000000000
7.349053579803082 -8.907961558353467 -1.802491707631519 38.000000000000000
6.967665568920802 -8.368176371187330 -1.889964216692366 24.000000000000000
6.117621421181830 -7.278108623781329 -1.818307731803675 19.000000000000000
6.137799248064583 -7.234045748904490 -1.982641292118851 31.000000000000000
6.179510353785731 -7.214163947283603 -2.153390426552608 15.000000000000000
5.779617516754956 -6.683055984651345 -2.161018293776136 19.000000000000000
5.676736569264369 -6.502006408474152 -2.266351823379954 18.000000000000000
5.610690003810618 -6.363998115186636 -2.381392380738745 7.000000000000000
5.527294092033165 -6.208498427413768 -2.485265236745580 84.000000000000000
5.480078780834988 -6.035547530759489 -2.738777566686484 11.000000000000000
5.371013460141308 -5.857218963341372 -2.818479098105064 70.000000000000000
5.372240878956247 -5.800574827322691 -2.953973529180945 77.000000000000000
5.379599288625272 -5.750323911626149 -3.092779721416158 18.000000000000000
7.294503344705001 -8.978537746050090 -1.611980426941129 41.000000000000000
7.356638174114988 -8.971544746203515 -1.820108689617784 36.000000000000000
7.466632070571501 -9.022414352841595 -2.042055035583293 28.000000000000000
6.097182167102984 -7.298494969113658 -1.826525884564457 0.000000000000000
6.117253742316816 -7.254494517025353 -1.990962569854082 24.000000000000000
6.151196527196535 -7.225825548994313 -2.159178181463105 27.000000000000000
5.866712342055658 -6.826227892093126 -2.209100056761044 8.000000000000000
5.673054335138153 -6.538676563564469 -2.280453311879668 19.000000000000000
5.716346192401248 -6.524855800697859 -2.442496057052962 4.000000000000000
5.498760178388478 -6.215728484874996 -2.488624500177296 53.000000000000000
5.368370071560001 -5.892180362991092 -2.834504073865660 23.000000000000000
5.372085967185688 -5.838112874140379 -2.971853702651419 75.000000000000000
7.296948180941535 -9.036139052126565 -1.627489562266755 40.000000000000000
7.363887887125697 -9.035251164821974 -1.837768095932283 36.000000000000000
7.481023731451071 -9.095316030693905 -2.062873295010709 32.000000000000000
6.997447643449058 -8.427838276541520 -2.112724416872895 0.000000000000000
6.106686088190685 -7.286894208707106 -2.002551824899713 5.000000000000000
6.125379814359704 -7.240371693409998 -2.165807902631696 27.000000000000000
5.761220828357264 -6.745504965683742 -2.184718133956512 14.000000000000000
5.840899028589279 -6.774554839920494 -2.364066255149089 10.000000000000000
5.702187216095192 -6.549924669674613 -2.452778786231741 10.000000000000000
5.462643415455656 -6.214226656959346 -2.488476234870415 25.000000000000000
6.372222092798961 -7.178729855018194 -3.063723105751444 9.000000000000000
5.350367034005236 -5.910428848526903 -2.842481209776231 41.000000000000000
5.379302996767756 -5.884003086290028 -2.993971100310567 40.000000000000000
7.299096980625440 -9.093834007390292 -1.643028397032868 39.000000000000000
7.368315202774507 -9.096009658108777 -1.854843220370373 36.000000000000000
7.500007186148843 -9.174481867397690 -2.085137566806250 29.000000000000000
7.550716505664833 -9.150427547606530 -2.297697096460756 21.000000000000000
7.002594160247265 -8.407875222392725 -2.313690833180908 16.000000000000000
6.114577086920028 -7.272745406157279 -2.177756943584559 15.000000000000000
5.847280502105336 -6.889249375401691 -2.233028833944193 40.000000000000000
5.818571005808570 -6.791247488252878 -2.371221837716333 8.000000000000000
5.695468250110510 -6.583709028833178 -2.466317261757623 12.000000000000000
5.454301786989460 -6.244306669196079 -2.500965061226756 31.000000000000000
6.254525906304196 -7.091311109365974 -3.026449477118756 10.000000000000000
5.430525049892863 -6.037854666763404 -2.902944144404003 85.000000000000000
5.484413779323239 -6.038067211563438 -3.071091963099100 11.000000000000000
7.305888903364471 -9.157813374922002 -1.659718506794336 38.000000000000000
7.382334298886276 -9.169182339999789 -1.874469395675286 35.000000000000000
7.513589024437537 -9.247724360689434 -2.106080274007367 30.000000000000000
7.551715156244311 -9.208309519085075 -2.316043609191574 21.000000000000000
7.100514571365610 -8.578510538127132 -2.363748245703508 17.000000000000000
6.983419704782619 -8.358117793277913 -2.505332748467758 32.000000000000000
6.115183780055201 -7.250195427123343 -2.351845574154388 24.000000000000000
5.715996901910751 -6.713692933912744 -2.345438681031076 8.000000000000000
5.698610185051577 -6.629191127565261 -2.484232467591640 15.000000000000000
5.448319344450872 -6.277292909676152 -2.514610515967018 38.000000000000000
6.255468201648786 -7.137913405761402 -3.046364027822764 8.000000000000000
7.307424942445872 -9.215706196172436 -1.675320869669127 38.000000000000000
7.388555935441164 -9.233264722874978 -1.892257843468901 34.000000000000000
7.531722574694204 -9.327256117565790 -2.128479357469375 27.000000000000000
7.554891179901337 -9.269325153530406 -2.335184459090430 21.000000000000000
7.093023190908748 -8.622886195762062 -2.379056886282195 15.000000000000000
7.078459819799754 -8.524950593174060 -2.557930406289759 17.000000000000000
5.966869567057113 -7.118906138106273 -2.311022926446312 4.000000000000000
5.638949376660776 -6.665123236547381 -2.329737789772316 16.000000000000000
5.674019101068158 -6.642582115721043 -2.490113667408909 24.000000000000000
5.444666698522614 -6.313206413368442 -2.529421539443833 24.000000000000000
5.331920589635647 -5.947083789823612 -3.022319841220757 48.000000000000000
7.313564997788748 -9.279908988001630 -1.692085162610277 38.000000000000000
7.396897973445269 -9.300556013219980 -1.910720862763303 32.000000000000000
7.546955334593960 -9.403904217596232 -2.150245252039762 25.000000000000000
7.560215173994757 -9.333494436255796 -2.355128049869369 21.000000000000000
7.095211490152897 -8.679413544660456 -2.397717754608944 11.000000000000000
7.031117953788242 -8.521081584802554 -2.559325877072989 19.000000000000000
7.078736068546112 -8.498717209513041 -2.761032680826367 11.000000000000000
5.679139257517066 -6.755186561373280 -2.362483399893072 12.000000000000000
5.629482332854566 -6.632441270832585 -2.487158107767766 33.000000000000000
5.448294475132486 -6.357879644175243 -2.547735807030026 1.000000000000000
5.964667184233504 -6.827636032334919 -3.095566441104086 33.000000000000000
3.940800928385272 -4.467497065710203 -2.146108573839752 0.000000000000000
3.950265581396131 -4.434847936015019 -2.252871416850155 0.000000000000000
7.316927187405796 -9.341111737996409 -1.708318480982872 37.000000000000000
7.409779740342699 -9.374173674549732 -1.930504628066362 32.000000000000000
7.561770133653125 -9.480724131988580 -2.172073290411946 24.000000000000000
7.552891436367704 -9.382494094875852 -2.371246826052313 19.000000000000000
7.094633250689794 -8.732999043824968 -2.415568409041431 8.000000000000000
6.986333132872967 -8.520036730817385 -2.561536152788785 19.000000000000000
7.018856125499007 -8.480070486951886 -2.757021440952665 19.000000000000000
5.656868400270385 -6.771427049192289 -2.369411661043594 13.000000000000000
5.594982070382673 -6.633868342903198 -2.488523747349660 36.000000000000000
6.146154069289037 -7.218259950124331 -2.892966893863963 31.000000000000000
6.212100249538898 -7.226237994726044 -3.084080241053482 15.000000000000000
5.881611275103756 -6.776206959635235 -3.071794922966601 41.000000000000000
3.932677561251314 -4.487340957363614 -2.155030007122273 23.000000000000000
3.922253555337793 -4.432248874783220 -2.250626792611987 20.000000000000000
7.319971284634172 -9.402416156462783 -1.724584243468201 36.000000000000000
7.412508227524405 -9.435529063474249 -1.947780549552693 33.000000000000000
7.573720475582910 -9.554629104778542 -2.193254391960719 26.000000000000000
7.373724951987866 -9.217046339358253 -2.333079748005662 9.000000000000000
7.108511003288756 -8.804917792816241 -2.438497483671172 4.000000000000000
6.936694960863247 -8.512778243053274 -2.561844180377340 19.000000000000000
6.973946791097021 -8.479140982164802 -2.758737820004092 24.000000000000000
5.637009358833041 -6.790578223720969 -2.377345762810965 29.000000000000000
5.558055876750578 -6.632217395655461 -2.488719206275276 31.000000000000000
6.126771380435305 -7.241733200957832 -2.902821506400954 28.000000000000000
6.157828914354760 -7.209371568266771 -3.076869943985802 28.000000000000000
3.948339794245902 -4.578416849584469 -2.075180960932145 9.000000000000000
3.904698382059477 -4.484493088556368 -2.153050924579409 25.000000000000000
3.904172930740657 -4.440763642906250 -2.254026618013620 26.000000000000000
3.932147989994743 -4.429038079802150 -2.371968354013767 0.000000000000000
7.327541311367664 -9.470082230941122 -1.742033544284811 37.000000000000000
7.424633940073082 -9.509431498767130 -1.967663443318085 30.000000000000000
7.595013602013163 -9.641057000870662 -2.217334501422334 24.000000000000000
7.349493062374581 -9.244149309027934 -2.343556118062092 14.000000000000000
7.117096752089369 -8.870898863340184 -2.459793320136624 0.000000000000000
5.904334332011787 -7.291569764172698 -2.196438587811968 1.000000000000000
6.936469796477924 -8.487046626209109 -2.763302793235324 29.000000000000000
5.870163634963621 -7.116505185259765 -2.492723178959417 19.000000000000000
5.523652452462772 -6.633374285106063 -2.489952846560677 29.000000000000000
6.119592630847221 -7.279803758600904 -2.918517991848009 13.000000000000000
6.133267720255271 -7.227068426859869 -3.084401566780807 30.000000000000000
3.930107884142329 -4.586909153465269 -2.078716054890335 13.000000000000000
3.886619059395617 -4.492905567172908 -2.156476721787049 26.000000000000000
