# This PCD file was generated using the MATLAB® pcwrite function
# from Computer Vision Toolbox®.
# .PCD v.7 - Point Cloud Data file format
VERSION .7
FIELDS x y z intensity
SIZE 8 8 8 8
TYPE F F F F
COUNT 1 1 1 1
WIDTH 629
HEIGHT 1
VIEWPOINT 0 0 0 1 0 0 0
POINTS 629
DATA ascii
-5.246634997864625 -9.207852016204754 -1.256927383286783 24.000000000000000
-5.315195760330437 -9.219806377697090 -1.446189609678268 32.000000000000000
-5.370465117164668 -9.208081534831692 -1.632174890509308 35.000000000000000
-5.419919329926078 -9.186253965844505 -1.819234050940050 89.000000000000000
-5.500468275934709 -9.215171357952798 -2.017886416278738 24.000000000000000
-5.568721918055998 -9.224240276881355 -2.214210358959246 29.000000000000000
-5.294055268817007 -8.669635719962253 -2.266464050865451 12.000000000000000
-5.309666288111484 -8.595503749512241 -2.432780960344231 3.000000000000000
-5.755780778178599 -9.212305846706140 -2.809414284204740 25.000000000000000
-4.970007294255936 -7.863758173814505 -2.573215668926402 14.000000000000000
-4.970463665998892 -7.774688042489323 -2.719028647689901 30.000000000000000
-5.021289798255410 -7.763682917486079 -2.892960476513808 29.000000000000000
-5.077110054714468 -7.759183369179204 -3.071131865578248 34.000000000000000
-3.339380785977944 -4.456580160396686 -3.055377757364869 2.000000000000000
-3.181943488629071 -4.193050222685179 -3.002859548032644 4.000000000000000
-5.285988225518937 -9.214043475448140 -1.250658751309368 27.000000000000000
-5.348960996114904 -9.215448547771619 -1.438620285348231 35.000000000000000
-5.400495215610341 -9.196725620418547 -1.623524957894682 51.000000000000000
-5.454194945575474 -9.181553155273669 -1.811922501803843 75.000000000000000
-5.543242438316830 -9.223697356369984 -2.013597364950762 26.000000000000000
-5.605766043690886 -9.222413609116687 -2.207879137494066 33.000000000000000
-5.309212906508014 -8.635234384601898 -2.252208124565273 4.000000000000000
-5.351505138296777 -8.604165944291820 -2.430251254062443 4.000000000000000
-5.655556034806465 -8.990106110166080 -2.736732004621330 10.000000000000000
-5.008045300104706 -7.869795342686310 -2.571143624213164 7.000000000000000
-5.000193759334667 -7.767683201057525 -2.712847960560888 33.000000000000000
-5.053333843785159 -7.759710880861401 -2.888027719516676 35.000000000000000
-5.113592564741729 -7.761344731850089 -3.068817856309003 31.000000000000000
-3.339266080313372 -4.425341457888838 -3.034477718810745 1.000000000000000
-3.202147743441890 -4.190174657490273 -3.001551293730674 26.000000000000000
-5.325411321814426 -9.220091148636559 -1.244312446423532 29.000000000000000
-5.380733816208363 -9.207555781439146 -1.430461509722766 36.000000000000000
-5.430491476524719 -9.185278876639144 -1.614830728515860 85.000000000000000
-5.490502602437105 -9.180123777462343 -1.805218159420604 75.000000000000000
-5.582035768428026 -9.225335338432965 -2.007757100211589 29.000000000000000
-5.642837809840255 -9.220460114881615 -2.201481483391245 34.000000000000000
-5.355025979690745 -8.650633619479901 -2.250918643212417 5.000000000000000
-5.387243607202939 -8.602779567408902 -2.424847630516803 5.000000000000000
-5.707353511108462 -9.010734714750635 -2.738050364698522 25.000000000000000
-5.037837037619603 -7.862701317710876 -2.564757682677991 19.000000000000000
-5.042444358556059 -7.779911995808310 -2.713360320404230 31.000000000000000
-5.087485961085900 -7.758825838666142 -2.884226794307356 35.000000000000000
-5.148030453813650 -7.760209422693267 -3.065183218430807 29.000000000000000
-3.345321892692519 -4.402530174313093 -3.019362432457367 4.000000000000000
-3.228727170894037 -4.195500994251203 -3.006133108025615 37.000000000000000
-3.227356550076192 -4.137253230350511 -3.095120257216924 7.000000000000000
-5.356914220773353 -9.212255270788736 -1.236044844292207 32.000000000000000
-5.408472244912863 -9.192727126019816 -1.421195258416874 65.000000000000000
-5.466522981330934 -9.183938183919491 -1.607877460668667 71.000000000000000
-5.528873028621253 -9.181949040451489 -1.799110572459760 77.000000000000000
-5.614738761127762 -9.216759416366038 -1.999657596969408 34.000000000000000
-5.675823769227781 -9.211704438581279 -2.193427882764984 30.000000000000000
-5.392709823188717 -8.652593394519629 -2.246087334009794 7.000000000000000
-5.427163224318784 -8.607853370204865 -2.421231028558511 4.000000000000000
-5.853092494903242 -9.178190751896651 -2.783849630979757 13.000000000000000
-5.042523262859411 -7.816606984063515 -2.545653236442689 30.000000000000000
-5.074321580886563 -7.775898329142140 -2.708181985870477 30.000000000000000
-5.121672446579711 -7.757822077995502 -2.880363163927728 32.000000000000000
-5.184613292808275 -7.762115073118963 -3.062732537407589 31.000000000000000
-3.378988832791420 -4.415992876500070 -3.029136078582723 21.000000000000000
-3.251116667044192 -4.195223863673875 -3.006715342517262 44.000000000000000
-5.390411368907125 -9.207748302009731 -1.228184221032723 33.000000000000000
-5.440197641746050 -9.184643118008289 -1.412941758730238 76.000000000000000
-5.502581984324283 -9.182473384866059 -1.600859157457744 75.000000000000000
-5.569336828360860 -9.187011976048783 -1.793589207204267 77.000000000000000
-5.651540109005499 -9.214786110849767 -1.992956428924710 34.000000000000000
-5.714995230530554 -9.212839869570859 -2.187695374739967 29.000000000000000
-5.440827721033733 -8.670966496950511 -2.245469598723767 5.000000000000000
-5.462982895659248 -8.606208938271319 -2.415690707138094 4.000000000000000
-5.673254683680392 -8.836095441177665 -2.675162546182523 10.000000000000000
-5.084784240606886 -7.828808168431667 -2.545527035482724 19.000000000000000
-5.108320894950323 -7.774987827179746 -2.704064703630574 32.000000000000000
-5.158008467316512 -7.759882260378759 -2.877617062110632 28.000000000000000
-5.221250771642628 -7.763889586670909 -3.060211572032930 31.000000000000000
-3.275679940068960 -4.197612703361850 -3.009223242434006 45.000000000000000
-5.423915218224437 -9.203129792998014 -1.220266249121766 29.000000000000000
-5.478002505232459 -9.186676734931188 -1.406201664250519 74.000000000000000
-5.540711752562264 -9.184272054558033 -1.594363855235914 74.000000000000000
-5.605757531014054 -9.185190720118861 -1.786677905645445 83.000000000000000
-5.684233786974736 -9.205991041520809 -1.984745625628994 31.000000000000000
-5.754213630892100 -9.213836607320525 -2.181889196007838 24.000000000000000
-5.489100418532567 -8.689148272631593 -2.244744727466577 6.000000000000000
-5.503024618779903 -8.611001516178375 -2.411923077852202 5.000000000000000
-5.577550013012940 -8.628553714644287 -2.607488570605365 7.000000000000000
-5.125050628021084 -7.837614864195392 -2.544261248528567 31.000000000000000
-5.138114459777105 -7.767549898820503 -2.697659053246537 34.000000000000000
-5.194398976585349 -7.761811822947737 -2.874800949143743 32.000000000000000
-5.255810143650335 -7.762383608365488 -3.056380285645261 30.000000000000000
-3.298142377011660 -4.197171000679608 -3.009717005303657 46.000000000000000
-5.459453342569163 -9.201817837104798 -1.212741395784926 28.000000000000000
-5.515854501032110 -9.188575573566084 -1.399389885738964 64.000000000000000
-5.576834479036087 -9.182552804771110 -1.587211763131963 72.000000000000000
-5.644270431237567 -9.186606551027113 -1.780352598695856 89.000000000000000
-5.723143862269821 -9.207117837810870 -1.978637271565495 31.000000000000000
-5.801829332940446 -9.227976802560992 -2.179145824131102 25.000000000000000
-5.533331921977346 -8.700541657080176 -2.242212459745740 6.000000000000000
-5.543136951373880 -8.615647268526084 -2.408076178747773 4.000000000000000
-5.281719280224172 -8.116075611809929 -2.448040462960596 63.000000000000000
-5.167536260645016 -7.849493572946245 -2.543956690510773 31.000000000000000
-5.170029233552654 -7.763214865573842 -2.692314371529499 34.000000000000000
-5.228706621204308 -7.760439042137514 -2.870741531841905 32.000000000000000
-5.290401897351054 -7.760757385850801 -3.052485636733872 30.000000000000000
-3.320635511781090 -4.196649539028001 -3.010168175447081 58.000000000000000
-5.499094045334232 -9.207208114026846 -1.206046195453473 22.000000000000000
-5.549649793677934 -9.183549289680835 -1.391477492284044 69.000000000000000
-5.617111825499229 -9.187461812944051 -1.581156594247250 69.000000000000000
-5.682829644343906 -9.187885321977333 -1.773954493091520 75.000000000000000
-5.770450806044631 -9.221451481504294 -1.975314169766696 26.000000000000000
-5.839083235015714 -9.225357528783649 -2.172397164579551 30.000000000000000
-5.586106618982473 -8.724934855418585 -2.242972271353809 6.000000000000000
-5.576967344224419 -8.610339042014171 -2.401414754477216 4.000000000000000
-5.297231874732904 -8.085476881723611 -2.434218983663283 64.000000000000000
-5.212271914008908 -7.864426498374726 -2.544602394500039 33.000000000000000
-5.206237085420957 -7.765158263811093 -2.689125610371110 34.000000000000000
-5.260899258702429 -7.755780959590369 -2.865449475499391 32.000000000000000
-5.327178786688442 -7.762148187270891 -3.049760268202054 31.000000000000000
-3.345332703042258 -4.198776386227026 -3.012534143278429 65.000000000000000
-5.544946152716196 -9.222673599637355 -1.200603114284631 24.000000000000000
-5.587573887795702 -9.185189023354638 -1.384529036773544 78.000000000000000
-5.653306348311250 -9.185481505138799 -1.573866846622281 73.000000000000000
-5.719347986884564 -9.185675531596699 -1.766838881490112 73.000000000000000
-5.811591651333500 -9.225609163642078 -1.969755832044695 24.000000000000000
-5.878469956843391 -9.225919214588712 -2.166358606595968 31.000000000000000
-5.651785198392721 -8.768831523817246 -2.248666666746742 11.000000000000000
-5.621443119683368 -8.621233595907471 -2.399235823540661 11.000000000000000
-5.314723092987157 -8.058100315532645 -2.421371873480345 22.000000000000000
-5.255000187707010 -7.875968927884659 -2.544111332900876 34.000000000000000
-5.242498076080546 -7.766970912891679 -2.685866854590219 34.000000000000000
-5.297418296683911 -7.757334229571209 -2.862433412444976 32.000000000000000
-5.364008060491527 -7.763406663130340 -3.046964146465358 30.000000000000000
-3.370080705374304 -4.200811604527640 -3.014850228872030 38.000000000000000
-5.584749205098187 -9.227755104157220 -1.193740362832542 26.000000000000000
-5.625543404412583 -9.186693174685379 -1.377508591355832 77.000000000000000
-5.691610525407013 -9.186741101212577 -1.567085692094607 66.000000000000000
-5.755890913501508 -9.183339575652573 -1.759657361569002 79.000000000000000
-5.844364409128557 -9.216317250686318 -1.961286564480872 21.000000000000000
-5.913663490119988 -9.219734203340085 -2.158698993695693 33.000000000000000
-5.728424626967438 -8.828845657583974 -2.258391384971519 15.000000000000000
-5.852046026991704 -8.915345813130752 -2.475655535461785 33.000000000000000
-5.340663984272942 -8.043627960219078 -2.412397447493212 7.000000000000000
-5.297843380262595 -7.887345220464251 -2.543528433382959 35.000000000000000
-5.274488281984726 -7.762289970827640 -2.680340980546022 33.000000000000000
-5.336157883596498 -7.761909690180695 -2.860509220892311 30.000000000000000
-5.398714869543552 -7.761406687577039 -3.042871667915652 30.000000000000000
-5.620479921246345 -9.225898833537498 -1.185925869604904 33.000000000000000
-5.665639947309872 -9.191439423707223 -1.370919876494338 70.000000000000000
-5.727864361369150 -9.184504449925333 -1.559661459118270 70.000000000000000
-5.792457892997726 -9.180877257703196 -1.752409865538471 80.000000000000000
-5.875000895561678 -9.203601799954940 -1.952061060780543 51.000000000000000
-5.948859609945311 -9.213432181792117 -2.150979491459342 31.000000000000000
-6.015113907188503 -9.209469120225737 -2.349805780730834 26.000000000000000
-5.942763338941235 -8.993671684357569 -2.491892760798690 31.000000000000000
-5.368708486749549 -8.032308787924830 -2.404354532869247 5.000000000000000
-5.342965620964833 -7.901756486078426 -2.543884197031267 33.000000000000000
-5.310832942611391 -7.763851929426733 -2.676949135417109 33.000000000000000
-5.370612577395725 -7.760045137425274 -2.856189771118374 28.000000000000000
-5.435636705600914 -7.762405471709522 -3.039937318021225 24.000000000000000
-5.652077057706853 -9.217138737556411 -1.177180711012892 33.000000000000000
-5.703708693692548 -9.192665815103785 -1.363751571701493 75.000000000000000
-5.766247173489753 -9.185495770037079 -1.552738546199054 67.000000000000000
-5.833283081390950 -9.184956227819354 -1.746364104475517 71.000000000000000
-5.903469901947563 -9.187480234912973 -1.942090124037164 82.000000000000000
-5.988336751380958 -9.213596536417766 -2.144732574511490 29.000000000000000
-6.067809603292602 -9.228984550556440 -2.348785810537147 23.000000000000000
-5.988686472211045 -9.003417938480174 -2.489039124363019 28.000000000000000
-5.390218065190568 -8.011240327035559 -2.393382884574147 5.000000000000000
-5.377345543825655 -7.900009710228788 -2.539004820907050 33.000000000000000
-5.345046520667736 -7.762112773380250 -2.672395738887652 33.000000000000000
-5.407286665213539 -7.761202163643143 -2.852961951247309 32.000000000000000
-5.472609208485303 -7.763271042950437 -3.036931867014645 25.000000000000000
-4.516859971476574 -6.106154149202537 -2.993952822649224 57.000000000000000
-5.685746057867588 -9.211661569442658 -1.168814311811925 31.000000000000000
-5.737616155293982 -9.187022863795359 -1.355517522797415 75.000000000000000
-5.802558123566557 -9.183001879537501 -1.545179505119854 58.000000000000000
-5.876299642452511 -9.192213260450906 -1.740868141618719 66.000000000000000
-5.948992751634867 -9.197736292775463 -1.937655369139946 78.000000000000000
-6.030006377019700 -9.216906111328065 -2.139173865786772 24.000000000000000
-6.112032601733899 -9.235234504232817 -2.344333834412153 29.000000000000000
-6.026038433973932 -9.000029208810695 -2.482514659135634 37.000000000000000
-5.435587213211189 -8.025490556394763 -2.392937311505150 0.000000000000000
-5.420497727110300 -7.910901908199798 -2.538155903255916 35.000000000000000
-5.383676066652861 -7.766580707878854 -2.669954328701741 34.000000000000000
-5.439612077799675 -7.755953993831086 -2.847360547705808 33.000000000000000
-5.507426178241587 -7.760895011591324 -3.032640682685004 29.000000000000000
-4.498130306353174 -6.113829686794811 -2.839494023225536 0.000000000000000
-4.509262629721494 -6.055200051082244 -2.967431023220384 57.000000000000000
-4.508846934824865 -5.979377520656205 -3.086639561690296 56.000000000000000
-5.721516695436744 -9.209449979817645 -1.160815994494973 28.000000000000000
-5.779976507316148 -9.194708949646282 -1.349197875097646 74.000000000000000
-5.843142834203914 -9.187065885257667 -1.538674182218643 65.000000000000000
-5.915124256080174 -9.192663688477023 -1.734030952920947 62.000000000000000
-5.983872595727968 -9.191310007725285 -1.929659322259976 78.000000000000000
-6.082538621720468 -9.236462932493033 -2.137328335085904 23.000000000000000
-6.154168493967429 -9.238061341427404 -2.338967464477260 31.000000000000000
-6.067771730380127 -9.002978992895446 -2.477702863840419 37.000000000000000
-5.964649465287832 -8.748839059811734 -2.603456906068176 65.000000000000000
-5.452781578765976 -7.905706110808273 -2.532115310130867 31.000000000000000
-5.417970052177522 -7.764589301478892 -2.665267246087536 34.000000000000000
-5.478575842673957 -7.759987556218225 -2.845146017941373 33.000000000000000
-5.544487859911841 -7.761499222671121 -3.029496358764237 30.000000000000000
-4.512547831425733 -6.092682069392628 -2.827826244732245 51.000000000000000
-4.510285380745565 -6.016259890968258 -2.946815010915929 55.000000000000000
-4.514274157935104 -5.946649721935484 -3.068528949122678 58.000000000000000
-5.759418616253555 -9.210486448453356 -1.153175002161003 23.000000000000000
-5.820297037780590 -9.198879945498216 -1.342301806716063 57.000000000000000
-5.883790168761104 -9.190980234513953 -1.532088632802938 75.000000000000000
-5.953991010148219 -9.192975080179686 -1.727120211875674 64.000000000000000
-6.025232258120644 -9.194653960937238 -1.923672210727075 77.000000000000000
-6.122213838457590 -9.236163023417530 -2.130832307116895 28.000000000000000
-6.189825169756027 -9.230979441071195 -2.331055324606361 34.000000000000000
-6.102998532343423 -8.996092004498715 -2.470150108962674 37.000000000000000
-5.999371841368044 -8.742189129263437 -2.596290187399783 67.000000000000000
-5.493898696453083 -7.913113009683689 -2.530082925337795 33.000000000000000
-5.454506727591264 -7.765628984168377 -2.661597046681864 34.000000000000000
-5.513169024593725 -7.757627308898174 -2.840565056902856 34.000000000000000
-5.581598477598540 -7.761969350248552 -3.026280595164919 31.000000000000000
-4.500138505099109 -6.110134266012771 -2.680544102644261 7.000000000000000
-4.513412253059217 -6.053476116270001 -2.807787873697650 53.000000000000000
-4.508832043984941 -5.974393791329398 -2.924781773954998 57.000000000000000
-4.508274372054478 -5.899241871518853 -3.042857789578001 58.000000000000000
-5.805838094340153 -9.224853489397100 -1.147136487723616 24.000000000000000
-5.871343085876015 -9.219646660848714 -1.337755514672637 35.000000000000000
-5.922353684671253 -9.191414343520874 -1.524870223782839 67.000000000000000
-5.990741254845879 -9.189836701073791 -1.719516392793270 63.000000000000000
-6.066653600137230 -9.197845744862574 -1.917603647695587 76.000000000000000
-6.164110267977832 -9.238989542698787 -2.125013137397676 32.000000000000000
-6.225481331848150 -9.223778706877461 -2.323082554143124 33.000000000000000
-6.136025880033664 -8.985865501655040 -2.461654643877358 38.000000000000000
-6.082686951159761 -8.805766830867150 -2.609913020502925 67.000000000000000
-5.526238818041960 -7.907674806878391 -2.523915148064018 21.000000000000000
-5.488868553286473 -7.763390261138881 -2.656779565187299 34.000000000000000
-5.550021022307977 -7.758263822814509 -2.837060645729505 34.000000000000000
-5.614283911114395 -7.756124918772920 -3.020586434749353 32.000000000000000
-4.514269750981736 -6.088896896304970 -2.669082089696566 57.000000000000000
-4.514045175084671 -6.014318858175342 -2.787788519506320 56.000000000000000
-4.509381267609222 -5.935556338949308 -2.904247153823818 59.000000000000000
-4.508754411826764 -5.860723343132764 -3.021787475831383 58.000000000000000
-5.843863157628172 -9.225593500747102 -1.139336628871787 28.000000000000000
-5.911837114393295 -9.223489833545818 -1.330681488320509 34.000000000000000
-5.960958334908967 -9.191709906261540 -1.517578574114956 70.000000000000000
-6.029680361107097 -9.189875136454056 -1.712461888411807 62.000000000000000
-6.103776109117371 -9.194317630042594 -1.910089141285278 85.000000000000000
-6.195114068031336 -9.225351402823177 -2.115371640754564 33.000000000000000
-6.263337246851560 -9.219698571505303 -2.315862859235188 29.000000000000000
-6.173453536063422 -8.981965070405131 -2.454864336799114 35.000000000000000
-6.104325027579315 -8.779603372917755 -2.596882086641588 75.000000000000000
-5.603125623645282 -7.965445443976130 -2.537864875183385 16.000000000000000
-5.523258335189730 -7.761030545385049 -2.651898609743098 34.000000000000000
-5.589162299328831 -7.761878733829561 -2.834621546712303 33.000000000000000
-5.655964170758886 -7.762506171485961 -3.019634288574377 32.000000000000000
-4.507484599163708 -6.112626867353300 -2.526339519702877 25.000000000000000
-4.510235188400770 -6.043438436002525 -2.647016134359368 55.000000000000000
-4.512185243351480 -5.972217621878388 -2.766441939858201 58.000000000000000
-4.511964566868008 -5.899730343361854 -2.885200447619375 58.000000000000000
-4.511271769081620 -5.825183343953610 -3.002266149896210 56.000000000000000
-5.879789948235385 -9.222841509367917 -1.131052897839103 28.000000000000000
-5.943780639314051 -9.213834594200453 -1.321612568958997 34.000000000000000
-5.999603518906310 -9.191866652177284 -1.510213582417461 68.000000000000000
-6.073016359715263 -9.196370856178877 -1.706557754737457 70.000000000000000
-6.145298517920996 -9.197215975458693 -1.903864602960366 84.000000000000000
-6.232678443118346 -9.221387472716561 -2.107917574933606 31.000000000000000
-6.303423031738387 -9.218720867508415 -2.309385123775361 25.000000000000000
-6.379663759256156 -9.221882945952217 -2.514523662642541 29.000000000000000
-6.163736950418063 -8.807546799459203 -2.599820413295302 75.000000000000000
-5.604362435073504 -7.915428937410126 -2.517440452751040 14.000000000000000
-5.559920174186969 -7.761683132338121 -2.648023151304885 34.000000000000000
-5.623869138265277 -7.759135085882202 -2.829837916683424 34.000000000000000
-4.485497343314324 -6.115872766405726 -2.376366530705420 0.000000000000000
-4.514566228597888 -6.082143187696095 -2.511299665903178 58.000000000000000
-4.514999359726058 -6.010129343328089 -2.630289348748529 56.000000000000000
-4.512346018235750 -5.933166607981202 -2.746525698705331 58.000000000000000
-4.509787211764574 -5.858031586095773 -2.863296918049008 57.000000000000000
-4.509022509925395 -5.783836692398878 -2.979765950648892 55.000000000000000
-5.917885688257228 -9.223313128791629 -1.123111708148507 33.000000000000000
-5.980029605187479 -9.210739093035830 -1.313442530567207 31.000000000000000
-6.038288634701357 -9.191884312664735 -1.502775148391921 71.000000000000000
-6.109867373524135 -9.192824821572536 -1.698739673353494 80.000000000000000
-6.184680456322779 -9.196689457968979 -1.896883408873959 72.000000000000000
-6.274683423020946 -9.223793403213893 -2.101877064838477 29.000000000000000
-6.356874320397746 -9.236964508913742 -2.307669719811663 25.000000000000000
-6.431291339689775 -9.236483991366381 -2.512544364038950 33.000000000000000
-6.221134628038774 -8.832060172856929 -2.601680426734091 75.000000000000000
-5.726683749307894 -8.035775691273940 -2.551130391599707 78.000000000000000
-5.598884356760547 -7.765329507568767 -2.645141886270724 33.000000000000000
-5.660864080781510 -7.759369249774845 -2.826119371959766 35.000000000000000
-4.510487289477585 -6.109860989722085 -2.371294814596745 44.000000000000000
-4.510113177685567 -6.036461177950329 -2.490002323606446 55.000000000000000
-4.512740404363923 -5.967809547293903 -2.609635846253090 56.000000000000000
-4.514558892500879 -5.897148441846702 -2.728029006621125 56.000000000000000
-4.507359052101867 -5.816396628027368 -2.841441296403504 58.000000000000000
-4.508811367527950 -5.745470402421244 -2.958815625711103 59.000000000000000
-4.535703531765646 -5.708009577768923 -3.093932793715289 3.000000000000000
-5.947385826892090 -9.210274771781549 -1.113481232157713 32.000000000000000
-6.020643451187489 -9.214167466453718 -1.306149430126219 29.000000000000000
-6.079199054873969 -9.195069010513338 -1.495801037276251 71.000000000000000
-6.148935774547659 -9.192436952199962 -1.691459641941439 84.000000000000000
-6.224101232864623 -9.196021495888878 -1.889827635051086 70.000000000000000
-6.314525977962226 -9.222800509521427 -2.095017048907124 23.000000000000000
-6.401560441944972 -9.242106061244330 -2.302623603812863 29.000000000000000
-6.469612786272154 -9.231693349397238 -2.505244957763331 34.000000000000000
-6.530695161548908 -9.211729643500563 -2.707877708090730 30.000000000000000
-6.091407743961211 -8.492319557662922 -2.691193829389698 68.000000000000000
-5.633385634824297 -7.762587186167533 -2.640058799819215 32.000000000000000
-4.505162118558129 -6.135178015045542 -2.231530642677953 1.000000000000000
-4.519527711086282 -6.082306511712217 -2.357861905690479 52.000000000000000
-4.512239631556485 -5.999965118346782 -2.472514526960940 56.000000000000000
-4.510230919323177 -5.925554283014622 -2.589030608824142 56.000000000000000
-4.509684443065389 -5.852244717010939 -2.705439335152716 55.000000000000000
-4.509272488104589 -5.780713145122047 -2.822508310321906 61.000000000000000
-4.517566701725040 -5.718798007400004 -2.943898851187468 16.000000000000000
-4.546837773248531 -5.684329919266685 -3.080239541446402 2.000000000000000
-5.985520228638665 -9.210494980580734 -1.105409338324244 27.000000000000000
-6.065681352704630 -9.224083510557207 -1.299711167035942 22.000000000000000
-6.115776246915477 -9.191501312750619 -1.487677557593746 73.000000000000000
-6.192459559718969 -9.198469390970914 -1.685307528202594 77.000000000000000
-6.265780567967307 -9.198471382198804 -1.883364570377426 75.000000000000000
-6.367793386839469 -9.241092331755564 -2.092480800029489 24.000000000000000
-6.441841606730518 -9.240648590623184 -2.295889008294903 32.000000000000000
-6.505699782769448 -9.223578361376482 -2.497012724841638 33.000000000000000
-6.585119850702658 -9.228741028280307 -2.707188871286519 22.000000000000000
-6.128014668039047 -8.488286888236576 -2.685011346584834 48.000000000000000
-5.672463437034531 -7.765953177372315 -2.637027455747706 32.000000000000000
-4.516335344385140 -6.110592236411961 -2.219557067831200 54.000000000000000
-4.512403040482212 -6.033338976447885 -2.336147169063130 54.000000000000000
-4.514157109437350 -5.963509753868294 -2.455060285784026 56.000000000000000
-4.514367053899304 -5.892365109573210 -2.572403451667873 55.000000000000000
-4.511448250270649 -5.816326094617146 -2.687020924035680 57.000000000000000
-4.513283343393177 -5.748007882061251 -2.805042397186082 71.000000000000000
-4.503082182978967 -5.663088166672760 -2.914049290905753 2.000000000000000
-4.537043747391160 -5.634807068548240 -3.052554231213194 2.000000000000000
-6.025871514566584 -9.213908381586153 -1.097661526004925 25.000000000000000
-6.110816990114874 -9.233824328316011 -1.293177477039675 28.000000000000000
-6.156783474281598 -9.194394426088087 -1.480548678137040 81.000000000000000
-6.229405941555382 -9.194513387057279 -1.677274333714954 76.000000000000000
-6.300826466435879 -9.191006728000799 -1.874828302993426 74.000000000000000
-6.407771333864947 -9.239776541724799 -2.085447671817919 28.000000000000000
-6.482159451606781 -9.239046737786383 -2.289078465440552 34.000000000000000
-6.548566336721608 -9.224898895750064 -2.491299921074480 30.000000000000000
-6.610192812320056 -9.204441042963825 -2.694349656328084 27.000000000000000
-6.499528378967655 -8.945015520733810 -2.824282596488063 20.000000000000000
-4.511689824885881 -6.136993253787780 -2.080573172706139 14.000000000000000
-4.515920159344613 -6.070590519326239 -2.201998151927315 54.000000000000000
-4.511883295095002 -5.993622228708610 -2.318039195305527 56.000000000000000
-4.511257929149917 -5.921047851054749 -2.435152611686163 55.000000000000000
-4.511388661087245 -5.850223272422823 -2.551884795874580 54.000000000000000
-4.513003502532277 -5.780449290356319 -2.668636615905308 57.000000000000000
-4.521739146002313 -5.721193962047628 -2.790462102258341 11.000000000000000
-4.504482549372500 -5.627792698262159 -2.894721110536514 2.000000000000000
-4.515331436743526 -5.571066278626300 -3.017184537861175 4.000000000000000
-6.072845496573894 -9.227146811589922 -1.091012966058672 22.000000000000000
-6.151644515553726 -9.236775172338449 -1.285627539347907 31.000000000000000
-6.195632219635923 -9.193847011244580 -1.472811777804049 75.000000000000000
-6.273054903098846 -9.200233235738565 -1.670954993624605 77.000000000000000
-6.340350049323972 -9.189918985288189 -1.867551952658133 69.000000000000000
-6.447785668739956 -9.238317108967113 -2.078338991636627 33.000000000000000
-6.513466870119022 -9.224488454156816 -2.279026566538759 30.000000000000000
-6.596031634210538 -9.232419991995895 -2.487216068597247 23.000000000000000
-6.498351760740959 -8.990801298540978 -2.626198089221144 66.000000000000000
-6.498768198267418 -8.886619117732431 -2.800645025978930 34.000000000000000
-4.518006859799487 -6.106098448249127 -2.066775206715614 62.000000000000000
-4.512973900937823 -6.027567918163385 -2.183367023975026 56.000000000000000
-4.513443594059130 -5.957007204392879 -2.301150166777025 55.000000000000000
-4.512738068832966 -5.884688824972217 -2.417774297851810 54.000000000000000
-4.510480126334786 -5.811136608784754 -2.532717975610502 54.000000000000000
-4.514350549009572 -5.744615126376802 -2.650286809094409 65.000000000000000
-4.499801258507678 -5.656364208111566 -2.757358986263329 2.000000000000000
-4.501015601430745 -5.586756722802439 -2.872453981511065 2.000000000000000
-4.549168092128657 -5.576086250696011 -3.019064059333193 6.000000000000000
-6.117737055183931 -9.236879230287652 -1.083872413483261 27.000000000000000
-6.188103811192820 -9.232972065423189 -1.277083419756100 34.000000000000000
-6.234517843997327 -9.193159169072839 -1.465000936849833 72.000000000000000
-6.310065166986207 -9.196000613620587 -1.662776684548186 75.000000000000000
-6.386661260712668 -9.198412260553722 -1.862169118476364 70.000000000000000
-6.483313053461686 -9.230274798155344 -2.069710849696553 33.000000000000000
-6.556087621618332 -9.225818603242697 -2.272866515597403 28.000000000000000
-6.641311173807829 -9.236585040326624 -2.482180228240839 20.000000000000000
-6.490540976105099 -8.922677701824703 -2.600691536276635 21.000000000000000
-4.516427290348037 -6.136403890365160 -1.930293196721886 28.000000000000000
-4.519545154158696 -6.069028392438261 -2.050903696251705 57.000000000000000
-4.514404600840114 -5.990751209437103 -2.167006009807422 57.000000000000000
-4.517114899105330 -5.923476020111012 -2.285469060707328 53.000000000000000
-4.509361496019586 -5.842349977691248 -2.397958639423762 53.000000000000000
-4.511672519420326 -5.775087300756680 -2.514891994926693 55.000000000000000
-4.517823328962282 -5.711774720282064 -2.633332093191231 6.000000000000000
-4.507831021372366 -5.629642833732295 -2.742851991515324 2.000000000000000
-4.525379254383658 -5.580414647312556 -2.868032595361057 5.000000000000000
-4.564347237596781 -5.558159982113754 -3.008522545681165 6.000000000000000
-6.153891657553156 -9.233184470274493 -1.075093486623183 28.000000000000000
-6.222357295445050 -9.225746281136518 -1.268020206431045 34.000000000000000
-6.275675460468760 -9.195606598201280 -1.457635347399095 61.000000000000000
-6.353836583900553 -9.201406495054417 -1.656289581521707 78.000000000000000
-6.426286967837156 -9.197020767738641 -1.854731464333977 73.000000000000000
-6.518835526700151 -9.222113168133058 -2.061022098372271 30.000000000000000
-6.603326813118100 -9.233372305587920 -2.268190218116110 22.000000000000000
-6.597296018442129 -9.117075723055354 -2.443945888337608 21.000000000000000
-4.487952190101469 -6.130399238795649 -1.782948768848159 0.000000000000000
-4.517834285792280 -6.099153954668242 -1.914961723736148 63.000000000000000
-4.520876174927752 -6.032001729054390 -2.035067014045350 60.000000000000000
-4.515627922429157 -5.953978175456156 -2.150679974419697 57.000000000000000
-4.515941022524495 -5.883907098472099 -2.267476557239360 53.000000000000000
-4.510405887847792 -5.806090806147755 -2.380657950574686 53.000000000000000
-4.519675529564545 -5.748007672413030 -2.500984787106145 56.000000000000000
-4.500015134414670 -5.652470037142683 -2.604197816841707 4.000000000000000
-4.506326363577700 -5.591279682246219 -2.722685112131990 2.000000000000000
-4.552089164156814 -5.576870306270016 -2.865049009809412 8.000000000000000
-4.614721618569734 -5.582884784855278 -3.021067007223865 6.000000000000000
-6.190062417356428 -9.229362753962759 -1.066248763186377 31.000000000000000
-6.256607016443362 -9.218404850768607 -1.258898188543258 31.000000000000000
-6.319134104134477 -9.201170528193702 -1.450703651702913 75.000000000000000
-6.390908271965912 -9.196896228262775 -1.647965784196869 77.000000000000000
-6.472758810466100 -9.205172472578383 -1.849164441475843 70.000000000000000
-6.565759409547680 -9.229867347896368 -2.055844380339269 28.000000000000000
-6.657535621831782 -9.250295956354599 -2.265754656596932 26.000000000000000
-6.488127171698398 -8.909390677621214 -2.382255141118415 29.000000000000000
-4.514531988229793 -6.127544364436049 -1.778217362730995 41.000000000000000
-4.519034600465550 -6.061948021962681 -1.899665354429015 59.000000000000000
-4.517348014746584 -5.988851559097951 -2.017188121310239 59.000000000000000
-4.511978268474465 -5.911136771976784 -2.132184365339460 56.000000000000000
-4.514539725411928 -5.844395469149757 -2.249527209850856 54.000000000000000
-4.508898433416144 -5.766877653435590 -2.362164483570663 59.000000000000000
-4.508736079976579 -5.697184448740964 -2.476764889556849 5.000000000000000
-4.503022563130719 -5.619750694152469 -2.587333363041665 3.000000000000000
-4.525809169969437 -5.579126602647158 -2.715289617822624 5.000000000000000
-4.574094782655099 -5.567486262598469 -2.859065867563168 6.000000000000000
-4.632243891826576 -5.567640084097819 -3.011982141478036 14.000000000000000
-4.551456249903595 -5.402082034541144 -3.074633587486699 53.000000000000000
-6.224021157958878 -9.222113228935791 -1.056959894209648 32.000000000000000
-6.297578286277105 -9.220795461209597 -1.251053472377431 28.000000000000000
-6.360411742545849 -9.203304854718809 -1.443170889532507 70.000000000000000
-6.432531239364434 -9.198743220528465 -1.640731854198677 71.000000000000000
-6.510203608900638 -9.200253364166079 -1.840920151937020 74.000000000000000
-6.608194421920375 -9.231037832288187 -2.049146900777163 21.000000000000000
-6.619828014545049 -9.139879219608048 -2.232151632130208 23.000000000000000
-4.505297650630237 -6.147494317716610 -1.639580035517522 0.000000000000000
-4.520242994594111 -6.096429239899478 -1.765281221993123 60.000000000000000
-4.520028593269195 -6.024786906042364 -1.884404482272685 59.000000000000000
-4.515909170885448 -5.948849278510965 -2.000395116438816 60.000000000000000
-4.515110786763030 -5.877516311780210 -2.117035802251275 55.000000000000000
-4.515260690449575 -5.807963868552740 -2.232783150882927 55.000000000000000
-4.521293019125610 -5.745678187724219 -2.351061802317442 47.000000000000000
-4.504567474922819 -5.655357972713089 -2.456480015049572 4.000000000000000
-4.503479600849360 -5.584133444940046 -2.569148721626618 4.000000000000000
-4.554716642612105 -5.578515630768845 -2.713509842027479 9.000000000000000
-4.612667990409634 -5.578098505642540 -2.863348925925515 9.000000000000000
-4.547691683052466 -5.430539513202026 -2.936999310767190 36.000000000000000
-4.573285565661997 -5.392661516606889 -3.068798608937175 72.000000000000000
-6.257975477749975 -9.214748760501360 -1.047612619587338 27.000000000000000
-6.343107063245870 -9.229585826569348 -1.244010552282649 22.000000000000000
-6.397212812414114 -9.198770488064698 -1.434540254086516 67.000000000000000
-6.481042238992623 -9.210147101614059 -1.635139707494039 75.000000000000000
-6.556823139267908 -9.208068081237071 -1.835172071404749 80.000000000000000
-6.659887707052129 -9.244828771228043 -2.045192587540388 25.000000000000000
-6.486694273910406 -8.899707177289631 -2.167068424235228 16.000000000000000
-4.522467798859972 -6.132011154697072 -1.631253569174737 51.000000000000000
-4.521127484175426 -6.059087669710570 -1.750560733763588 53.000000000000000
-4.520816626732675 -5.987671419262155 -1.869179499782862 60.000000000000000
-4.516590334816974 -5.911976779030176 -1.984676878397556 59.000000000000000
-4.510997746591800 -5.834798144770751 -2.098631444542729 55.000000000000000
-4.515775278251043 -5.771578605269796 -2.216075368648061 63.000000000000000
-4.507567895472750 -5.691613733734846 -2.326529770637858 5.000000000000000
-4.504891588453997 -5.619515923332023 -2.438812941513607 4.000000000000000
-4.527471703873547 -5.577812245480294 -2.564448191091883 7.000000000000000
-4.578905296030525 -5.572011942981313 -2.708860497932152 5.000000000000000
-4.589466387813890 -5.514191071293637 -2.829388468272257 22.000000000000000
-4.574178075098520 -5.426787036430610 -2.934157016677305 74.000000000000000
-4.554573335394474 -5.335706949995424 -3.035923101180956 23.000000000000000
-6.300913368530189 -9.220422509854066 -1.039690079809353 26.000000000000000
-6.390989805497665 -9.241468077777858 -1.237308802780338 27.000000000000000
-6.440853325318907 -9.203860126762892 -1.427355319712838 72.000000000000000
-6.518226063540658 -9.205202777282178 -1.626587474959696 66.000000000000000
-6.598935019567819 -9.209281257386206 -1.828051238307242 45.000000000000000
-6.707090451088354 -9.252035006061163 -2.039718100017309 27.000000000000000
-6.500687900371668 -8.862922022656848 -2.151666805587157 26.000000000000000
-4.525583311586009 -6.097636076649178 -1.617907898071030 61.000000000000000
-4.519466152772167 -6.018675389535263 -1.734977881515871 54.000000000000000
-4.519050288270201 -5.947511150513650 -1.853027686409672 60.000000000000000
-4.519422062366674 -5.878215777970462 -1.970022205411012 57.000000000000000
-4.513728214198420 -5.801264481854834 -2.083551779994604 57.000000000000000
-4.530300281708751 -5.753294764682988 -2.206327878675542 40.000000000000000
-4.500640809004889 -5.646612712800084 -2.305731376367223 5.000000000000000
-4.497870267599993 -5.574872450337430 -2.417345696897470 5.000000000000000
-4.553843691217810 -5.574328902257953 -2.561047622635589 13.000000000000000
-4.607864171380901 -5.571200342154508 -2.706975161629985 11.000000000000000
-4.568247109418036 -5.453312081888767 -2.797005842829036 73.000000000000000
-4.603072442468809 -5.425760902782430 -2.932790261035013 75.000000000000000
-4.569001906473028 -5.317901569410106 -3.025333118304724 40.000000000000000
-6.348437173911913 -9.232495488257390 -1.032412954297022 22.000000000000000
-6.429898710746254 -9.240103440032263 -1.228766449349751 30.000000000000000
-6.482281224177999 -9.205537791961996 -1.419580251845183 71.000000000000000
-6.562316201646950 -9.209802060125499 -1.619669127602934 68.000000000000000
-6.666508540611279 -9.245577125404093 -1.827813857087599 27.000000000000000
-6.749742285453927 -9.252693975052956 -2.032746241903770 29.000000000000000
-6.516828749614856 -8.829292488692650 -2.137039353242903 37.000000000000000
-4.537880162459930 -6.075835300876316 -1.607909521017223 30.000000000000000
-4.519930349851156 -5.981433346953716 -1.720333906090462 53.000000000000000
-4.517058729045607 -5.907410955474285 -1.836920314410857 60.000000000000000
-4.519702100356054 -5.841431137021611 -1.954373351095302 58.000000000000000
-4.518646497148391 -5.770796669436207 -2.069588276404884 72.000000000000000
-4.506669023019233 -5.686939908849230 -2.178170055366839 3.000000000000000
-4.505373111007773 -5.616565077310348 -2.291057804365910 5.000000000000000
-4.521651471474194 -5.568577938293808 -2.412515640501160 6.000000000000000
-4.580231130412431 -5.570751973102857 -2.557598335581938 5.000000000000000
-4.567329265529565 -5.486756307634929 -2.664471542513729 67.000000000000000
-4.599452918290934 -5.455235083503317 -2.796844478361205 73.000000000000000
-4.629599526005285 -5.421814452360178 -2.929846458944552 73.000000000000000
-4.602572950285557 -5.322301173019393 -3.027380461880550 52.000000000000000
-6.391538226975877 -9.237826445825997 -1.024305447561369 27.000000000000000
-6.466559087031059 -9.235339607499681 -1.219719602238025 34.000000000000000
-6.521466448300144 -9.203822008553523 -1.411226345616220 75.000000000000000
-6.604170215735076 -9.211014223392016 -1.612097000204296 44.000000000000000
-6.713472006589380 -9.252800766475213 -1.821743009498449 28.000000000000000
-6.780790209280955 -9.237317178130242 -2.022214501070417 26.000000000000000
-6.542171203106767 -8.808257754144272 -2.125456959290852 73.000000000000000
-4.582992407157147 -6.097819486431013 -1.609470132323729 24.000000000000000
-4.520189969423671 -5.944239107605139 -1.705726845640681 48.000000000000000
-4.521948650645923 -5.876606835462018 -1.823723800996905 59.000000000000000
-4.517400775450316 -5.801642931830536 -1.937742378517245 59.000000000000000
-4.532932656693647 -5.752449317004202 -2.059978734156780 32.000000000000000
-4.501747714335307 -5.644732109146266 -2.159296860658569 3.000000000000000
-4.502755110821141 -5.577640194222603 -2.272779416434099 6.000000000000000
-4.552627870389932 -5.571013489314752 -2.411458516255653 14.000000000000000
-4.568164862786367 -5.520592123961664 -2.532771680838297 48.000000000000000
-4.596067023270575 -5.485918211123104 -2.662586204890395 76.000000000000000
-4.625892692139144 -5.451357043257502 -2.793707069064415 73.000000000000000
-4.571703511602253 -5.319524213026647 -2.873776113239664 24.000000000000000
-4.628978768416764 -5.318250118724358 -3.024624809168101 52.000000000000000
-6.430157686142710 -9.236452514298561 -1.015390113428145 28.000000000000000
-6.500941206340013 -9.227195278497442 -1.210179624760292 34.000000000000000
-6.567596753387068 -9.211660117209467 -1.404275888104649 79.000000000000000
-6.673883158072740 -9.250614196112949 -1.611155047494384 26.000000000000000
-6.730240398841298 -9.218360006807000 -1.807439890758685 60.000000000000000
-6.636228254481805 -8.984169073991525 -1.959790959350415 32.000000000000000
-6.576833915260661 -8.799741305746977 -2.116873308208977 36.000000000000000
-4.625915692353096 -6.116484681635810 -1.610097868626586 22.000000000000000
-4.517875043504094 -5.903995892297322 -1.690270272772733 53.000000000000000
-4.519537840224631 -5.836610059540110 -1.807694864641942 59.000000000000000
-4.522033749342540 -5.771053050451179 -1.924203071062198 79.000000000000000
-4.504055702866626 -5.679750671325345 -2.030935384755975 2.000000000000000
-4.503780016759207 -5.611568926221564 -2.143903856730751 4.000000000000000
-4.526368210681338 -5.571341821252103 -2.267801828225014 6.000000000000000
-4.564380120369704 -5.549887814175760 -2.400199026505352 13.000000000000000
-4.589593270939184 -5.511133535545294 -2.526629525818496 74.000000000000000
-4.627257219169015 -5.487840703799263 -2.662035130754712 75.000000000000000
-4.657188181859753 -5.453053566696059 -2.793424607446788 73.000000000000000
-4.573684769242425 -5.287610559302572 -2.855746173025851 38.000000000000000
-4.657822585874142 -5.316871693875266 -3.023393482395018 48.000000000000000
-6.466522781403382 -9.231674388514826 -1.006045278320285 32.000000000000000
-6.537616193293519 -9.222179241817216 -1.201003139455525 29.000000000000000
-6.611502446744011 -9.216091391084138 -1.396738654109207 40.000000000000000
-6.715955765657831 -9.251436488327043 -1.603370529908259 28.000000000000000
-6.774915961416816 -9.222115379186413 -1.800599247115552 60.000000000000000
-6.621779791953250 -8.908996253584954 -1.936399271970753 25.000000000000000
-6.609128745902185 -8.787967546220877 -2.107477076188021 27.000000000000000
-4.661876898636677 -6.125617934743437 -1.608168119167652 16.000000000000000
-4.520096982390122 -5.869997257995291 -1.676625020961896 57.000000000000000
-4.519291713545952 -5.799741350166300 -1.792659108432520 62.000000000000000
-4.536087223544779 -5.752642715523317 -1.914731962424589 26.000000000000000
-4.508379794583875 -5.649418255882734 -2.017077340581350 2.000000000000000
-4.503218481469430 -5.575460131773307 -2.127403024149050 5.000000000000000
-4.562051761836117 -5.579732611022735 -2.268789040835970 15.000000000000000
-4.583286976151429 -5.537518224467587 -2.392728235284989 71.000000000000000
-4.620693523074228 -5.513177694148190 -2.525755150161378 74.000000000000000
-4.651219057571279 -5.481061254407847 -2.657258889140241 75.000000000000000
-4.666662760498530 -5.429180663635528 -2.780046043032798 72.000000000000000
-4.607103490729861 -5.292057640126114 -2.857358808285644 48.000000000000000
-4.689133881962449 -5.318146215104274 -3.023674630611543 48.000000000000000
-6.505194880999839 -9.230024628100793 -0.996985920094322 32.000000000000000
-6.581232570017648 -9.226749504340340 -1.193016112001090 26.000000000000000
-6.676391999798105 -9.249328502975795 -1.393476267853678 28.000000000000000
-6.758077781311097 -9.252101383908293 -1.595502642940933 30.000000000000000
-6.817311266371409 -9.222521658864217 -1.793049176454978 58.000000000000000
-6.897247403547243 -9.222179114017086 -1.997181675073119 27.000000000000000
-6.655623272140727 -8.794888237489360 -2.102523186414376 17.000000000000000
-4.697929713008351 -6.134604851276450 -1.606158065175632 6.000000000000000
-4.517355002988580 -5.829866668134282 -1.661252060570857 63.000000000000000
-4.530834582492864 -5.778217523527537 -1.782379375129215 87.000000000000000
-4.511557218660878 -5.685686798676521 -1.889131305681120 2.000000000000000
-4.505300372432495 -5.610096189989777 -2.000028323104901 2.000000000000000
-4.529066060967301 -5.572144978289194 -2.123418224542838 5.000000000000000
-4.576004524154417 -5.561452724268574 -2.258922351619011 59.000000000000000
-4.611867950005125 -5.536763220653843 -2.390270078909575 72.000000000000000
-4.649413636285351 -5.512216017797803 -2.523495078627489 75.000000000000000
-4.682487519650627 -5.482763312262973 -2.656590501002986 75.000000000000000
-4.563748367909327 -5.275532885878983 -2.700250655849253 24.000000000000000
-4.633269193325151 -5.288009592398745 -2.854385246052637 46.000000000000000
-4.715612025163897 -5.313794046043391 -3.020760841967376 49.000000000000000
-6.536982204453996 -9.218481889244988 -0.986808652330297 27.000000000000000
-6.631876492686250 -9.240848346278455 -1.186183808201017 21.000000000000000
-6.720522604066240 -9.253364085682554 -1.385723286242598 30.000000000000000
-6.783822784028196 -9.230259268283588 -1.583716601909840 27.000000000000000
-6.859755219236060 -9.222769374849536 -1.785415187148668 62.000000000000000
-6.930568116929410 -9.209508115699149 -1.987108915855656 1.000000000000000
-6.785539508708853 -8.911060141667514 -2.123549087573857 2.000000000000000
-4.734073445022601 -6.143444964978105 -1.604067510866360 0.000000000000000
-4.516790245346610 -5.792878220748765 -1.646800473377491 63.000000000000000
-4.544681372478502 -5.759731778418039 -1.773038370517767 21.000000000000000
-4.505954089371881 -5.643119936582853 -1.871677089087203 2.000000000000000
-4.506843652092620 -5.576835760056419 -1.985160749397488 5.000000000000000
-4.559786923901754 -5.574677191054477 -2.121645923369764 11.000000000000000
-4.602046939863881 -5.557848731245253 -2.255012515239116 73.000000000000000
-4.642922696800298 -5.538812164149316 -2.389010808223400 72.000000000000000
-4.675723256395070 -5.508267971445341 -2.519861104179297 74.000000000000000
-4.713809302992836 -5.484344942869545 -2.655857376185598 76.000000000000000
-4.579866308970799 -5.260402258379159 -2.691387870967995 33.000000000000000
-4.661901324584933 -5.286649189343374 -2.852863892415530 45.000000000000000
-4.742103460809950 -5.309347700167886 -3.017798165168816 46.000000000000000
-4.523371338447896 -4.933702245398318 -3.098882038455110 24.000000000000000
-6.582629141382340 -9.226300641206976 -0.978645014848464 25.000000000000000
-6.677987396902326 -9.248288693186819 -1.178416129508816 25.000000000000000
-6.757691267570443 -9.247610312614476 -1.376447688155461 32.000000000000000
-6.821261241781299 -9.224281191555905 -1.574621087906619 27.000000000000000
-6.902247114906399 -9.222858210434639 -1.777697160650449 68.000000000000000
-6.842119480682737 -8.929866359642274 -2.121224130305672 15.000000000000000
-6.863768929164017 -8.852019126491214 -2.304892507531827 45.000000000000000
-4.532891663707246 -5.777441931331220 -1.638485244117000 88.000000000000000
-4.517332780859353 -5.689441432321470 -1.747782805487377 2.000000000000000
-4.512238104145384 -5.615727921869552 -1.859275987860105 2.000000000000000
-4.530099874260098 -5.570540123258817 -1.979894407384467 4.000000000000000
-4.600318445671328 -5.588943755580194 -2.124314923775964 4.000000000000000
-4.632993000673327 -5.560019581764236 -2.253432516431370 73.000000000000000
-4.674030771063888 -5.540741035933130 -2.387686981971162 72.000000000000000
-4.706954457850766 -5.509971500185275 -2.518804835406037 74.000000000000000
-4.727982259281313 -5.465919443465463 -2.645434632242380 47.000000000000000
-4.610681403711261 -5.262079412596667 -2.691124904012720 49.000000000000000
-4.688104697342302 -5.282407722673282 -2.849789290140365 43.000000000000000
-4.768607783788011 -5.304807047428182 -3.014786558606212 50.000000000000000
-4.526774697446728 -4.972207387038107 -2.972771188443498 31.000000000000000
-6.635334727596265 -9.243652189047506 -0.971404787239716 21.000000000000000
-6.724184477864641 -9.255547250911205 -1.170550380715927 30.000000000000000
