# This PCD file was generated using the MATLAB® pcwrite function
# from Computer Vision Toolbox®.
# .PCD v.7 - Point Cloud Data file format
VERSION .7
FIELDS x y z intensity
SIZE 8 8 8 8
TYPE F F F F
COUNT 1 1 1 1
WIDTH 632
HEIGHT 1
VIEWPOINT 0 0 0 1 0 0 0
POINTS 632
DATA ascii
-5.465771866978508 -3.842556782029874 -2.747047738031230 16.000000000000000
-6.056608876084474 -5.629922142104745 -0.558936128706587 7.000000000000000
-6.133600960035341 -5.625462785214332 -0.699293725999434 7.000000000000000
-6.214373195574337 -5.624676035911937 -0.841642012476295 9.000000000000000
-6.296804358749557 -5.623752535613845 -0.986743272492622 13.000000000000000
-6.377963273816813 -5.620028723785602 -1.133418555375161 10.000000000000000
-6.457104011236478 -5.614105791646119 -1.282469472650049 9.000000000000000
-6.073627791334443 -5.209664991697139 -1.332283801078116 5.000000000000000
-5.604636785714729 -4.742572602598015 -1.344376290069105 21.000000000000000
-5.396372858338488 -4.504065887316469 -1.404554896221506 12.000000000000000
-5.396680058131051 -4.442509686116002 -1.513623479910420 0.000000000000000
-6.263489908793550 -5.084140164460544 -1.882782236627618 10.000000000000000
-5.689416107766278 -4.553422843044531 -1.824014464068162 1.000000000000000
-5.773620459802714 -4.554477970374532 -1.965853810312603 2.000000000000000
-5.767607987046606 -4.484591710343978 -2.079026526831794 5.000000000000000
-5.529485281712692 -4.235986569010388 -2.102709277690642 18.000000000000000
-5.447015869041454 -4.111317694938580 -2.179445097655705 39.000000000000000
-5.532785079360890 -4.114235289856865 -2.324119886171516 7.000000000000000
-5.915382004919548 -4.266010704829877 -2.720305939072089 13.000000000000000
-5.588974418525779 -3.967670090904754 -2.681521769220657 5.000000000000000
-5.592677453857317 -3.906153702237929 -2.794692496789038 2.000000000000000
-6.076036485358334 -5.615780873537488 -0.549590583075127 14.000000000000000
-6.153230453754650 -5.611107131747235 -0.689904152068722 29.000000000000000
-6.234216425212497 -5.610095316620302 -0.832201959890555 12.000000000000000
-6.316864020020451 -5.608941669420891 -0.977250378155507 6.000000000000000
-6.425078711144346 -5.628508112668104 -1.128590262774325 4.000000000000000
-6.513499911741870 -5.629893231989097 -1.279936364098621 13.000000000000000
-6.507468223519060 -5.548822998507367 -1.413380575473359 23.000000000000000
-5.643870262875820 -4.747387627832548 -1.341288621784467 21.000000000000000
-5.410933493732514 -4.489207586641715 -1.396079500043647 12.000000000000000
-5.514122300746664 -4.511864240887480 -1.533779750879882 0.000000000000000
-6.419845018107877 -5.179481813235345 -1.914570993679719 9.000000000000000
-5.686485635585903 -4.523318591783728 -1.809313138596762 0.000000000000000
-5.810415485458194 -4.555355232501735 -1.964029172916403 1.000000000000000
-5.825709082326577 -4.501755554894223 -2.085285259161591 5.000000000000000
-5.526004268834718 -4.206952682518726 -2.087182298667023 17.000000000000000
-5.470732738087359 -4.103312031936062 -2.174601038578789 24.000000000000000
-5.590264729651605 -4.130701956967121 -2.333337865616821 3.000000000000000
-7.073407943409890 -5.149097596473267 -3.093880089482951 31.000000000000000
-5.946391247658174 -4.260845051068749 -2.718096131588652 25.000000000000000
-5.600811511966411 -3.950343326040904 -2.671410491449900 6.000000000000000
-6.118930833597975 -5.623182493547819 -0.542298900885201 3.000000000000000
-6.199395807426652 -5.620787483264207 -0.683414728288237 3.000000000000000
-6.289614936697757 -5.627302058900119 -0.827414941832069 8.000000000000000
-6.378586252436540 -5.630885337021739 -0.974096371793446 9.000000000000000
-6.454345696569987 -5.621143688864271 -1.120530793110946 13.000000000000000
-6.537025434314364 -5.617046121222343 -1.270840408229187 11.000000000000000
-6.497855368266396 -5.507886813085827 -1.397312587550410 6.000000000000000
-5.695256281441239 -4.762126009510973 -1.340950319080907 21.000000000000000
-5.392136970883232 -4.446842173686138 -1.379068370154479 6.000000000000000
-6.627383339554749 -5.390115277176570 -1.828152993964096 5.000000000000000
-6.437015149140143 -5.161847345905337 -1.904518823039118 7.000000000000000
-5.716904851324936 -4.519757824501245 -1.805229106999211 0.000000000000000
-5.889970029636695 -4.589344366997876 -1.976448160485466 1.000000000000000
-5.871766613166433 -4.509261734969694 -2.087050417704876 5.000000000000000
-5.534595744405252 -4.187224424409868 -2.076279741662166 19.000000000000000
-5.583113915408816 -4.161302942403193 -2.204725114184298 47.000000000000000
-5.635685060492445 -4.137912282581930 -2.337331778032347 3.000000000000000
-7.092172242541022 -5.129836321003214 -3.082899966240686 22.000000000000000
-5.965199353882594 -4.246848397794416 -2.710265550566895 41.000000000000000
-5.646167621069722 -3.956528145983932 -2.677217253945003 6.000000000000000
-6.147172020810736 -5.616926009109690 -0.533623795148531 35.000000000000000
-6.230850880570878 -5.616907469174341 -0.675206477177626 21.000000000000000
-6.309460783807949 -5.612492250527353 -0.817857784312141 12.000000000000000
-6.398663392653585 -5.615827309792388 -0.964476238227218 4.000000000000000
-6.504604749452645 -5.631838638663158 -1.116013710246779 6.000000000000000
-6.590612138226884 -5.629822147565296 -1.267491313674267 15.000000000000000
-6.530300229940988 -5.502665716433613 -1.390306771910002 7.000000000000000
-5.737695962707474 -4.769070792966899 -1.338360493738675 21.000000000000000
-5.394358777762718 -4.422037688441352 -1.367530642720139 9.000000000000000
-5.516216574510989 -4.459353677770891 -1.508980940781384 0.000000000000000
-6.359611541753709 -5.068835423815800 -1.866704176955496 2.000000000000000
-5.768725526139618 -4.532866885620755 -1.807777530922427 0.000000000000000
-6.006506275254092 -4.651357344415009 -2.000873114390255 2.000000000000000
-5.908743675158228 -4.509546263822022 -2.085459344059830 5.000000000000000
-5.552292885679615 -4.174398361351234 -2.068803043399650 25.000000000000000
-5.616251280459057 -4.159682774332063 -2.203257763328456 45.000000000000000
-5.607628795456483 -4.091228173548751 -2.310888860228509 2.000000000000000
-7.092476800340203 -5.097303973416916 -3.063951866336041 17.000000000000000
-5.971709191998739 -4.224120305029150 -2.696870959990153 6.000000000000000
-5.817157492283107 -4.049896743481799 -2.742082252068677 11.000000000000000
-6.175414707771074 -5.610556371504052 -0.524890835526767 4.000000000000000
-6.271230756680068 -5.620881248823928 -0.667879317758460 3.000000000000000
-6.362068997054411 -5.626634043970996 -0.812460098679118 5.000000000000000
-6.451639686029217 -5.629451699520127 -0.959726484172851 12.000000000000000
-6.527912877049832 -5.619007126171526 -1.106782899073065 14.000000000000000
-6.608116551882524 -5.611599492370313 -1.257118440706942 11.000000000000000
-6.702007160364731 -5.613951483739583 -1.412580886405447 5.000000000000000
-5.786295019842548 -4.780837996702083 -1.337069180197837 22.000000000000000
-5.426899576373323 -4.422059823211736 -1.363661214486806 31.000000000000000
-5.427079085585755 -4.360834672338865 -1.472205678336030 7.000000000000000
-5.761995491840015 -4.564629252487800 -1.677846160810936 0.000000000000000
-6.423878292133319 -5.016803563230309 -1.997782194288954 5.000000000000000
-6.013126985610419 -4.627814644092674 -1.988459573349465 6.000000000000000
-5.939636301368954 -4.505012197237508 -2.081630541234785 5.000000000000000
-5.585312636322757 -4.172990131427785 -2.066983337508954 26.000000000000000
-5.627914343336607 -4.142084163478378 -2.193329643881126 35.000000000000000
-5.582365997036747 -4.046963743270122 -2.285819401393083 2.000000000000000
-5.516137092110777 -3.939058900869002 -2.368215901585901 0.000000000000000
-5.783240584161365 -4.000119129365260 -2.710068504040998 2.000000000000000
-6.224396490381193 -5.622807246170894 -0.517825262939520 19.000000000000000
-6.302742445838060 -5.616715476854941 -0.659521730869759 21.000000000000000
-6.378916530867097 -5.608973116490837 -0.802414151615957 7.000000000000000
-6.480717175902761 -5.621986100182965 -0.951315497250247 4.000000000000000
-6.581335886054696 -5.631891189575389 -1.102562281103317 7.000000000000000
-6.664884951136685 -5.626528641254247 -1.254124410597840 8.000000000000000
-6.753059567198627 -5.623242448962388 -1.409017686920417 14.000000000000000
-5.838056625586898 -4.794876972050118 -1.336350874338178 24.000000000000000
-5.450327701712670 -4.414524858515773 -1.357436634797284 8.000000000000000
-5.413808071424606 -4.323916546686139 -1.456306239453641 3.000000000000000
-5.786307724216226 -4.556034756212658 -1.671494606888663 0.000000000000000
-6.434572748030733 -4.994406862346013 -1.985857407683460 5.000000000000000
-6.041160781952856 -4.620737299322047 -1.983119567058115 6.000000000000000
-5.945929938530778 -4.481791024195545 -2.069166591051487 11.000000000000000
-5.618373812118439 -4.171438933940244 -2.065088116209379 24.000000000000000
-5.651832794139603 -4.133474964523248 -2.188165163955329 14.000000000000000
-5.550675816830378 -3.998434606556900 -2.258347775153899 5.000000000000000
-5.542817474963217 -3.932775297707748 -2.364924712751364 7.000000000000000
-6.246754519768619 -5.610817251912708 -0.508460161063855 5.000000000000000
-6.340239724406305 -5.617708626521091 -0.651710077082404 3.000000000000000
-6.440677105108993 -5.630583203330591 -0.797919305504164 7.000000000000000
-6.524848262927397 -5.627388842478708 -0.945025905104976 17.000000000000000
-6.604656308356601 -5.618809664658773 -1.093203092212297 18.000000000000000
-6.685394030480558 -5.610641880801918 -1.244210730787376 7.000000000000000
-6.804220039304352 -5.632297916507284 -1.405327661592413 5.000000000000000
-5.893003522837553 -4.811161922723722 -1.336191016717883 24.000000000000000
-5.559420466639319 -4.475871440942250 -1.372312981527684 5.000000000000000
-5.397272813976973 -4.284674236937839 -1.439657200456492 1.000000000000000
-5.761446391749755 -4.508870327709348 -1.651006917882516 1.000000000000000
-6.439015734032642 -4.967246406402366 -1.972045515438940 5.000000000000000
-6.035292887249671 -4.587773030771485 -1.966672922282540 2.000000000000000
-5.967544893743128 -4.470132235684174 -2.062043097672193 7.000000000000000
-5.651475723747309 -4.169744501859592 -2.063117285349170 23.000000000000000
-5.651026211636877 -4.106809761028382 -2.173447110494060 2.000000000000000
-5.534141243034435 -3.961174243239146 -2.237247263233112 10.000000000000000
-5.569507346920068 -3.926383035325738 -2.361577475440858 4.000000000000000
-6.298863008578144 -5.625344086174299 -0.501426675905623 15.000000000000000
-6.374790276982290 -5.615901016564281 -0.643509670979656 10.000000000000000
-6.466533418212381 -5.620539134242509 -0.788860818897059 8.000000000000000
-6.556980546632911 -5.622238020766528 -0.936904343529716 4.000000000000000
-6.652187358298188 -5.626150039102392 -1.087767938305742 4.000000000000000
-6.748429225270708 -5.630209641808142 -1.242102403508984 11.000000000000000
-6.834130745869291 -5.623543736944546 -1.397144511865481 13.000000000000000
-5.948098548277245 -4.827183799135398 -1.335887805673391 25.000000000000000
-5.632140211898419 -4.507195326808040 -1.377868977630522 15.000000000000000
-5.405121403481360 -4.264968141346183 -1.429592028142909 3.000000000000000
-5.825661907455468 -4.531374142432612 -1.656021654844959 0.000000000000000
-6.446417147607455 -4.942471060993952 -1.959189059348246 5.000000000000000
-6.057066778634524 -4.575893428039662 -1.959270623059873 3.000000000000000
-6.001507176414795 -4.467606555078969 -2.059126824762658 5.000000000000000
-5.700098665508758 -4.179257078656592 -2.066683689867423 20.000000000000000
-5.532374282919021 -3.995182746154411 -2.113784667019408 7.000000000000000
-5.535980604950999 -3.937260651722268 -2.223690918721822 11.000000000000000
-5.608594042052079 -3.928559090589871 -2.363394242017525 4.000000000000000
-6.430375097602973 -5.632343324032620 -0.637313725219154 3.000000000000000
-6.522513049661004 -5.636442693791050 -0.783373012434952 12.000000000000000
-6.598205957958117 -5.624694611786199 -0.929993903479644 22.000000000000000
-6.681578685571899 -5.617944087260121 -1.079271282361548 10.000000000000000
-6.771995878285890 -5.616599465447804 -1.232614404106312 5.000000000000000
-6.882389768449755 -5.629683409585970 -1.392614728835873 22.000000000000000
-6.012543238986603 -4.850365895430600 -1.337488123222112 26.000000000000000
-5.674350119896131 -4.513691763555132 -1.375767923906253 18.000000000000000
-5.431379745566058 -4.259760847577847 -1.424379015886442 6.000000000000000
-5.871542036777949 -4.539236892674567 -1.655638409355009 0.000000000000000
-6.462988626868500 -4.924770813340698 -1.949139924437445 6.000000000000000
-6.097402321883738 -4.577891821086352 -1.957798610561743 4.000000000000000
-6.038607165281674 -4.467229074814432 -2.057190291767252 5.000000000000000
-5.941296019431485 -4.328762332367400 -2.139428493632054 20.000000000000000
-5.530996440633514 -3.968923822211979 -2.099308949911296 8.000000000000000
-5.559442986035186 -3.928737319370909 -2.218832296593520 6.000000000000000
-5.647752471644655 -3.930558703143384 -2.365116551076390 4.000000000000000
-6.453005189681892 -5.619701755907219 -0.627754885757103 12.000000000000000
-6.539345705351707 -5.618328522433394 -0.773096604513039 10.000000000000000
-6.627352580621782 -5.616680719012253 -0.921298796700531 4.000000000000000
-6.738382678953895 -5.632538142293848 -1.075089274236842 6.000000000000000
-6.826095710260649 -5.628109273003091 -1.228587548975559 11.000000000000000
-6.906204242448988 -5.615653897839168 -1.383053961804578 7.000000000000000
-6.055652143083772 -4.855969181935602 -1.334172562323408 18.000000000000000
-5.716645924724770 -4.519993590170316 -1.373562272395011 20.000000000000000
-5.463828344251112 -4.259263554603606 -1.420717352953642 8.000000000000000
-5.920618902183087 -4.549265755822569 -1.656006309774343 0.000000000000000
-6.460885909018247 -4.892928746022363 -1.933500855184063 7.000000000000000
-6.134698195849700 -4.577391607236716 -1.955240169349357 5.000000000000000
-6.063320888472894 -4.457544453442002 -2.050960079815484 10.000000000000000
-6.174254121828142 -4.470225942250472 -2.208112783423684 24.000000000000000
-5.526371683012801 -3.940488846438539 -2.083689917499175 12.000000000000000
-5.570443286937786 -3.911376820059937 -2.208988220545229 15.000000000000000
-5.686981763979094 -3.932381474340695 -2.366744252434416 3.000000000000000
-6.508778940044321 -5.635705611339646 -0.621323564618587 5.000000000000000
-6.592468536096030 -5.631220177750685 -0.767029276023681 15.000000000000000
-6.674748997818018 -5.623930218171500 -0.915046838836593 11.000000000000000
-6.758673571603852 -5.616408014950488 -1.064986648791225 9.000000000000000
-6.877250697212845 -5.636853730931132 -1.223878614803459 21.000000000000000
-6.960726679556642 -5.626390887456308 -1.379545459220882 13.000000000000000
-6.061842280080107 -4.831882371831064 -1.322677933671462 8.000000000000000
-5.749752862863745 -4.518811938140031 -1.369043711396134 23.000000000000000
-5.505612127525774 -4.265825661663475 -1.419376808861719 8.000000000000000
-5.910826526277687 -4.514018499019026 -1.639884985834696 0.000000000000000
-6.467953481166990 -4.868162538807643 -1.920669482552823 9.000000000000000
-6.131561314651611 -4.546708214081423 -1.939787684431551 4.000000000000000
-6.091139426951465 -4.450041609171055 -2.045728759655995 16.000000000000000
-6.196102434636797 -4.457819274312513 -2.200749403511403 26.000000000000000
-5.555932470108019 -3.936441648700647 -2.080971295807398 7.000000000000000
-5.575129987898420 -3.889636794182869 -2.196676404793064 32.000000000000000
-5.716919278014436 -3.927595356831157 -2.364405354770041 3.000000000000000
-6.534449867255339 -5.625411904580044 -0.611916527098118 18.000000000000000
-6.612300287691542 -5.615487266886128 -0.757001757484162 14.000000000000000
-6.710033870439742 -5.620742272966337 -0.907029083569376 4.000000000000000
-6.821778403213937 -5.635623443827704 -1.061523347281394 10.000000000000000
-6.891638623134706 -5.615319306355433 -1.212555225872159 23.000000000000000
-7.006120437909289 -5.629442962138318 -1.374086003691583 6.000000000000000
-6.061742964374269 -4.802903529485779 -1.309857213711516 3.000000000000000
-5.792194086540714 -4.524748728740380 -1.366642822980860 23.000000000000000
-5.777333508132608 -4.449205385057933 -1.476681745461649 48.000000000000000
-5.963095284402800 -4.526109724981715 -1.640951366299145 0.000000000000000
-6.471792565963492 -4.841068218006403 -1.906928286996655 7.000000000000000
-6.159488531387830 -4.539088380494520 -1.934177268442952 3.000000000000000
-6.137711413485922 -4.456039170021216 -2.046692336429997 16.000000000000000
-6.202282512309743 -4.434152872103891 -2.187830876532631 27.000000000000000
-5.591775363151463 -3.936674653988293 -2.080515550698547 7.000000000000000
-5.592232482189884 -3.876584548978565 -2.189276615633808 43.000000000000000
-5.762521035813072 -3.933359539149960 -2.368429447458768 2.000000000000000
-6.581321766977996 -5.633182877012467 -0.604409193870509 5.000000000000000
-6.668621763339451 -5.630541155015037 -0.751059304713918 6.000000000000000
-6.751459944644661 -5.622496464392263 -0.899747811197800 14.000000000000000
-6.851282359971416 -5.626803961340967 -1.052706608976182 10.000000000000000
-6.952146308245895 -5.631176097531343 -1.209256576304069 10.000000000000000
-7.039224252333156 -5.622418039145130 -1.366119071845550 16.000000000000000
-7.084152129916041 -5.579389222280808 -1.515895941845203 4.000000000000000
-5.844039023226328 -4.537726804782031 -1.366315973766871 23.000000000000000
-5.888372584400206 -4.507183298912834 -1.492133712937705 56.000000000000000
-6.605185776107648 -4.982803449342393 -1.802835169483540 5.000000000000000
-6.484880824640035 -4.820965283530234 -1.895946841346625 6.000000000000000
-6.196806662211624 -4.538231441724712 -1.931435365864174 2.000000000000000
-6.181246483812825 -4.459560803359459 -2.046502711332564 18.000000000000000
-6.214625659659846 -4.414947840970992 -2.177119076165331 27.000000000000000
-5.621398798620358 -3.932358754997618 -2.077655931299303 8.000000000000000
-5.603021283837659 -3.859153213962457 -2.179409315393838 48.000000000000000
-5.792541314641594 -3.928277431030109 -2.365934391108451 2.000000000000000
-6.603967939261801 -5.620046792206502 -0.594596931216149 25.000000000000000
-6.685391117070361 -5.612013310396949 -0.740575597575410 7.000000000000000
-6.799072587262940 -5.629141665874126 -0.893174147996634 3.000000000000000
-6.890011573266859 -5.625403948747769 -1.045230564833298 36.000000000000000
-6.972657634009845 -5.614419904716752 -1.198898933357010 9.000000000000000
-7.097118195723637 -5.634933356132906 -1.362840925372146 9.000000000000000
-6.800519724622091 -5.323913945646085 -1.440974591858244 7.000000000000000
-5.892897986344122 -4.548053270933129 -1.365133241590675 22.000000000000000
-5.921794415920638 -4.505214585589479 -1.487661397416414 56.000000000000000
-6.609134742217170 -4.955252518581807 -1.789165849301466 6.000000000000000
-6.485357319252194 -4.791573511236527 -1.881319677258080 5.000000000000000
-6.246722681652324 -4.546343440527250 -1.932488825143693 2.000000000000000
-6.209157436545996 -4.451624929592729 -2.041044687020373 15.000000000000000
-6.223748728122348 -4.393496234869695 -2.165304275011084 25.000000000000000
-5.660478928880829 -3.934474188637816 -2.078194205226966 8.000000000000000
-5.623174350742702 -3.848155340381872 -2.173180778821647 47.000000000000000
-5.835158229513157 -3.931541418412189 -2.368477678141456 3.000000000000000
-6.647905424516067 -5.624873882346803 -0.586627031752417 3.000000000000000
-6.747998420869711 -5.631748124626600 -0.735071678616898 10.000000000000000
-6.837551512574981 -5.627979341890770 -0.885289692775382 10.000000000000000
-6.934949595384294 -5.628842629832191 -1.038589792970758 4.000000000000000
-7.033358648196984 -5.629808985397292 -1.195349703548137 14.000000000000000
-7.117875942873151 -5.617762599297913 -1.352334810539599 9.000000000000000
-6.739555986294647 -5.244546720165490 -1.414019380207144 10.000000000000000
-5.938746531163281 -4.555753246623771 -1.363108944462273 17.000000000000000
-5.958380034918316 -4.505466463819080 -1.483891944478567 55.000000000000000
-6.622363005237080 -4.934732338823531 -1.778040767540653 6.000000000000000
-6.451143608840541 -4.736853335941645 -1.856777480446789 5.000000000000000
-6.287312171398640 -4.547396883647373 -1.930518904848301 2.000000000000000
-6.255959956414249 -4.457034324336820 -2.041693918153474 9.000000000000000
-6.235930529395318 -4.374244770951536 -2.154578640096151 8.000000000000000
-5.699627451231644 -3.936411711039848 -2.078637476414539 6.000000000000000
-5.636997803140826 -3.832795724416510 -2.164494560464410 46.000000000000000
-5.862098858814362 -3.924061001905601 -2.364559625556304 14.000000000000000
-6.676641579306938 -5.616653671332114 -0.577230246765733 12.000000000000000
-6.767815862842376 -5.615541367005966 -0.724803147139862 5.000000000000000
-6.882230441150650 -5.631690274060558 -0.878102962044331 39.000000000000000
-6.964493378302159 -5.619600742487106 -1.029554990577821 13.000000000000000
-7.072481223322043 -5.627622448252718 -1.187994497326992 5.000000000000000
-7.185276372982686 -5.637160206016409 -1.350574787104291 8.000000000000000
-6.743703952387047 -5.216274394147469 -1.400906295053593 10.000000000000000
-5.984690463896852 -4.563238621153344 -1.360969264074915 18.000000000000000
-5.995014752574138 -4.505555131445079 -1.480036173182045 54.000000000000000
-6.641796893856177 -4.918837813686929 -1.768579255619044 6.000000000000000
-6.435509633612081 -4.696148106857115 -1.837766229461309 5.000000000000000
-6.346881013887475 -4.561864721611023 -1.934217065707847 3.000000000000000
-6.296543132136127 -4.457757785248066 -2.040181392231985 7.000000000000000
-8.525504418784937 -5.942393161954169 -2.925295525932173 19.000000000000000
-5.805206762919746 -3.983711459433938 -2.103026734905090 6.000000000000000
-5.657086651745899 -3.821666095793719 -2.158202693654883 42.000000000000000
-5.866928128739771 -3.901762505952068 -2.351720153281145 8.000000000000000
-6.729865889939517 -5.628804622110390 -0.569848777779944 4.000000000000000
-6.830637543610777 -5.634787738735244 -0.719036777372263 9.000000000000000
-6.905359710043495 -5.617611740345699 -0.868090784214544 13.000000000000000
-7.021930452397395 -5.632621802672629 -1.024531282953847 8.000000000000000
-7.111640395742226 -5.625265218047853 -1.180549917736810 12.000000000000000
-7.221641966995613 -5.631893024338027 -1.342834413820410 9.000000000000000
-6.750853319156065 -5.190429186094747 -1.388455374643110 16.000000000000000
-6.005626821004437 -4.551484915967919 -1.353058589473725 20.000000000000000
-6.031697772004575 -4.505480281072784 -1.476093975348231 54.000000000000000
-6.648576529173249 -4.893601832399978 -1.755759448688276 6.000000000000000
-6.416501858540289 -4.653281177351596 -1.817938993435797 6.000000000000000
-6.381317807752954 -4.557985134250172 -1.930111538851959 5.000000000000000
-6.343515155617760 -4.462749979595585 -2.040607284625683 8.000000000000000
-8.289755307681590 -5.741405955564574 -2.824712125539970 1.000000000000000
-6.155098192323115 -4.196785707396582 -2.214890509495335 9.000000000000000
-5.667646511875996 -3.804082926460229 -2.148271888061106 37.000000000000000
-5.868486758608416 -3.877381812167672 -2.337630733608073 7.000000000000000
-6.758648887172697 -5.620284476115833 -0.560296017700142 10.000000000000000
-6.878202416485093 -5.641086799517628 -0.711510532716540 19.000000000000000
-6.956312766135913 -5.625983780059878 -0.861488947228981 11.000000000000000
-7.045309521220101 -5.618109392640657 -1.014438072298252 11.000000000000000
-7.166428094559507 -5.634997679818382 -1.175573695669333 6.000000000000000
-7.245513457774948 -5.616770346967935 -1.332712122937207 4.000000000000000
-6.770439275824079 -5.174178629438192 -1.378568650101917 6.000000000000000
-6.070569444915572 -4.572824859290900 -1.354938899252877 34.000000000000000
-6.068428294786533 -4.505241608114191 -1.472065244325422 53.000000000000000
-6.661561655920520 -4.872991999773797 -1.744603471998728 6.000000000000000
-6.457374676046615 -4.653883373161555 -1.815097199094939 6.000000000000000
-6.415783668816367 -4.553956579072633 -1.925928189437572 4.000000000000000
-6.377892039820866 -4.458655679916537 -2.036864908710850 17.000000000000000
-8.262173020399654 -5.685932681027162 -2.795784420839229 1.000000000000000
-6.157250631241238 -4.171340397075584 -2.200845282114277 21.000000000000000
-5.690838155070168 -3.794948167463078 -2.143117705369027 34.000000000000000
-5.882625244024568 -3.861364434705780 -2.328589474500434 9.000000000000000
-6.818192242417919 -5.637086271391585 -0.553180724827472 6.000000000000000
-6.898034303046608 -5.624486581106471 -0.701040264853274 64.000000000000000
-6.985638895092460 -5.616651495974963 -0.852109852151467 5.000000000000000
-7.109147714053281 -5.635617521823679 -1.010058378255896 11.000000000000000
-7.208821937723227 -5.634698563531703 -1.168432440637495 10.000000000000000
-7.281887468141636 -5.611228212038292 -1.324830877413157 0.000000000000000
-6.101012978864372 -4.567877453998329 -1.348975980876696 39.000000000000000
-6.108365565235074 -4.507170507901067 -1.468709683415080 52.000000000000000
-6.661800584538320 -4.843145276576093 -1.730148202271577 6.000000000000000
-6.469762837949641 -4.633857804898764 -1.804198066916328 6.000000000000000
-6.434398320601238 -4.538577995061178 -1.916936106027118 2.000000000000000
-5.967220038786865 -4.145231679205785 -1.891931112490432 11.000000000000000
-5.962535293916968 -4.077226059647350 -2.003600890229151 4.000000000000000
-5.952380550728545 -4.006652874428712 -2.113361900655133 10.000000000000000
-5.704469737982122 -3.779394624704730 -2.134344226969771 32.000000000000000
-5.925346247028623 -3.863982697084648 -2.330796767085080 15.000000000000000
-6.843949622929205 -5.625712810169401 -0.543217209137434 8.000000000000000
-6.945694163522610 -5.630422709310339 -0.693322941557809 5.000000000000000
-7.039842170876488 -5.627093767628807 -0.845660652662781 13.000000000000000
-7.135667032943939 -5.623285406825840 -1.000258580736294 5.000000000000000
-7.241863874340215 -5.626906013881042 -1.159686309514561 10.000000000000000
-6.103026933230736 -4.541632862467427 -1.336715824255909 31.000000000000000
-6.145196276034467 -4.506594577051207 -1.464502662034027 51.000000000000000
-6.655549875423271 -4.808752829306121 -1.714087536385948 6.000000000000000
-6.494788029368910 -4.622855694115324 -1.796807637158703 6.000000000000000
-6.472065711363148 -4.536525883819240 -1.913562733028492 7.000000000000000
-5.955976832277579 -4.111264401089791 -1.874678905227386 14.000000000000000
-5.967187246626066 -4.054387816116511 -1.991198583825630 14.000000000000000
-5.867648982341704 -3.924212309626629 -2.069296781275999 9.000000000000000
-5.727617905016033 -3.770102580523210 -2.129112412831219 28.000000000000000
-5.961765980763913 -3.862270781826815 -2.330404857198205 15.000000000000000
-6.885141472476568 -5.626873287316231 -0.534404259405008 113.000000000000000
-6.974801192403080 -5.621121855280155 -0.683661769111266 12.000000000000000
-7.091036422041549 -5.634801873126890 -0.838705140013993 4.000000000000000
-7.190333075045452 -5.632922262174518 -0.994304308653094 8.000000000000000
-7.265485458567389 -5.611697827018907 -1.149379201820319 1.000000000000000
-6.722698503016566 -4.972346567851880 -1.458505552512719 51.000000000000000
-6.188422410926075 -4.510482414173826 -1.461708745057148 50.000000000000000
-6.671397104655106 -4.790427376874874 -1.703763545474310 6.000000000000000
-6.516607894222681 -4.609502192211983 -1.788494085242533 5.000000000000000
-6.181095469213344 -4.305368715252362 -1.813660118709263 13.000000000000000
-5.989273595438518 -4.108069285796048 -1.871461605826341 17.000000000000000
-5.917388383945814 -3.994870996144758 -1.960799948415067 10.000000000000000
-5.862346183623684 -3.895400866753981 -2.053527041615271 9.000000000000000
-5.773144091957768 -3.775360126883118 -2.132103000756345 19.000000000000000
-6.001430300451535 -3.862453857347383 -2.331168923240983 15.000000000000000
-6.907788562798103 -5.612739998926067 -0.524082890515556 7.000000000000000
-7.035026391349843 -5.636644442515287 -0.676936556608295 8.000000000000000
-7.120443600850319 -5.624985615929669 -0.829074030285655 11.000000000000000
-7.241968950673080 -5.639857526599902 -0.987783780562057 14.000000000000000
-6.738637870254052 -4.953789690122177 -1.448057788769900 30.000000000000000
-6.228540190184009 -4.511864699681317 -1.458063109413364 49.000000000000000
-6.680800478128265 -4.767504657131885 -1.691805046589869 7.000000000000000
-6.538393543643954 -4.596068842688712 -1.780141865611026 5.000000000000000
-6.061339664023626 -4.195402538619372 -1.764981307629089 8.000000000000000
-6.032207280023157 -4.111274631210346 -1.871147305158483 16.000000000000000
-5.854412079616920 -3.927065808059444 -1.926363761392410 9.000000000000000
-5.863306792281492 -3.870887011560862 -2.040030196667476 9.000000000000000
-5.815558207743918 -3.778320634016217 -2.133802221132419 12.000000000000000
-6.037951209163183 -3.860407332026734 -2.330600014287964 15.000000000000000
-6.964566529650672 -5.626128148470639 -0.516254889619396 16.000000000000000
-7.051705258528988 -5.617080292867589 -0.665929373367141 7.000000000000000
-7.178037394963333 -5.637196126456969 -0.822614726568009 6.000000000000000
-7.252808816215913 -5.614897835132434 -0.975634448164801 3.000000000000000
-6.770425845161355 -4.946815205342504 -1.440977862204447 2.000000000000000
-6.265526153660444 -4.510767340035236 -1.453580414654927 50.000000000000000
-6.683714875662290 -4.740037547165290 -1.678241791969767 9.000000000000000
-6.576152798065105 -4.593738111194787 -1.776074475425228 5.000000000000000
-6.197380404426108 -4.262543834565883 -1.790815507314940 10.000000000000000
-6.072007433436017 -4.112107450565078 -1.869738495968066 18.000000000000000
-5.852043380399007 -3.900314713171628 -1.912087187380610 8.000000000000000
-5.860936470162593 -3.844295778587195 -2.025445545911988 8.000000000000000
-5.845196494213295 -3.772787604988714 -2.130710593130877 9.000000000000000
-6.077730054852479 -3.860237695227632 -2.331177023884398 15.000000000000000
-6.996555812038381 -5.619237638766346 -0.506477174316433 5.000000000000000
-7.105844552177580 -5.627188826556099 -0.658379154112889 10.000000000000000
-7.226330080219415 -5.641775794732776 -0.814945061757791 15.000000000000000
-6.738410614233343 -4.893368078869135 -1.420378554714204 2.000000000000000
-6.305752315068719 -4.511792229756574 -1.449745707534149 51.000000000000000
-6.670483908925924 -4.701304970730267 -1.660710689116927 8.000000000000000
-6.597906323470277 -4.580101163069927 -1.767620288058617 5.000000000000000
-6.517101613990948 -4.454165372003065 -1.868780723296708 5.000000000000000
-6.105433892105224 -4.108429135522736 -1.866266601405260 20.000000000000000
-5.852761620650525 -3.875743829369057 -1.898887880036077 9.000000000000000
-5.861654469907243 -3.819851622609663 -2.011999119448808 8.000000000000000
-5.861968567995945 -3.758866075706357 -2.122887263311800 9.000000000000000
-6.114348817413119 -3.857855288926777 -2.330430670219239 15.000000000000000
-7.147549301930465 -5.627168158104813 -0.649551766131513 3.000000000000000
-7.249514924199713 -5.626586727323549 -0.804362582242677 6.000000000000000
-6.741283055309959 -4.865528668120670 -1.407251771321231 13.000000000000000
-6.346035072208195 -4.512633518812361 -1.445813814844318 52.000000000000000
-6.602460580579411 -4.624448813615261 -1.629774049415247 7.000000000000000
-6.603541787552237 -4.555290171166579 -1.754853645329022 5.000000000000000
-6.619146422129931 -4.495316827138087 -1.883461511699588 4.000000000000000
-6.142113770006750 -4.106759649896973 -1.863696223710170 16.000000000000000
-5.859816202998687 -3.855450204378297 -1.887790716322498 16.000000000000000
-5.855799064254588 -3.791258568269719 -1.996374661128653 9.000000000000000
-5.862556522998039 -3.734605103750980 -2.109230128196136 9.000000000000000
-6.157465919058941 -3.859354316189723 -2.332042391925020 15.000000000000000
-7.192441663351740 -5.629419042768083 -0.640905734255945 8.000000000000000
-7.278967070840594 -5.616182478827551 -0.794428565780938 0.000000000000000
-6.737618763737066 -4.833115862173201 -1.392820324861755 9.000000000000000
-6.383161057720171 -4.511020593953011 -1.441059371482149 51.000000000000000
-6.624110309226339 -4.610738974672676 -1.621133158823072 7.000000000000000
-6.621963228364184 -4.539327905490983 -1.745497398629797 5.000000000000000
-6.666643742203131 -4.498909408999829 -1.882358983870142 4.000000000000000
-5.975245569622440 -3.969668857648940 -1.799718184416541 5.000000000000000
-5.889422613114683 -3.849952147534743 -1.883938891213307 10.000000000000000
-5.865974692703151 -3.773138185496825 -1.986271164194833 20.000000000000000
-5.859791999946747 -3.708327936605658 -2.094439694035167 10.000000000000000
-6.203890266963031 -3.862667674819513 -2.334765082269690 16.000000000000000
-7.125638840575419 -4.210386263548253 -3.082554561626963 18.000000000000000
-7.240542484547480 -5.633914942986708 -0.632426236532046 26.000000000000000
-6.740224609175173 -4.805344984232565 -1.379744831619343 11.000000000000000
-6.423546925621118 -4.511502508503391 -1.436937719635436 48.000000000000000
-6.713471708715053 -4.643811607509005 -1.628891454409166 3.000000000000000
-6.643565312873454 -4.525504899251763 -1.736957495286781 5.000000000000000
-6.704515694700163 -4.495771008793880 -1.878418573164046 3.000000000000000
-5.920855457415077 -3.908362841224208 -1.770173594237566 12.000000000000000
-5.935252535605983 -3.854853021843401 -1.885168830255675 10.000000000000000
-5.905263689184778 -3.773647244557887 -1.985976645088364 18.000000000000000
-5.866625268209234 -3.688216811445939 -2.083137228839344 20.000000000000000
-6.234191451633437 -3.855738048131898 -2.331309728150377 17.000000000000000
-7.083543221963623 -4.156815211302569 -3.046621525830994 15.000000000000000
-7.266619185461208 -5.621094551472332 -0.621937020039148 1.000000000000000
-6.749144940655478 -4.782163356380358 -1.367995688194051 13.000000000000000
-6.486576766852440 -4.527567462627668 -1.437725536771666 40.000000000000000
-6.664068006555526 -4.580857805632388 -1.602958317792402 0.000000000000000
-6.671608457211483 -4.515986811284774 -1.730058875867000 5.000000000000000
-8.681803869072946 -5.784668476673003 -2.413536035350555 6.000000000000000
-5.999197145284533 -3.934686366464870 -1.780320423284918 11.000000000000000
-5.971424413822815 -3.853247812384798 -1.883208901410731 10.000000000000000
-5.944612129738261 -3.773975397489183 -1.985586141701006 19.000000000000000
-5.899374299002536 -3.684342037122517 -2.081010964353679 14.000000000000000
-6.241760202884210 -3.834705475770037 -2.319336000623921 0.000000000000000
-7.077750656996884 -4.199852746095419 -2.893934786496568 10.000000000000000
-7.109193085378353 -4.143189360618112 -3.039957170236039 12.000000000000000
-6.767651027834624 -4.765790714711520 -1.358190866196063 0.000000000000000
-6.698546480893573 -4.646529147967056 -1.471019347391753 31.000000000000000
-6.666157096447940 -4.553635770064331 -1.589570646139187 0.000000000000000
-6.693152354645794 -4.501986956061280 -1.721432253954111 5.000000000000000
-6.777118759733426 -4.486835747701065 -1.869375909126113 4.000000000000000
-6.041982719827091 -3.937291612662864 -1.779708844211739 30.000000000000000
-6.010896125734238 -3.853566344325698 -1.882182296036545 11.000000000000000
-5.987276611422722 -3.776176795563579 -1.986180149673647 19.000000000000000
-5.941925959920939 -3.686385173020864 -2.082233474649173 10.000000000000000
-8.382251131009356 -5.115362351780089 -3.094923260225240 45.000000000000000
-7.070137884953363 -4.240127304886536 -2.741498627776942 0.000000000000000
-7.077315470316545 -4.170965266774381 -2.876503168254781 19.000000000000000
-6.690901527614570 -4.612400312249588 -1.455725285665163 26.000000000000000
-6.733081725300674 -4.570537348950732 -1.591559870777257 5.000000000000000
-6.750444766815782 -4.511825741811321 -1.721895445634887 5.000000000000000
-6.779256758372475 -4.459626028196161 -1.855367751335685 8.000000000000000
-6.022882856744923 -3.899581951719045 -1.760876683858129 24.000000000000000
-6.043898345779981 -3.849545766063655 -1.879030117070876 13.000000000000000
-6.023483747820443 -3.774087580634835 -1.984516685100151 18.000000000000000
-5.981285299715960 -3.686217232782019 -2.082213407924998 15.000000000000000
-8.391124950183233 -5.086509127746289 -3.078490370906833 52.000000000000000
-7.072810555375380 -4.213046064762750 -2.725651794334286 0.000000000000000
-7.109335265372741 -4.161199852312800 -2.872271552907113 9.000000000000000
-6.679839861099530 -4.576127275565891 -1.439782826640089 20.000000000000000
-6.735067341396478 -4.543192147405992 -1.578115654381231 3.000000000000000
-6.771994040561794 -4.497568459283728 -1.713137084022092 8.000000000000000
-6.787799642264038 -4.436712037138310 -1.843154447134648 0.000000000000000
-6.019919157984937 -3.872523946011014 -1.746870235277142 21.000000000000000
-6.086740152486825 -3.851587629891668 -1.878830233248907 10.000000000000000
-6.063005123411123 -3.773870916676286 -1.983837487738189 18.000000000000000
-6.023973882960629 -3.687870999597382 -2.083228779499949 7.000000000000000
-7.055500815318634 -4.248194046911159 -2.571991365620550 0.000000000000000
-7.078625693630848 -4.187924805331098 -2.711078035461481 1.000000000000000
-6.675108857303092 -4.544387890773599 -1.425293107169215 15.000000000000000
-6.740190979573846 -4.518061999406981 -1.565451158096587 3.000000000000000
-6.773899226912835 -4.470292965437849 -1.699421685982190 31.000000000000000
-8.707179712326331 -5.654836606317488 -2.345757961321768 8.000000000000000
-6.039751318976482 -3.860170434439260 -1.739501141707841 22.000000000000000
-6.129652024346953 -3.853428963520967 -1.878523697885396 10.000000000000000
-6.102582339225529 -3.773471958255698 -1.983061817803617 17.000000000000000
-6.066733076815114 -3.689325022717084 -2.084137867663994 7.000000000000000
-7.071003760503731 -4.228898191380464 -2.561193062984737 0.000000000000000
-7.110542286572797 -4.178215288199604 -2.706493191625502 1.000000000000000
-6.666962198735002 -4.510505551651820 -1.410155562041526 11.000000000000000
-6.764822451822720 -4.506009693659738 -1.557314944370507 6.000000000000000
-6.788779353141624 -4.451635684972826 -1.688987454848165 57.000000000000000
-8.788588894476794 -5.671087586408848 -2.349014863971420 9.000000000000000
-6.072682837980843 -3.856079782987520 -1.735849030453933 18.000000000000000
-6.166062832571505 -3.850966045184853 -1.876111314291768 10.000000000000000
-6.138928125946530 -3.770871698375171 -1.981128996016108 17.000000000000000
-6.109561881308143 -3.690578899455150 -2.084940528015829 8.000000000000000
-7.070010711552068 -4.199799373110905 -2.544464140866651 1.000000000000000
-6.704435758484007 -4.507489476234827 -1.404663583208891 10.000000000000000
-6.789429951183667 -4.493860187943120 -1.549130578482647 0.000000000000000
-6.797028390355560 -4.428658308317042 -1.676915814486513 26.000000000000000
-8.834032327331096 -5.663762553955492 -2.342471039752830 9.000000000000000
-6.112219784731212 -3.855993081804560 -1.733986925041742 5.000000000000000
-6.202513130941469 -3.848337868932190 -1.873612154913895 13.000000000000000
-6.175313667707112 -3.768106491397545 -1.979109540909097 18.000000000000000
-6.142578471228005 -3.685703485141974 -2.082287094619403 18.000000000000000
-7.114971105880032 -4.197941846494088 -2.544249676416615 0.000000000000000
-6.751775286108973 -4.510873799258412 -1.401123853573287 11.000000000000000
-8.682530351080874 -5.710547488641569 -1.963438331735663 5.000000000000000
-8.752338629582372 -5.666263200535825 -2.141206635374932 5.000000000000000
-8.889383398853358 -5.662531155249573 -2.338422481934829 9.000000000000000
-8.911223955988548 -5.585219706644133 -2.508934521809969 24.000000000000000
-6.222505538601640 -3.835376147665878 -1.866078944736141 1.000000000000000
-6.208437548372065 -3.763175442068631 -1.975952884098054 22.000000000000000
-6.182221490339020 -3.684615713870749 -2.081780124193504 16.000000000000000
-8.433609867994097 -4.942241075344917 -2.996440179220358 78.000000000000000
-6.772912643887787 -4.496589181541164 -1.392064671885576 2.000000000000000
-8.684788071217996 -5.675843303190480 -1.946379961789938 7.000000000000000
-8.820623520067151 -5.673952606499088 -2.139737959760581 10.000000000000000
-8.812776264979714 -5.577486858402697 -2.299785826496760 14.000000000000000
-8.950186471719164 -5.573066379223735 -2.500797723571683 16.000000000000000
-8.880964567804448 -5.437925402792152 -2.644044564501468 18.000000000000000
-6.271354504451729 -3.776021164029684 -1.982128363222955 1.000000000000000
-6.211993762313074 -3.677470203324178 -2.077857165602651 18.000000000000000
-8.438424185069223 -4.911465424421351 -2.978887150858924 79.000000000000000
-8.680825935945427 -5.816583923445706 -1.605551784069922 1.000000000000000
-8.690014254889496 -5.733079622015258 -1.768912179123303 4.000000000000000
-8.716571119191542 -5.660450546373217 -1.935942028093572 5.000000000000000
-8.882426694785835 -5.677092238762220 -2.136505493637152 9.000000000000000
-8.808442089293516 -5.538670831088277 -2.280258183718316 17.000000000000000
-9.045431149196052 -5.595567042652017 -2.508184362510134 18.000000000000000
-8.770661276307615 -5.334933471590346 -2.592244130089417 11.000000000000000
-7.080232437126752 -4.234618308728511 -2.222217904625795 11.000000000000000
-6.258349511520326 -3.679941164286598 -2.079374525919344 2.000000000000000
-8.446412972627677 -4.882625181128217 -2.962515018770285 76.000000000000000
-8.689449711445526 -5.786002414155662 -1.590358379625208 4.000000000000000
-8.688720021820437 -5.696100188923916 -1.751537330506423 4.000000000000000
-8.797899103528668 -5.676919537274026 -1.936352222981627 10.000000000000000
-8.931083884666499 -5.671531785435129 -2.129960528237399 7.000000000000000
-8.807237251531667 -5.501998262342196 -2.261630190021426 18.000000000000000
-9.124320442086274 -5.607398085082696 -2.510749526642876 19.000000000000000
-8.762657271524477 -5.294793581857782 -2.571018177165780 36.000000000000000
-7.118450438721148 -4.229008169131075 -2.218634097117715 6.000000000000000
-7.258141868380162 -4.238982905670284 -2.395412395372049 0.000000000000000
-8.454276811799378 -4.853787173543324 -2.946151670131325 61.000000000000000
-8.691348583802739 -5.751056545106007 -1.573978529022378 4.000000000000000
-8.693867157049773 -5.663483091177244 -1.735520997141981 5.000000000000000
-8.842974164964486 -5.669629991905352 -1.928601481036960 11.000000000000000
-8.986413296986523 -5.669938181298995 -2.124870131559024 8.000000000000000
-8.832435195498054 -5.481873852327491 -2.249809677393944 16.000000000000000
-9.146848152779443 -5.584336051953443 -2.497674063773798 4.000000000000000
-8.747800202717301 -5.250751109989324 -2.547912948725874 36.000000000000000
-8.431586830409451 -4.975550533374126 -2.609533370376077 72.000000000000000
-8.448422608965364 -4.900710815839044 -2.769529367932577 55.000000000000000
-8.462015819739644 -4.824951813331260 -2.929797307922064 70.000000000000000
-8.694508089408986 -5.806769327826942 -1.395443677333451 3.000000000000000
-8.689786422243035 -5.713974919050280 -1.557035182731887 4.000000000000000
-8.765124412939585 -5.673771215486426 -1.732619467744761 5.000000000000000
-8.898029921926172 -5.668483051115488 -1.922898699287866 12.000000000000000
-9.055103949463772 -5.676423965525309 -2.122762216550767 8.000000000000000
-9.157153554059303 -5.646382350104941 -2.313638075370142 13.000000000000000
-9.135980943284761 -5.540991963850225 -2.475537166047997 7.000000000000000
-8.732717739561133 -5.206837832310674 -2.524887456733977 37.000000000000000
-8.442497396010657 -4.948502965780126 -2.594596715487509 55.000000000000000
-8.452680682223802 -4.869866597605319 -2.752287159053092 54.000000000000000
-8.476299115339740 -4.799895983649132 -2.915746191533072 70.000000000000000
-8.692854964287910 -5.769531717997246 -1.378895327745627 3.000000000000000
-8.688055094176130 -5.676949804902649 -1.540131031171044 5.000000000000000
-8.816599442374722 -5.670902482425579 -1.725634754963268 11.000000000000000
-8.966453464340969 -5.675501181458439 -1.919910052859692 9.000000000000000
-9.043966470681497 -5.632787376872709 -2.101898390534691 9.000000000000000
-9.076116487258064 -5.559865694267853 -2.274523899946049 19.000000000000000
-9.138253997449770 -5.505803634490578 -2.457060075888181 2.000000000000000
-8.714069401933015 -5.161075653819600 -2.500983117465089 37.000000000000000
-8.463324854064254 -4.927278813669508 -2.582719478948867 34.000000000000000
-8.460142965273912 -4.840956933675798 -2.736145641851431 80.000000000000000
-8.483802609324824 -4.771048889879514 -2.899400244256176 60.000000000000000
-8.686650546104413 -5.818801100840515 -1.199263123222364 1.000000000000000
-8.697654797292795 -5.736718494029005 -1.363424346047547 2.000000000000000
-8.725984533682094 -5.665843392585264 -1.530251145609362 5.000000000000000
-8.888083267637906 -5.680552752275375 -1.722393757580346 10.000000000000000
-9.034995228391265 -5.682189889824653 -1.916746013148731 8.000000000000000
-8.892419607952272 -5.502509934388939 -2.048803050089731 32.000000000000000
-9.074794951195724 -5.522663924328939 -2.255632898471798 17.000000000000000
-9.093528584078893 -5.442617809331238 -2.426114851380811 1.000000000000000
-8.718620673519871 -5.129251028927479 -2.483846499588556 38.000000000000000
-8.437190954620155 -4.878869778299317 -2.556602135975294 45.000000000000000
-8.470830287329148 -4.813954801175475 -2.721089747786129 80.000000000000000
-8.554798464420630 -4.777734778059213 -2.904664115464970 17.000000000000000
-8.694649896067078 -5.788102269173144 -1.184516486340943 2.000000000000000
-8.692360477923012 -5.697402318341316 -1.346430891208689 3.000000000000000
-8.810473140871906 -5.684617552108101 -1.528365898677158 9.000000000000000
-8.939699235590918 -5.677155037358299 -1.715130391245056 7.000000000000000
-9.093634854127226 -5.682288191920962 -1.911300615747848 7.000000000000000
-8.893947307010807 -5.467706802020471 -2.031349213516534 28.000000000000000
-9.096746651411674 -5.499692507804514 -2.242560741569646 13.000000000000000
-9.095387827865325 -5.407632084503690 -2.407766496021894 1.000000000000000
-8.847166619021284 -5.169988326663014 -2.501832831634370 35.000000000000000
-8.420864518520897 -4.836431972784747 -2.533626360247548 46.000000000000000
-8.474694338279695 -4.783150105553766 -2.703891813751248 80.000000000000000
-8.656125217189931 -4.800823490288089 -2.919929800427858 16.000000000000000
-8.695891570290449 -5.753019650973068 -1.168887801830983 2.000000000000000
-8.693533529648960 -5.662493339485824 -1.330505148110297 5.000000000000000
-8.848488440459253 -5.673056749517577 -1.518248805634969 9.000000000000000
-8.998043254752083 -5.677734850905416 -1.709011570594130 8.000000000000000
-9.145655717998043 -5.677955974235021 -1.904316528967426 9.000000000000000
-8.905373770202608 -5.439083944986677 -2.016201342221444 53.000000000000000
-9.115266100426867 -5.474632715160392 -2.228635580911409 5.000000000000000
-9.117245085140308 -5.384588355844924 -2.394741383862598 6.000000000000000
-8.912201575333137 -5.172989653494245 -2.501530956328739 21.000000000000000
-8.474943256470151 -4.834415008667137 -2.531831021925636 27.000000000000000
-8.491873032755894 -4.759909097046012 -2.690977105701909 44.000000000000000
-8.835031000635036 -4.865988469975660 -2.960832218799610 13.000000000000000
-8.696466053945406 -5.807395057543868 -0.989776145494667 2.000000000000000
-8.696979193904001 -5.717977043201302 -1.153288963887098 2.000000000000000
-8.767839947993739 -5.675060503208122 -1.325690360262279 5.000000000000000
-8.903195101598708 -5.671970326933753 -1.510882388954123 10.000000000000000
