# This PCD file was generated using the MATLAB® pcwrite function
# from Computer Vision Toolbox®.
# .PCD v.7 - Point Cloud Data file format
VERSION .7
FIELDS x y z intensity
SIZE 8 8 8 8
TYPE F F F F
COUNT 1 1 1 1
WIDTH 632
HEIGHT 1
VIEWPOINT 0 0 0 1 0 0 0
POINTS 632
DATA ascii
-0.388612148995214 -6.598073067229916 -1.866503789749309 3.000000000000000
-0.389273719479757 -6.453095434127309 -1.948211818403661 3.000000000000000
-0.387580825014375 -6.273030649770123 -2.014663140856503 2.000000000000000
-0.386472623187815 -6.104115975945786 -2.078943737509449 3.000000000000000
-0.389016859134115 -6.006314495173641 -2.163716263371066 3.000000000000000
-0.383616957693225 -5.788012611541522 -2.200309986889680 2.000000000000000
-0.371399362560389 -5.477883413578861 -2.192395908755382 8.000000000000000
-0.379529017775207 -5.471585802328885 -2.301393172063295 13.000000000000000
-0.387686538173890 -5.463343279669974 -2.410360005601583 12.000000000000000
-0.396544214830116 -5.460099048749858 -2.523262781306309 11.000000000000000
-0.405779567024904 -5.461888742562042 -2.639983770188580 11.000000000000000
-0.415801367734083 -5.464743564838567 -2.759380907585239 9.000000000000000
-0.425069584921199 -5.464998279725588 -2.879925980050752 8.000000000000000
-0.434334494521608 -5.452218966017292 -2.995389439366772 7.000000000000000
-0.385158864503213 -6.870725405855553 -1.427434428065135 2.000000000000000
-0.389250592625441 -6.762085157727832 -1.530302027633013 2.000000000000000
-0.390769093585118 -6.613424057795170 -1.619358436935666 3.000000000000000
-0.392163727677862 -6.475158246525476 -1.707570582185965 3.000000000000000
-0.392526214546644 -6.320629052006744 -1.786608954926063 2.000000000000000
-0.390158836123193 -6.138869858140274 -1.851979737311349 3.000000000000000
-0.392648502901520 -6.036578357209427 -1.937383000451884 3.000000000000000
-0.391640082230441 -5.880392178577050 -2.001444946062817 2.000000000000000
-0.373082539535268 -5.479753495807158 -1.972817032540818 8.000000000000000
-0.381102693585604 -5.473858147779399 -2.079678271976434 19.000000000000000
-0.389301742309998 -5.469782885521291 -2.187952316366326 16.000000000000000
-0.397561319534599 -5.463534327491776 -2.296810320755483 14.000000000000000
-0.406658296576330 -5.466297244696495 -2.410470381989612 11.000000000000000
-0.415947560634370 -5.466641227474460 -2.525097486608952 10.000000000000000
-0.424523604045876 -5.457586559485725 -2.636722331859889 10.000000000000000
-0.434719551426983 -5.460464468654814 -2.756042579164085 9.000000000000000
-0.444156856827839 -5.460745698695679 -2.876512663053902 7.000000000000000
-0.454128941811006 -5.454986729333232 -2.995744763328135 7.000000000000000
-0.392511022236555 -6.635263634252533 -1.377009659148652 2.000000000000000
-0.393778454435721 -6.488599304811914 -1.466940213647635 2.000000000000000
-0.393691798806133 -6.325582209664424 -1.547447083531366 3.000000000000000
-0.393247250418163 -6.169333460783705 -1.625529221420858 3.000000000000000
-0.395670391338556 -6.058564891526107 -1.711169306814857 3.000000000000000
-0.396420866493049 -5.935504557991676 -1.789295989675529 3.000000000000000
-0.375669095590717 -5.499861868423892 -1.763898001267338 6.000000000000000
-0.382664532499259 -5.475295045529220 -1.862344763992507 18.000000000000000
-0.390668154085643 -5.471512147096703 -1.968633337510199 20.000000000000000
-0.399360498276009 -5.473123116344695 -2.078186359725727 20.000000000000000
-0.407702572859012 -5.469043248027525 -2.186449304989414 16.000000000000000
-0.416380138811544 -5.466468668438295 -2.296842153258628 14.000000000000000
-0.425366723138227 -5.465546707095886 -2.408942992974298 11.000000000000000
-0.434532265523868 -5.462261903753922 -2.521884336169538 9.000000000000000
-0.443530352568018 -5.456824351380702 -2.635170739160834 10.000000000000000
-0.454200588309995 -5.463255357562049 -2.756272614174518 9.000000000000000
-0.463514393267681 -5.459969120349809 -2.874932279560724 7.000000000000000
-0.473640422943606 -5.454202448266888 -2.994151032107982 7.000000000000000
-0.395244653961466 -6.348982065936234 -1.316139958338385 2.000000000000000
-0.394614328982449 -6.183974533693348 -1.396654036615322 2.000000000000000
-0.397087953950514 -6.072660701258114 -1.484186364383767 3.000000000000000
-0.399367400262319 -5.967758396141838 -1.571057416164761 3.000000000000000
-0.381612068966271 -5.569879968227516 -1.571880837836356 4.000000000000000
-0.383444346294448 -5.476104654103517 -1.649567291928596 21.000000000000000
-0.392189240298926 -5.480086895625834 -1.756319793256272 22.000000000000000
-0.400892797759563 -5.478297074352812 -1.862134831273483 19.000000000000000
-0.409041502663902 -5.474486435302159 -1.968478427311589 20.000000000000000
-0.417329359241355 -5.468606531177030 -2.075252951590030 19.000000000000000
-0.426387787448017 -5.471956724009521 -2.186400481449400 17.000000000000000
-0.434926906983059 -5.465671775578581 -2.295300988372944 13.000000000000000
-0.444070781970427 -5.464743641708585 -2.407389056842656 9.000000000000000
-0.453688867034802 -5.465073969758922 -2.521989079475194 9.000000000000000
-0.463141661027897 -5.463192462939585 -2.637059710112841 8.000000000000000
-0.473702166479217 -5.465991305110527 -2.756473346493487 9.000000000000000
-0.483803804895626 -5.469724755750063 -2.878896485583224 8.000000000000000
-0.495360184129126 -5.477833604861249 -3.005957632008869 6.000000000000000
-0.397742705268076 -6.086177947477232 -1.260247091664114 2.000000000000000
-0.400589516129442 -5.984508506291768 -1.350218492573942 2.000000000000000
-0.384544565820170 -5.610384986949829 -1.369908674002086 2.000000000000000
-0.384459957498650 -5.484439111447244 -1.442558204686352 23.000000000000000
-0.393078243432792 -5.480720601755381 -1.545462772128115 27.000000000000000
-0.401094866986489 -5.475290428336709 -1.648072095826365 24.000000000000000
-0.409718795520627 -5.475466481571174 -1.753594399451513 26.000000000000000
-0.418563719388663 -5.473692423381699 -1.859330972964552 24.000000000000000
-0.427142299798137 -5.473654557369893 -1.966946680087426 20.000000000000000
-0.436160224620374 -5.475228992906107 -2.076539364832620 18.000000000000000
-0.445093440954861 -5.474817401315935 -2.186323455270787 17.000000000000000
-0.453774320001822 -5.468500343372305 -2.295277077183465 14.000000000000000
-0.463079420260653 -5.467537948281806 -2.407415675497158 8.000000000000000
-0.472865881046675 -5.467831945469595 -2.522064962415550 9.000000000000000
-0.482798372442409 -5.469504929019556 -2.638917498331037 8.000000000000000
-0.494187415785272 -5.479353214458417 -2.762028810364528 6.000000000000000
-0.504163548158362 -5.479422615554022 -2.882826896791323 7.000000000000000
-0.514621239798721 -5.473440583168848 -3.002383913171047 7.000000000000000
-0.386043961197685 -5.639707045848439 -1.166472673074801 2.000000000000000
-0.384319948770527 -5.485285426607036 -1.236300111473539 24.000000000000000
-0.392999467222890 -5.481590310330878 -1.337181770908186 30.000000000000000
-0.401555676270952 -5.479728089484538 -1.440046215983610 28.000000000000000
-0.410593108892242 -5.479861857531132 -1.543953147380342 25.000000000000000
-0.419033105908377 -5.478246892191351 -1.647700896506579 23.000000000000000
-0.427812477519746 -5.478395579719757 -1.753277603856687 24.000000000000000
-0.436807800386539 -5.476592468836624 -1.859068012689005 24.000000000000000
-0.445238498724161 -5.472771848996202 -1.965389266300328 19.000000000000000
-0.454107562269002 -5.470610476884074 -2.073555239702167 18.000000000000000
-0.463192135694224 -5.470217982231319 -2.183261842359761 15.000000000000000
-0.472641983522026 -5.471275628592529 -2.295224727860386 12.000000000000000
-0.481786678029913 -5.466629245006267 -2.405807617935214 8.000000000000000
-0.492714419895617 -5.477776681449561 -2.525450282344588 6.000000000000000
-0.502500280307267 -5.475761547470852 -2.640744013252843 6.000000000000000
-0.514100612180680 -5.485536889370376 -2.763961214617932 8.000000000000000
-0.523919119001459 -5.482007042284366 -2.883012928359733 5.000000000000000
-0.535899049446269 -5.489961154582145 -3.010281503444762 5.000000000000000
-0.392278427867586 -5.482495539812273 -1.132653650048538 37.000000000000000
-0.401406593357494 -5.484398920398700 -1.234802505965514 33.000000000000000
-0.410219652208261 -5.480696605582552 -1.335672323026131 28.000000000000000
-0.419212363705887 -5.482686187907887 -1.439537828276912 26.000000000000000
-0.428103335523963 -5.478953923844545 -1.542418696237088 25.000000000000000
-0.436382250604086 -5.473513286635835 -1.645006635967986 22.000000000000000
-0.445617122054270 -5.477474893012621 -1.751718635211844 22.000000000000000
-0.455071898385390 -5.479440843210202 -1.858777451191990 21.000000000000000
-0.463965490004199 -5.479344269947782 -1.966500036988449 18.000000000000000
-0.472669181603498 -5.473398916275400 -2.073372168250927 17.000000000000000
-0.481913184998011 -5.472974054927240 -2.183130476224074 16.000000000000000
-0.492189919242145 -5.481350117346291 -2.298226702147597 7.000000000000000
-0.502493639997023 -5.487559865370057 -2.413802573895036 6.000000000000000
-0.511956660683309 -5.480424902364815 -2.525466148480635 9.000000000000000
-0.522931194437357 -5.489142158783301 -2.646000250671209 5.000000000000000
-0.534058747717355 -5.491663941122278 -2.765861965421248 4.000000000000000
-0.544393864627608 -5.491589714403287 -2.886877504989749 7.000000000000000
-0.555882192058804 -5.492444641301533 -3.010480169472967 8.000000000000000
-0.409209388223168 -5.481569302768204 -1.131145284894624 35.000000000000000
-0.418785551836327 -5.487356165309539 -1.234155977424463 31.000000000000000
-0.427435102394248 -5.479754534898304 -1.334138475010255 27.000000000000000
-0.436274255876052 -5.477878864106661 -1.436978748567049 24.000000000000000
-0.445608750509086 -5.477996809656563 -1.540859433842767 23.000000000000000
-0.454969258136527 -5.484007227853943 -1.646876953204579 22.000000000000000
-0.463416882889840 -5.476504199087282 -1.750134437702439 21.000000000000000
-0.472703820888392 -5.474686160088707 -1.855899390120781 23.000000000000000
-0.482076766722533 -5.478358577064529 -1.964889129719500 19.000000000000000
-0.491585080400306 -5.479862573213358 -2.074572314339341 12.000000000000000
-0.502008139782643 -5.490486244037925 -2.188874740962189 7.000000000000000
-0.511465016453526 -5.487692811240521 -2.299655440800490 11.000000000000000
-0.521612338830135 -5.490190002820090 -2.413738656299494 7.000000000000000
-0.531569358561071 -5.486637828278876 -2.527119973079679 5.000000000000000
-0.542393360138468 -5.491695779410778 -2.646032295585138 6.000000000000000
-0.554061611990197 -5.497734168798158 -2.767730973080307 10.000000000000000
-0.564214006147591 -5.494061050948884 -2.887001857241063 6.000000000000000
-0.574420525160437 -5.480898666139107 -3.002992985637654 5.000000000000000
-0.426439257522045 -5.484501848562041 -1.130418078749455 34.000000000000000
-0.435565622526095 -5.482481944679027 -1.231734677088343 30.000000000000000
-0.444960107311108 -5.482638763946270 -1.333522660840599 25.000000000000000
-0.454265128300259 -5.484595032944974 -1.437429830567626 24.000000000000000
-0.463433714489737 -5.480828639707427 -1.540354054896820 22.000000000000000
-0.472308532769537 -5.479174430702070 -1.644132661257518 21.000000000000000
-0.481211584350007 -5.475483507524097 -1.748525026963860 22.000000000000000
-0.490982645322243 -5.477432326341122 -1.855555752960729 20.000000000000000
-0.501553266643494 -5.492328373367982 -1.968631341774344 7.000000000000000
-0.510892347201816 -5.489999220874889 -2.077152272791702 12.000000000000000
-0.520467573329771 -5.489431771009900 -2.187207428786611 14.000000000000000
-0.530784706479554 -5.493980442634027 -2.301053343867159 6.000000000000000
-0.541468806895036 -5.500060498214957 -2.416851267069427 6.000000000000000
-0.551952905785324 -5.500031668877018 -2.532074175679894 11.000000000000000
-0.561508104716657 -5.490605673033538 -2.644306712843544 7.000000000000000
-0.572253437764968 -5.485958919024132 -2.760616732135366 5.000000000000000
-0.581431191111544 -5.471796811210784 -2.874133160941940 7.000000000000000
-0.593256959342244 -5.472794344143942 -2.997397579050545 6.000000000000000
-0.443372466070112 -5.483479778138401 -1.128860655297255 32.000000000000000
-0.452637669971902 -5.481451494087469 -1.230164483997430 25.000000000000000
-0.462177746160760 -5.481599255125801 -1.331938938975064 27.000000000000000
-0.471304738177083 -5.479690845164485 -1.434822666810212 22.000000000000000
-0.480604454503212 -5.475935078047030 -1.537666537102809 22.000000000000000
-0.489959440228414 -5.478110981765711 -1.642510218655875 21.000000000000000
-0.499347098693689 -5.478209231190498 -1.748101854677071 10.000000000000000
-0.511034653251735 -5.498997566514156 -1.861572815295518 10.000000000000000
-0.520058662959469 -5.494988812088622 -1.968308142060505 17.000000000000000
-0.529550266133582 -5.492627398971294 -2.076881501604674 9.000000000000000
-0.540011790398129 -5.499427922441256 -2.189935111391307 6.000000000000000
-0.550516284827421 -5.503886968765338 -2.303958344934844 11.000000000000000
-0.560280001288868 -5.498934235245216 -2.415125793122141 10.000000000000000
-0.570552721586445 -5.495277878551449 -2.528668944206297 6.000000000000000
-0.580237759749073 -5.485873987866946 -2.640826902961678 6.000000000000000
-0.590748255581146 -5.477690872073399 -2.755271167876512 7.000000000000000
-0.601976902982836 -5.481210916235008 -2.877907347365682 5.000000000000000
-0.614384178778638 -5.485588664052778 -3.003249088850631 5.000000000000000
-0.460628363531051 -5.486314986537134 -1.128082168642324 31.000000000000000
-0.470371235039718 -5.488152177672446 -1.230314015183277 24.000000000000000
-0.479390136920402 -5.480511375510359 -1.330330845889469 26.000000000000000
-0.489002398363749 -5.482450298149752 -1.434210369057551 23.000000000000000
-0.498443448152465 -5.478667082572377 -1.537109341371574 15.000000000000000
-0.509727365486944 -5.499898284842910 -1.647723541512881 7.000000000000000
-0.518935391460958 -5.496065926110274 -1.752492338168381 17.000000000000000
-0.528687819034543 -5.494089147466462 -1.858614976184076 12.000000000000000
-0.538583334056581 -5.497596700677287 -1.967956937785659 6.000000000000000
-0.549714187203293 -5.510104853335605 -2.082213922159498 9.000000000000000
-0.559249210160873 -5.505667499116402 -2.191157162347736 16.000000000000000
-0.569557042643465 -5.506389720027244 -2.303756286232015 7.000000000000000
-0.578317477269596 -5.490463672943566 -2.410172929806402 6.000000000000000
-0.588345645413305 -5.483238521031162 -2.521912116431338 8.000000000000000
-0.598936653329520 -5.481090184116514 -2.637322369161577 6.000000000000000
-0.611167734680646 -5.487152638654575 -2.758842858915935 4.000000000000000
-0.623390876481454 -5.497614090076964 -2.885346275875207 7.000000000000000
-0.634798190784639 -5.491339761131102 -3.005242566715232 8.000000000000000
-0.477223234724673 -5.481292932742497 -1.125673918018037 29.000000000000000
-0.486420518998512 -5.475357969733412 -1.226080821958331 24.000000000000000
-0.496597109710690 -5.479375135836876 -1.328698397455045 21.000000000000000
-0.508143384294540 -5.500577961438482 -1.437600915113425 10.000000000000000
-0.517746655026518 -5.496691502655786 -1.540826053076901 14.000000000000000
-0.527075085794035 -5.494914897014319 -1.644901859840068 17.000000000000000
-0.536787835459656 -5.494890433222875 -1.750800373137457 6.000000000000000
-0.548187959922611 -5.507994733212207 -1.862010735603443 7.000000000000000
-0.557886635321136 -5.507650448926530 -1.970260143881884 18.000000000000000
-0.567691951888426 -5.505174249089113 -2.079068621986110 11.000000000000000
-0.577365756239121 -5.500754186763032 -2.187934222121724 7.000000000000000
-0.586262396593370 -5.486803055941929 -2.294311362401994 9.000000000000000
-0.596299200799094 -5.481943543127284 -2.405198173351094 9.000000000000000
-0.608060613471425 -5.489231279351714 -2.523447295294974 5.000000000000000
-0.620435801997572 -5.501358360930655 -2.645866890117113 5.000000000000000
-0.631656094538009 -5.496555461841337 -2.762380247745620 10.000000000000000
-0.641626860943187 -5.485768184898327 -2.877958719800114 6.000000000000000
-0.652759753634252 -5.476091420732015 -2.995747562098743 5.000000000000000
-0.494492412632860 -5.484031404552485 -1.124845237235167 30.000000000000000
-0.505609792537333 -5.497511990485470 -1.229657127885184 11.000000000000000
-0.515977145566685 -5.501419623845317 -1.332668641344318 10.000000000000000
-0.525191001287147 -5.495525616791882 -1.434917630859416 22.000000000000000
-0.535298912876242 -5.495483579762651 -1.539135893426110 12.000000000000000
-0.545527423371144 -5.501328631222112 -1.645480817769045 5.000000000000000
-0.556549668278046 -5.512634615038977 -1.755122807046183 11.000000000000000
-0.567005471210515 -5.514299457909992 -1.862823202590868 18.000000000000000
-0.575297577949529 -5.498906052971683 -1.965830337897144 8.000000000000000
-0.584449437893326 -5.489022065206997 -2.071683282313412 8.000000000000000
-0.594650041553612 -5.488393824007065 -2.181747134908491 13.000000000000000
-0.605671250550730 -5.492874407065219 -2.295593405737224 7.000000000000000
-0.617087577117426 -5.498882469243152 -2.411387673439856 5.000000000000000
-0.628645439541215 -5.502397966647703 -2.528273230482666 8.000000000000000
-0.638743054055606 -5.492879271597689 -2.640581113798281 7.000000000000000
-0.650528891906862 -5.491681093801950 -2.758740822326855 5.000000000000000
-0.660206257319899 -5.477395125404107 -2.872398011765600 7.000000000000000
-0.672329224419904 -5.474752067915280 -2.993866932388327 6.000000000000000
-0.513236008248844 -5.502330057800331 -1.127187976720741 8.000000000000000
-0.523090198225242 -5.500172469089090 -1.228852902016794 21.000000000000000
-0.532870426453340 -5.496310828793519 -1.330043751873799 20.000000000000000
-0.542969385073831 -5.498131941780098 -1.434222227428497 6.000000000000000
-0.554388481605518 -5.509562625038728 -1.541712389597840 7.000000000000000
-0.564413581728749 -5.511503311486116 -1.647169862593927 18.000000000000000
-0.574056613883169 -5.507561318061279 -1.752167609520303 12.000000000000000
-0.583865460111028 -5.501695613905857 -1.857240559652513 8.000000000000000
-0.592652921423186 -5.490114063788233 -1.961379637225599 13.000000000000000
-0.603146115367291 -5.491440468339065 -2.071303055133502 11.000000000000000
-0.613919276855792 -5.494474292467525 -2.182886018764689 7.000000000000000
-0.625540995849153 -5.502560769320269 -2.298377567426552 7.000000000000000
-0.636730107472093 -5.504830344178274 -2.412748153465810 10.000000000000000
-0.646770663743453 -5.493818226609930 -2.523103050112970 5.000000000000000
-0.656994039261007 -5.484349946672738 -2.635273134763499 6.000000000000000
-0.668936780960328 -5.483200689631555 -2.753292171256524 7.000000000000000
-0.679603376948915 -5.476014128496553 -2.870506665128261 4.000000000000000
-0.693215103881912 -5.483823035271940 -2.997679392058269 5.000000000000000
-0.529837952763812 -5.497163390853484 -1.124705471699715 30.000000000000000
-0.540588900387238 -5.502783058409688 -1.228022089726990 7.000000000000000
-0.551670503839241 -5.510503994557363 -1.332074089966883 5.000000000000000
-0.562336940891907 -5.516095644866023 -1.437515217866724 15.000000000000000
-0.572773855345745 -5.515918743465801 -1.542111061537086 17.000000000000000
-0.581755812026085 -5.506369625006805 -1.644271792611028 8.000000000000000
-0.591125094688901 -5.498647371219530 -1.747984041520282 10.000000000000000
-0.601470204287107 -5.496586421147800 -1.854183191652984 15.000000000000000
-0.611203268782359 -5.492514500726326 -1.960920963104020 6.000000000000000
-0.622703948219104 -5.501249818979776 -2.073700610514287 6.000000000000000
-0.634082995094134 -5.507892392465563 -2.186929388058156 13.000000000000000
-0.644619506766658 -5.504849482752987 -2.298063938129242 7.000000000000000
-0.653812903729772 -5.488868208985624 -2.404503788997506 5.000000000000000
-0.664839525831723 -5.485188849141271 -2.517910978201595 8.000000000000000
-0.676514226479649 -5.486521468453033 -2.635106578029552 5.000000000000000
-0.689518178389679 -5.492433180482456 -2.756736918823695 4.000000000000000
-0.701241413513597 -5.492181767231550 -2.877811653959093 7.000000000000000
-0.713262172856489 -5.485858456445951 -2.997645420761517 6.000000000000000
-0.547962103249975 -5.507553002078138 -1.125389471561716 4.000000000000000
-0.559681174547858 -5.520884512134693 -1.230628776897406 9.000000000000000
-0.569762507957760 -5.516903567642329 -1.332201827750217 28.000000000000000
-0.579795819431560 -5.514745608828354 -1.435758223963234 12.000000000000000
-0.589150577214634 -5.503060567467747 -1.537127837282643 7.000000000000000
-0.598652050282433 -5.497375634893651 -1.640213660341321 18.000000000000000
-0.608557979782700 -5.493478183018852 -1.744984423408616 10.000000000000000
-0.620318508700304 -5.502735486399672 -1.854914314592889 5.000000000000000
-0.630630535183046 -5.502353357207224 -1.963106889735029 10.000000000000000
-0.641895991856943 -5.507280889904894 -2.074663041394035 12.000000000000000
-0.651711677081516 -5.499077262654004 -2.182137747557963 6.000000000000000
-0.662389758869157 -5.496077041218491 -2.293129077120663 9.000000000000000
-0.672574662443044 -5.487426006539669 -2.402620058642587 7.000000000000000
-0.684653584934094 -5.490959952890086 -2.519326946705050 4.000000000000000
-0.697415639322636 -5.499385439300053 -2.640070305132566 6.000000000000000
-0.709709115094042 -5.498054119666365 -2.758365071772071 8.000000000000000
-0.720687365139785 -5.490686971384966 -2.875859228820366 5.000000000000000
-0.732395440284132 -5.480863782986388 -2.993772388041408 6.000000000000000
-0.566152264499761 -5.517889152927388 -1.126042143708692 25.000000000000000
-0.576452371715164 -5.515622694721880 -1.228010159816646 21.000000000000000
-0.585838301473036 -5.503911526408038 -1.327635263918492 8.000000000000000
-0.595997115385867 -5.501796192992628 -1.430972427834844 11.000000000000000
-0.605869995406980 -5.493990018404635 -1.533196408271223 15.000000000000000
-0.616347596800014 -5.495958439395505 -1.638407907804456 7.000000000000000
-0.628553506365533 -5.511002196673100 -1.749180173081053 6.000000000000000
-0.639646839042781 -5.512598022389100 -1.856884208790189 16.000000000000000
-0.649242096402912 -5.504645983466988 -1.962589436677757 8.000000000000000
-0.659346522237929 -5.498375912084895 -2.069992389603725 8.000000000000000
-0.669283979694572 -5.490214083314439 -2.177325027160617 13.000000000000000
-0.680103511487971 -5.487256131807608 -2.288172930003662 6.000000000000000
-0.692705849238152 -5.496851967768301 -2.405488942163943 4.000000000000000
-0.704973484195805 -5.500285406579488 -2.522367307263067 7.000000000000000
-0.716075797064818 -5.494279483358934 -2.636403689042912 7.000000000000000
-0.728530111211373 -5.492964747124065 -2.754619059672423 6.000000000000000
-0.738702940035038 -5.478581484492070 -2.868352642923156 7.000000000000000
-0.751975034859915 -5.479301569736108 -2.991777373875746 5.000000000000000
-0.583583957490932 -5.520374413408597 -1.125074264367871 9.000000000000000
-0.592774930840380 -5.506431361168624 -1.224506245841904 6.000000000000000
-0.602682454065925 -5.498610500857575 -1.324915249900863 23.000000000000000
-0.612548033212600 -5.492652876837606 -1.427169675117482 12.000000000000000
-0.623838118966745 -5.496364813591706 -1.532448967253082 5.000000000000000
-0.636674675692128 -5.517353463638265 -1.643386781804933 10.000000000000000
-0.647331607452453 -5.517098236190849 -1.749732791660728 15.000000000000000
-0.657244239471926 -5.507335831295104 -1.853749187731186 7.000000000000000
-0.665601469595221 -5.488167318449134 -1.955374687465176 11.000000000000000
-0.676740646872850 -5.489423471188741 -2.065300958899760 11.000000000000000
-0.688650960423253 -5.496077480226480 -2.178347122488855 6.000000000000000
-0.701029901746068 -5.504055458690997 -2.293893324571073 7.000000000000000
-0.712433499536315 -5.502579775269020 -2.406731876536891 9.000000000000000
-0.723459685125651 -5.495109666068685 -2.518753628657715 5.000000000000000
-0.733266134772560 -5.478379896941171 -2.627560556939947 7.000000000000000
-0.747318994390480 -5.487823203548213 -2.750848379540579 6.000000000000000
-0.760531697722843 -5.494568722171914 -2.875553876053952 3.000000000000000
-0.773510547411448 -5.491622446828562 -2.997362229449742 7.000000000000000
-0.598064038526690 -5.495527004417517 -1.118526865810108 12.000000000000000
-0.609042574525932 -5.497195940151529 -1.220983184976912 22.000000000000000
-0.619931660858970 -5.497128787542700 -1.323103861771231 6.000000000000000
-0.633016450197660 -5.518097210073515 -1.432337025269555 6.000000000000000
-0.643611755324709 -5.514004899903086 -1.535940712479684 18.000000000000000
-0.653526466894571 -5.508211937297032 -1.639256054094895 10.000000000000000
-0.663410666400825 -5.500410799249090 -1.743052301914548 8.000000000000000
-0.673886284111387 -5.494493157787731 -1.848057957724908 15.000000000000000
-0.685119689399222 -5.497844053612766 -1.957472291847898 7.000000000000000
-0.696903497745103 -5.502732164792803 -2.068976615959049 6.000000000000000
-0.708535704247026 -5.505577333455443 -2.180800628473137 12.000000000000000
-0.719196609684270 -5.498796723049189 -2.290412808906320 7.000000000000000
-0.730269211992435 -5.493697684252848 -2.401581277419284 5.000000000000000
-0.741425954487146 -5.486273356062940 -2.513462197162851 8.000000000000000
-0.753791518309548 -5.487492142161444 -2.630713275262242 5.000000000000000
-0.768058955835635 -5.496824120040866 -2.754165215396059 3.000000000000000
-0.780480153190516 -5.496424460450585 -2.875356131166402 7.000000000000000
-0.794131622421598 -5.496912855448763 -2.999107871663199 5.000000000000000
-0.616318774819935 -5.505712761194904 -1.119098815574407 11.000000000000000
-0.627908295734167 -5.511203425001653 -1.222607042511309 5.000000000000000
-0.639862557338114 -5.518786758166954 -1.326843105117481 13.000000000000000
-0.650473186379364 -5.516548807727962 -1.430478900842887 17.000000000000000
-0.660745625733003 -5.508616321058116 -1.533002754546401 7.000000000000000
-0.669393803935681 -5.491408458554191 -1.632840799518438 12.000000000000000
-0.680791884218729 -5.495042947099136 -1.739954430414189 13.000000000000000
-0.692818311612554 -5.500430545948559 -1.848675903529434 6.000000000000000
-0.705183644279145 -5.511204774793601 -1.960867654415616 8.000000000000000
-0.715708412224503 -5.504829809559211 -2.068426028761817 13.000000000000000
-0.726049548309156 -5.496561494125550 -2.175913554049512 8.000000000000000
-0.737823035701541 -5.497152525497768 -2.288434241878424 8.000000000000000
-0.748543865410007 -5.488404231101757 -2.397998556626206 7.000000000000000
-0.761335901974846 -5.491821353824307 -2.514758410273938 3.000000000000000
-0.775896563958675 -5.507279678440844 -2.638975381747551 6.000000000000000
-0.787849458275272 -5.498669258253666 -2.753893538144029 7.000000000000000
-0.799422271513232 -5.491192346160156 -2.871451662361871 4.000000000000000
-0.811184898274459 -5.477767137650779 -2.987525773359059 6.000000000000000
-0.635086926829785 -5.519739639152334 -1.120429788670560 7.000000000000000
-0.646409393880686 -5.521273971908395 -1.223336675911291 24.000000000000000
-0.656710496765943 -5.513337820963069 -1.324047353902273 12.000000000000000
-0.666525531940007 -5.503413767113042 -1.425607457620342 7.000000000000000
-0.676905188755295 -5.495526575083685 -1.527914601011829 20.000000000000000
-0.688014742798724 -5.497406519841633 -1.633197253639105 8.000000000000000
-0.700067218925438 -5.504770950625656 -1.741625295559846 5.000000000000000
-0.712765416120280 -5.513840292687256 -1.851791210779824 14.000000000000000
-0.722883623103398 -5.505803668263536 -1.957577389015489 11.000000000000000
-0.732548144784369 -5.492010325050511 -2.062265697021495 7.000000000000000
-0.744506363758546 -5.494878819567370 -2.173925719198551 14.000000000000000
-0.756441954056017 -5.495455956575629 -2.286429399627583 6.000000000000000
-0.768820018650622 -5.497604191122327 -2.400743205067191 4.000000000000000
-0.782313283912106 -5.504525973157998 -2.519324460374973 8.000000000000000
-0.794010436734472 -5.498381200980120 -2.633487344770267 6.000000000000000
-0.807136340830175 -5.496911518636025 -2.751816615183114 5.000000000000000
-0.817807432265076 -5.482393445727566 -2.865685452029834 6.000000000000000
-0.832330929239336 -5.486427444870638 -2.991112688683231 3.000000000000000
-0.652563509003117 -5.522027002574241 -1.119358141775225 26.000000000000000
-0.662644157842888 -5.511895068228506 -1.219742381371973 6.000000000000000
-0.673527026252049 -5.507842502775766 -1.321229847348619 13.000000000000000
-0.683453540979382 -5.497925955336177 -1.422709192689610 18.000000000000000
-0.694918580676109 -5.497697591093739 -1.527060366558308 7.000000000000000
-0.707654774533894 -5.510962105289244 -1.635782807754541 7.000000000000000
-0.718915111130208 -5.510657076109047 -1.742066489120872 17.000000000000000
-0.730309368643745 -5.508377372431330 -1.848556990995325 9.000000000000000
-0.740047952980960 -5.496614540730713 -1.952935641007246 10.000000000000000
-0.751338099695811 -5.494004991863657 -2.061663456852913 11.000000000000000
-0.764492735445310 -5.504211695919448 -2.176287771402236 6.000000000000000
-0.777119989469118 -5.508356918448630 -2.290490030745958 6.000000000000000
-0.789162952855856 -5.506744425126166 -2.403453280216137 8.000000000000000
-0.800756859569554 -5.499138069811102 -2.515605084469050 5.000000000000000
-0.811537625048673 -5.485857377838053 -2.626265697363875 7.000000000000000
-0.825348912687068 -5.488009095087992 -2.746164478788144 5.000000000000000
-0.839354853140106 -5.494623691921813 -2.870910990379478 3.000000000000000
-0.853543460535342 -5.495025734177342 -2.994663877917873 7.000000000000000
-0.668168056348319 -5.508691903447089 -1.115107600804603 8.000000000000000
-0.678823393396656 -5.502472579407725 -1.216129233857791 26.000000000000000
-0.689827561016334 -5.498439658140316 -1.317465468941048 12.000000000000000
-0.702310233479724 -5.507765643993872 -1.423763304341848 5.000000000000000
-0.713940517115870 -5.507466195449769 -1.528301359025231 12.000000000000000
-0.726383330530114 -5.516848993237988 -1.636075928231014 15.000000000000000
-0.735274347705922 -5.497570207934410 -1.736501495086500 8.000000000000000
-0.747309892227975 -5.499104745946477 -1.844038751785640 15.000000000000000
-0.758702545399890 -5.498593090593261 -1.952255227085788 7.000000000000000
-0.772226513058793 -5.510799757767802 -2.066603068398813 5.000000000000000
-0.784545607955431 -5.513485491899988 -2.178615597035461 11.000000000000000
-0.796831158938882 -5.513873395202180 -2.291470332739595 7.000000000000000
-0.805839229525802 -5.490389344659159 -2.395033189793084 5.000000000000000
-0.818092537829475 -5.486489650262667 -2.508565310512837 8.000000000000000
-0.831689466016013 -5.491161896805435 -2.627578667745293 4.000000000000000
-0.847322821997173 -5.503865423139721 -2.752899097186414 5.000000000000000
-0.860444412846290 -5.503277771402678 -2.874263937634603 7.000000000000000
-0.873163296853246 -5.493125119261632 -2.992493655994152 5.000000000000000
-0.684177414272940 -5.499208009923420 -1.111627873612790 28.000000000000000
-0.696418268840599 -5.504636238593767 -1.215064391538700 6.000000000000000
-0.710044442146945 -5.519873505660516 -1.321072810893974 6.000000000000000
-0.720730035529809 -5.513706830823616 -1.423792540932211 19.000000000000000
-0.732520023831136 -5.513354751066928 -1.528449476945236 13.000000000000000
-0.742073987993350 -5.499860134132904 -1.629576847319339 10.000000000000000
-0.753625431064589 -5.499569913677337 -1.735694522151803 15.000000000000000
-0.765823753750401 -5.501066734687251 -1.843280434092707 5.000000000000000
-0.779486366324151 -5.515465224064527 -1.956849602511551 6.000000000000000
-0.791099677410752 -5.512681787330685 -2.065938240130418 13.000000000000000
-0.801978954076757 -5.504266333847662 -2.173629656424750 7.000000000000000
-0.813876329563771 -5.501032295996070 -2.284817935544100 8.000000000000000
-0.825136705660376 -5.492153140074993 -2.394516089512935 6.000000000000000
-0.839195010436774 -5.499020230341617 -2.513034866600870 4.000000000000000
-0.852436641580475 -5.499981572227396 -2.630568470359602 7.000000000000000
-0.866064479347057 -5.498398539561344 -2.748965226728595 6.000000000000000
-0.877669405831910 -5.487294527418816 -2.864751155585104 4.000000000000000
-0.890513010495699 -5.477258827337806 -2.982720623271305 6.000000000000000
-0.703604612573054 -5.516915726823314 -1.113627142402478 5.000000000000000
-0.715537083856412 -5.518375097294036 -1.216535641562256 11.000000000000000
-0.726838410465998 -5.514232277598310 -1.318182200518659 23.000000000000000
-0.737647487016561 -5.508070870563439 -1.420819295247875 10.000000000000000
-0.748539583040223 -5.500078120601847 -1.523274486065733 18.000000000000000
-0.758709752284977 -5.490435918771950 -1.625315025970804 11.000000000000000
-0.771993127454065 -5.501516939569493 -1.734859641237187 5.000000000000000
-0.785425745948772 -5.510493320228553 -1.845011047478392 10.000000000000000
-0.797683240252745 -5.513596170538625 -1.954782524078240 11.000000000000000
-0.808354170835547 -5.503376769417327 -2.061075366969991 7.000000000000000
-0.819904130411042 -5.498685644713182 -2.170077739980780 13.000000000000000
-0.831946661940360 -5.495463838231770 -2.281185208257593 6.000000000000000
-0.846683201595439 -5.508386070513046 -2.400298826045195 4.000000000000000
-0.859263729274459 -5.504282905394587 -2.514175717990745 9.000000000000000
-0.871550950812373 -5.498022537230946 -2.628399345654812 5.000000000000000
-0.884772737454423 -5.492879921296889 -2.745006989657930 6.000000000000000
-0.897082204605272 -5.485304591710014 -2.862548000356605 5.000000000000000
-0.912377268939099 -5.489158373536091 -2.988070291904433 3.000000000000000
-0.721111246946040 -5.519005635206472 -1.112452861062945 21.000000000000000
-0.733200878894355 -5.520433666129054 -1.215412937670767 15.000000000000000
-0.743079589355191 -5.504687415829248 -1.314348955907384 9.000000000000000
-0.754006185297760 -5.498548677927084 -1.416834891227286 24.000000000000000
-0.766075129857277 -5.498222367171195 -1.521254645531952 10.000000000000000
-0.779589758795890 -5.511374709288063 -1.630027184374690 4.000000000000000
-0.792548610285696 -5.518530461717492 -1.738760548042868 15.000000000000000
-0.803449163454886 -5.508588802344280 -1.842936474334060 9.000000000000000
-0.814213578035245 -5.500473338417783 -1.948720940180554 10.000000000000000
-0.825550950474033 -5.494025361903214 -2.056192342884215 11.000000000000000
-0.838919996077016 -5.500423881305930 -2.169408759579795 6.000000000000000
-0.853947728616132 -5.515447815651062 -2.288150491034468 7.000000000000000
-0.866633600705590 -5.513663784003024 -2.401298373609892 8.000000000000000
-0.877074481228785 -5.495083176339263 -2.508708281066264 4.000000000000000
-0.888920425842780 -5.485296267458286 -2.621083999937372 7.000000000000000
-0.903447422818489 -5.487309692694447 -2.741024460063096 5.000000000000000
-0.920004386750936 -5.504309033789321 -2.871297614129247 4.000000000000000
-0.933151474954783 -5.494042367097309 -2.989599102443253 7.000000000000000
-0.737073446744581 -5.509380939649671 -1.108904141902707 9.000000000000000
-0.747194823713789 -5.495332616047887 -1.208302666725358 12.000000000000000
-0.759797193431864 -5.498955403936203 -1.311416673057760 20.000000000000000
-0.772462951423475 -5.504336578468115 -1.416783617782213 6.000000000000000
-0.786325257336562 -5.515414981531456 -1.524488822908504 7.000000000000000
-0.798408731770238 -5.517049426484802 -1.630206466297064 16.000000000000000
-0.808777588344373 -5.505252610618153 -1.733106028456969 7.000000000000000
-0.820903868084843 -5.502877352471132 -1.839580844383755 15.000000000000000
-0.832921876736225 -5.502238802434824 -1.947928465892628 7.000000000000000
-0.846108489874598 -5.506877803621538 -2.059610953394488 5.000000000000000
-0.859674828350620 -5.513155936002215 -2.173065764035657 11.000000000000000
-0.871459468123987 -5.506114428980057 -2.282945091410368 6.000000000000000
-0.883127325172347 -5.497112477563595 -2.392789279595793 5.000000000000000
-0.895413994931950 -5.489435109617180 -2.504862462288544 7.000000000000000
-0.910344529037890 -5.497513004231195 -2.625685359436595 4.000000000000000
-0.925064761361051 -5.499382258697636 -2.745852501502896 6.000000000000000
-0.938276306612585 -5.495188208310683 -2.865373994384095 6.000000000000000
-0.950953051837751 -5.481497372137569 -2.981647003327087 5.000000000000000
-0.754043945506342 -5.507487202736042 -1.106899471471530 23.000000000000000
-0.765345007109340 -5.501170116338723 -1.207986080712276 11.000000000000000
-0.778662035074958 -5.508597003296722 -1.312135850589910 5.000000000000000
-0.792612408779640 -5.521581460175795 -1.419661842866631 12.000000000000000
-0.804461920145253 -5.517271978371080 -1.523466749134183 13.000000000000000
-0.814457737652964 -5.503677550920103 -1.624748598730066 8.000000000000000
-0.826626617946877 -5.503263966462735 -1.730999176757333 16.000000000000000
-0.838325460487846 -5.497117956745883 -1.836202764380830 6.000000000000000
-0.853955745702222 -5.518876450406422 -1.952387848131506 6.000000000000000
-0.865591844495890 -5.512253918074749 -2.060221226327840 13.000000000000000
-0.877586663976559 -5.507417927205118 -2.169434355381643 6.000000000000000
-0.888321839314414 -5.493079277453854 -2.276204815345949 9.000000000000000
-0.901298968334990 -5.491400461561349 -2.388999192222987 6.000000000000000
-0.916717523930633 -5.501727812398783 -2.509198290210678 4.000000000000000
-0.932462368448021 -5.513233534880618 -2.631951732326427 7.000000000000000
-0.943733805981270 -5.493702290927214 -2.741814297524395 5.000000000000000
-0.955267047941536 -5.479007235041371 -2.855774603409971 5.000000000000000
-0.966825869399486 -5.458488516346565 -2.968011936494293 6.000000000000000
-0.930512984514551 -5.174540940322946 -2.932349167914957 6.000000000000000
-0.935240171810154 -5.125034833116281 -3.024552823208300 20.000000000000000
-0.771550321997113 -5.509431071171597 -1.105650655783799 6.000000000000000
-0.785737498059581 -5.522433917158714 -1.211034357381379 5.000000000000000
-0.797590977763597 -5.518181829012265 -1.312822125860521 22.000000000000000
-0.809497080510373 -5.515749271414270 -1.416590431824995 10.000000000000000
-0.820338833961678 -5.503809572149122 -1.518205648459420 14.000000000000000
-0.832147768109534 -5.501654741345685 -1.622634031153938 14.000000000000000
-0.845046591387024 -5.505000823453532 -1.730053811926412 5.000000000000000
-0.859223201637776 -5.513831493550175 -1.840318926300976 9.000000000000000
-0.870386341045134 -5.505608296102847 -1.946258181024698 10.000000000000000
-0.882143472558083 -5.499045082695209 -2.053879760918053 7.000000000000000
-0.894865876088140 -5.497950668581854 -2.164331192228522 13.000000000000000
-0.908721394044586 -5.501920154268386 -2.278524971129569 5.000000000000000
-0.923082922877795 -5.507392484948838 -2.394644427513287 5.000000000000000
-0.936275206870039 -5.503165506518977 -2.508576916273487 8.000000000000000
-0.948535619801204 -5.493215966869279 -2.621155950969106 4.000000000000000
-0.960508481990346 -5.477362723053645 -2.732459891037187 7.000000000000000
-0.957807054527430 -5.382190190094041 -2.804170180989907 3.000000000000000
-0.930464624875150 -5.147356231559339 -2.797781872713309 15.000000000000000
-0.942210874554884 -5.134610963892317 -2.908708462075107 19.000000000000000
-0.954501928844503 -5.126314117240633 -3.024336892479325 21.000000000000000
-0.790740455198717 -5.522976251744470 -1.106709923683134 8.000000000000000
-0.802889912901489 -5.520421407148592 -1.208957929481669 22.000000000000000
-0.813738557971382 -5.508449282520837 -1.308898797144507 8.000000000000000
-0.826348874865463 -5.509870831233947 -1.413497421336850 20.000000000000000
-0.837877221917101 -5.501752335459781 -1.516082781465225 14.000000000000000
-0.851588524150584 -5.510968453732568 -1.623849650521716 4.000000000000000
-0.865257711292189 -5.518007474115128 -1.732635740327143 13.000000000000000
-0.877846063272151 -5.515471996203336 -1.839389830431378 9.000000000000000
-0.888540120574038 -5.503483510957327 -1.944063193096123 9.000000000000000
-0.899825618424569 -5.493201535168903 -2.050286504478056 11.000000000000000
-0.915143174186283 -5.506830078407031 -2.166443966109410 6.000000000000000
-0.928570181467523 -5.507048167506619 -2.279298554128302 7.000000000000000
-0.941260979647418 -5.501571959959870 -2.390798556461102 7.000000000000000
-0.953350991099905 -5.490165424596217 -2.501373522354680 5.000000000000000
-0.964475513331120 -5.473158981422668 -2.610348204408188 7.000000000000000
-0.929738855720773 -5.195884419650941 -2.590901533789277 9.000000000000000
-0.938045644915921 -5.166308999072998 -2.690598761270739 18.000000000000000
-0.949471708124993 -5.148678262879950 -2.797447340133090 19.000000000000000
-0.961343761070992 -5.135884874720857 -2.908419626990475 20.000000000000000
-0.973133478338015 -5.124137872782248 -3.022086414061711 21.000000000000000
-0.808313577737812 -5.524814653345818 -1.105403187176524 15.000000000000000
-0.819459003049994 -5.514493522924284 -1.206011661612950 8.000000000000000
-0.830410254083168 -5.502524506872076 -1.305870920568244 25.000000000000000
-0.843167638100206 -5.503946262132946 -1.410382883338172 10.000000000000000
-0.858372790573403 -5.518715251450508 -1.519184691145478 5.000000000000000
-0.871093528264545 -5.520223621912121 -1.625031454802968 16.000000000000000
-0.881933299279521 -5.508315253484229 -1.728078911350670 7.000000000000000
-0.894046600871780 -5.502056630507639 -1.833433257622584 13.000000000000000
-0.906070458305984 -5.497580467183909 -1.940527075673808 8.000000000000000
-0.921188377073125 -5.509525302583974 -2.054956669648377 5.000000000000000
-0.934861553302494 -5.511971620643693 -2.167076078354287 11.000000000000000
-0.947202776106770 -5.504817054880901 -2.277020002816837 6.000000000000000
-0.957507523368601 -5.484833268349325 -2.382208924737919 6.000000000000000
-0.955698676442752 -5.394460950240648 -2.456511163454040 7.000000000000000
-0.934151038231948 -5.196448388393738 -2.477198010763430 15.000000000000000
-0.946656880494278 -5.186637624505892 -2.585152781301857 20.000000000000000
-0.956961288144678 -5.167623311768960 -2.690187800257537 19.000000000000000
-0.968494293158436 -5.149945642407666 -2.797083960907473 19.000000000000000
-0.980492070355066 -5.137103791452040 -2.908101775354489 21.000000000000000
-0.992413745115513 -5.125307944119244 -3.021813600547520 21.000000000000000
-0.822421914882487 -5.503316009807617 -1.099417614064916 11.000000000000000
-0.834821913045915 -5.500789090342119 -1.201355799532964 22.000000000000000
-0.850014795047579 -5.515799783247628 -1.307383493595377 5.000000000000000
-0.862949569707642 -5.517132396747199 -1.412150189216397 8.000000000000000
-0.875954031953138 -5.516551851961609 -1.517005009393174 14.000000000000000
-0.886997271505956 -5.506665143275737 -1.619487215192821 7.000000000000000
-0.898550774383651 -5.498578713704151 -1.723503012777797 16.000000000000000
-0.913272791512720 -5.507344782204211 -1.833701790971100 6.000000000000000
-0.927326317675387 -5.513983363591264 -1.944853044984472 6.000000000000000
-0.940139297090138 -5.510978042738167 -2.054067943015681 12.000000000000000
-0.950167842169719 -5.491326024748356 -2.157567046844187 6.000000000000000
-0.960702051113654 -5.473342346103732 -2.262647814250752 9.000000000000000
-0.933668019987287 -5.243537740855330 -2.276145862786212 9.000000000000000
-0.941166289585722 -5.208972281105703 -2.370825550313620 19.000000000000000
-0.952851228454655 -5.197798899473590 -2.476662499627994 19.000000000000000
-0.964830510769876 -5.184408888212667 -2.582903514517921 20.000000000000000
-0.975231576285884 -5.165383598361957 -2.687927018054661 19.000000000000000
-0.988196737019615 -5.154624746477287 -2.798573731733318 20.000000000000000
-0.999655600936853 -5.138267631496272 -2.907754877329463 21.000000000000000
-1.011038697546997 -5.123025348948389 -3.019509235967778 21.000000000000000
-0.839953450253018 -5.505061760481849 -1.098066124916226 13.000000000000000
-0.854893131298563 -5.517958467783426 -1.203426807859836 5.000000000000000
-0.868496247749007 -5.521319194682978 -1.307038108882526 15.000000000000000
-0.880373682735049 -5.514938138203094 -1.409964364989594 13.000000000000000
-0.891056023594101 -5.499095461631117 -1.510613208827698 8.000000000000000
-0.904064723362241 -5.500647816650644 -1.616154872884547 16.000000000000000
-0.917624037164263 -5.503877198533052 -1.723630444696983 5.000000000000000
-0.933172497084720 -5.516323659724232 -1.835185650513682 9.000000000000000
-0.945501211168467 -5.511699213707130 -1.942575413542332 11.000000000000000
-0.956530440759592 -5.497577805946752 -2.047638587119796 6.000000000000000
-0.957561400118782 -5.426555407851275 -2.130736156947320 8.000000000000000
-0.937436660281296 -5.237588640076721 -2.163888570444406 17.000000000000000
-0.948274115290029 -5.223194497337746 -2.266053716320864 18.000000000000000
-0.958435164652133 -5.203131756876656 -2.366946969355227 20.000000000000000
-0.970901250722523 -5.195534488716453 -2.474402582019208 20.000000000000000
-0.983664231218340 -5.185659062893319 -2.582386641007506 20.000000000000000
-0.994838487686103 -5.170088523577726 -2.689279651094011 20.000000000000000
-1.006585167071493 -5.152316115419193 -2.796270542744983 20.000000000000000
-1.018834150951753 -5.139376312837140 -2.907378903394422 20.000000000000000
-1.031019482719216 -5.127481700490936 -3.021180272241956 21.000000000000000
-0.859915280897771 -5.522268744064403 -1.099777081052276 6.000000000000000
-0.872632509695859 -5.519614035417493 -1.202093758008969 22.000000000000000
-0.885164819658183 -5.515245612280261 -1.303934460877084 9.000000000000000
-0.897788461587000 -5.512694834792548 -1.407754075360044 13.000000000000000
-0.909199702320821 -5.500648685406593 -1.509435636598810 15.000000000000000
-0.922368829746406 -5.502162566975075 -1.615025333699289 4.000000000000000
-0.938018062610200 -5.516655663861269 -1.726084702615834 12.000000000000000
-0.950551266883342 -5.510258716869329 -1.831654214690116 9.000000000000000
-0.959759629075159 -5.487028646986953 -1.932406293081773 7.000000000000000
-0.936758369837343 -5.280745423743094 -1.965491166644113 10.000000000000000
-0.944707228160694 -5.251613051806091 -2.060700998971190 20.000000000000000
-0.955816902950763 -5.238960079608722 -2.163149401289654 19.000000000000000
-0.966094679875327 -5.220907205519484 -2.263796152676147 18.000000000000000
-0.977691160637013 -5.208011706814356 -2.367942156408571 20.000000000000000
-0.990297277138258 -5.200338146960497 -2.475506101822419 20.000000000000000
-1.001830999603317 -5.183326461909321 -2.580084773317424 20.000000000000000
-1.013799644296743 -5.171239258408160 -2.688782403528041 19.000000000000000
-1.025653054212619 -5.153419044996459 -2.795820444708871 20.000000000000000
-1.038719998141716 -5.143858993361805 -2.908913099745566 21.000000000000000
-1.050344546939694 -5.128485222563734 -3.020819699131255 21.000000000000000
-0.878139774544282 -5.527783037153102 -1.099136584108517 26.000000000000000
-0.889141217138017 -5.513496243434436 -1.199054239649182 6.000000000000000
-0.900541256250650 -5.501437600985105 -1.298994137114461 24.000000000000000
-0.914558183182228 -5.506575840247268 -1.404543287043701 12.000000000000000
-0.928641622642841 -5.509764843473443 -1.510317882539742 4.000000000000000
-0.943924690257922 -5.522563206933730 -1.619421441300358 15.000000000000000
-0.954582440359980 -5.506771478382401 -1.721436681795325 7.000000000000000
-0.958019243596716 -5.447981495938532 -1.809446531072344 6.000000000000000
-0.941354685172151 -5.280000689872894 -1.858068909283563 18.000000000000000
-0.952306174251623 -5.267350161148971 -1.959115930803010 21.000000000000000
