# This PCD file was generated using the MATLAB® pcwrite function
# from Computer Vision Toolbox®.
# .PCD v.7 - Point Cloud Data file format
VERSION .7
FIELDS x y z intensity
SIZE 8 8 8 8
TYPE F F F F
COUNT 1 1 1 1
WIDTH 636
HEIGHT 1
VIEWPOINT 0 0 0 1 0 0 0
POINTS 636
DATA ascii
6.622522546654439 -1.581816275881289 -1.896490545299564 82.000000000000000
6.604710109093454 -1.523857297827163 -2.003069472259414 88.000000000000000
6.648560539011067 -1.478634679922233 -2.129032231422563 52.000000000000000
9.769307267454069 -3.078125059362386 -1.354992853484629 0.000000000000000
9.134629671474043 -2.804441916552862 -1.417478854060034 122.000000000000000
9.147614763390191 -2.734776303799032 -1.570706436220692 59.000000000000000
9.361994738766882 -2.723495036754590 -1.761843720672842 24.000000000000000
6.604781293546986 -1.868669808562504 -1.352387966146839 1.000000000000000
6.518154131774976 -1.791122461568089 -1.442668029066658 40.000000000000000
6.565054516811865 -1.751419184583399 -1.562489689937615 81.000000000000000
6.628843397203268 -1.714526254967019 -1.688057740832166 99.000000000000000
6.607972211428232 -1.654503897798831 -1.793113522664070 99.000000000000000
6.637828349584480 -1.606069303544318 -1.912129753354942 85.000000000000000
6.605030383595960 -1.544389752636228 -2.014499919018715 96.000000000000000
6.637636992210230 -1.496725605632265 -2.137056765995479 80.000000000000000
9.671831194471437 -3.077984269076147 -1.356205804798422 0.000000000000000
9.136062634029173 -2.833708947470160 -1.431795078956300 121.000000000000000
9.133911187885477 -2.759448788887921 -1.582622125880176 108.000000000000000
9.264990744848786 -2.724405688308442 -1.758242344894165 28.000000000000000
9.490885523972045 -2.715014529927406 -1.958541312594908 27.000000000000000
6.514827989430350 -1.810618523399031 -1.452491938311262 25.000000000000000
6.557900169097817 -1.770019476617727 -1.571547143594722 81.000000000000000
6.632880320379894 -1.736275635689747 -1.700100459510340 107.000000000000000
6.608256038648252 -1.675163791557477 -1.804295540958768 130.000000000000000
6.596923197636559 -1.616684163822210 -1.911562878623431 82.000000000000000
6.605268823027099 -1.564946195068406 -2.025937605674742 97.000000000000000
6.622936920619214 -1.513926650753741 -2.143853689419228 82.000000000000000
9.570675407348618 -3.076113608330711 -1.356625709551071 0.000000000000000
9.137380988137233 -2.863014242728502 -1.446123827188370 121.000000000000000
9.135219190970526 -2.788681727734892 -1.597147630722123 123.000000000000000
9.179399062106764 -2.728161948956310 -1.756548103201392 35.000000000000000
9.393794123971585 -2.716788297524035 -1.953580636388825 28.000000000000000
6.534012229986486 -1.836464768797410 -1.467384520619215 5.000000000000000
6.546922690742801 -1.787575073234420 -1.579684347896122 90.000000000000000
6.633075125799823 -1.757076381962417 -1.711192848116635 105.000000000000000
6.604713758402235 -1.694886750155941 -1.814456137171151 108.000000000000000
6.589647170870539 -1.635432983269480 -1.920688709987171 96.000000000000000
6.601699712208096 -1.584632114536930 -2.036233280203857 81.000000000000000
6.604472837712994 -1.530205889700764 -2.149407469754480 77.000000000000000
9.499782878696415 -3.083494133619201 -1.361098521622284 1.000000000000000
9.138584498183297 -2.892357451889366 -1.460464905454403 121.000000000000000
9.136412261920597 -2.817952609560250 -1.611685475053837 122.000000000000000
9.135321886334145 -2.743912274370704 -1.762622893196989 108.000000000000000
9.300565372656131 -2.719145266629125 -1.949150781216826 29.000000000000000
6.549314011244380 -1.861373089286215 -1.481485809786629 0.000000000000000
6.622233099483148 -1.828937342132790 -1.608773748748421 62.000000000000000
6.629440078282976 -1.776896285206911 -1.721319215042139 107.000000000000000
6.597357730168862 -1.713640629987741 -1.823579658648446 100.000000000000000
6.604694576120985 -1.659789345344729 -1.936364863665459 105.000000000000000
6.627828042948456 -1.611559219455676 -2.055759790270603 104.000000000000000
6.597099096740961 -1.549016312520270 -2.158558771802541 78.000000000000000
6.608512592237135 -1.496703870237454 -2.276256321915316 0.000000000000000
9.410103282082138 -3.084336254796341 -1.362659931125827 1.000000000000000
9.139672929932017 -2.921738223509522 -1.474818120024060 82.000000000000000
9.137490166320703 -2.847261082651248 -1.626235464996406 121.000000000000000
9.140148251096324 -2.774292617955764 -1.778101914384259 108.000000000000000
9.207429613426331 -2.721006789138158 -1.944473699298571 31.000000000000000
9.422386889470648 -2.707639185468241 -2.146767650783044 27.000000000000000
6.678543906796511 -1.865511588785850 -1.633491290793089 68.000000000000000
6.629474368088029 -1.797733390943079 -1.732420346784267 103.000000000000000
6.604879494606842 -1.736303712890108 -1.836845197159002 134.000000000000000
6.593535435642956 -1.677615557437686 -1.944395150262335 99.000000000000000
6.586905549073736 -1.622179701633919 -2.054495632311860 90.000000000000000
6.597072225352377 -1.569571167556465 -2.170134650997416 82.000000000000000
6.608439340238364 -1.517243327117652 -2.287976873289346 42.000000000000000
9.316747380138271 -3.083460449950426 -1.363434599927026 3.000000000000000
9.133122885058423 -2.948727269996916 -1.487957611492542 47.000000000000000
9.138452671140996 -2.876606794293813 -1.640797406244485 122.000000000000000
9.137333273579870 -2.802425899717693 -1.792128824644489 120.000000000000000
9.144432709744487 -2.731346950514543 -1.945943024055422 87.000000000000000
9.329187513352048 -2.710342328960834 -2.140796300575886 28.000000000000000
6.693442749141779 -1.890789003623450 -1.648224835311609 67.000000000000000
6.629426107025434 -1.818593626644674 -1.743528236828114 95.000000000000000
6.604838910572860 -1.757047038785529 -1.848049963847767 129.000000000000000
6.582319327276969 -1.695401280278637 -1.952401283698008 99.000000000000000
6.586836296923144 -1.642776709261808 -2.065935207368021 111.000000000000000
6.600664971979477 -1.591041277374672 -2.182941497469214 101.000000000000000
6.593524692697714 -1.534371027720591 -2.294567862600096 46.000000000000000
9.234758537868153 -3.085857094318563 -1.365629796363217 4.000000000000000
9.141503628520896 -2.980611043356086 -1.503560181024689 80.000000000000000
9.131786762542562 -2.903600579111378 -1.654010338672787 123.000000000000000
9.138165501303735 -2.831738228361889 -1.806899520398451 122.000000000000000
9.137732046712594 -2.758347470801636 -1.959313214573884 108.000000000000000
9.243577746032830 -2.714751211104351 -2.136309976303560 28.000000000000000
6.700741456959054 -1.914036745107634 -1.661151186788251 78.000000000000000
6.625560333044540 -1.838440415696391 -1.753654216520698 93.000000000000000
6.600988561340776 -1.776809979162721 -1.858212127555947 108.000000000000000
6.582202711589698 -1.716054929458121 -1.963711522251602 101.000000000000000
6.586684648743322 -1.663396509609698 -2.077381378039989 108.000000000000000
6.593073449944915 -1.609846486059778 -2.192076817758092 99.000000000000000
6.571190424905805 -1.549698751214515 -2.298546101367216 57.000000000000000
9.152842323152111 -3.087823876958248 -1.367610000110403 15.000000000000000
9.145998408144743 -3.011338057923006 -1.518571769498659 119.000000000000000
9.143782621964501 -2.936613529101963 -1.670641895486660 122.000000000000000
9.142631831613649 -2.862261114836915 -1.822429285886661 121.000000000000000
9.138426164348525 -2.787627911352561 -1.974293257497090 118.000000000000000
9.150563920415761 -2.716485823048195 -2.129855561197392 60.000000000000000
6.696728389496172 -1.934111486179355 -1.671306565638115 56.000000000000000
6.636542322437688 -1.862476326883613 -1.767751095118171 82.000000000000000
6.615678943400572 -1.801643728633834 -1.873642439987059 123.000000000000000
6.578289191530223 -1.735751133624005 -1.973913704982975 104.000000000000000
6.571632796877877 -1.680250237451201 -2.084134717945131 110.000000000000000
6.585416395227910 -1.628631952676384 -2.201198052012796 105.000000000000000
6.567230826400648 -1.569320956782132 -2.308940667790640 45.000000000000000
6.709232312485019 -1.544417112843132 -2.474840107696696 0.000000000000000
9.153464589083200 -3.117446281355394 -1.381824409707453 0.000000000000000
9.142871237783465 -3.039629870785161 -1.532348451868054 119.000000000000000
9.144393180819367 -2.966079424778185 -1.685243662053573 123.000000000000000
9.143227562663119 -2.891656762477716 -1.837228049365208 121.000000000000000
9.139004006123290 -2.816944509806423 -1.989284646483231 118.000000000000000
9.139891275860695 -2.742402267634169 -2.142432558546600 107.000000000000000
6.696373055005746 -1.955277143825308 -1.682395672553683 52.000000000000000
6.654867451872316 -1.888713164604375 -1.783882781984456 111.000000000000000
6.619095951195294 -1.823511157351000 -1.885941634273577 112.000000000000000
6.578011865675053 -1.756439271376663 -1.985231719725439 102.000000000000000
6.571333279767734 -1.700872687932986 -2.095573197399855 109.000000000000000
6.574004767369434 -1.646473544824668 -2.209065455072899 108.000000000000000
6.581581582607022 -1.593395102585298 -2.325828007085914 44.000000000000000
6.727001736137654 -1.569559307806240 -2.493645367986348 29.000000000000000
9.147125031302144 -3.070449984028873 -1.547392825788861 116.000000000000000
9.141144082758643 -2.994354937282298 -1.699160783392720 121.000000000000000
9.143706848863612 -2.921088223532310 -1.852037972716962 120.000000000000000
9.139465344600636 -2.846296908936897 -2.004287185265674 118.000000000000000
9.140329721129731 -2.771687590646567 -2.157634002533396 121.000000000000000
6.714575209823778 -1.981967172912350 -1.698205487306460 19.000000000000000
6.643291539041049 -1.906533168865296 -1.792040402257179 104.000000000000000
6.614992725306490 -1.843351801048126 -1.896127997186593 92.000000000000000
6.570240391821405 -1.775147145769483 -1.994306346714308 93.000000000000000
6.563559681506241 -1.719580755457831 -2.104647793043945 109.000000000000000
6.566221242508770 -1.665208457866823 -2.218153147615237 87.000000000000000
6.617849784012747 -1.622978965202588 -2.350588759173407 79.000000000000000
6.708047592380816 -1.586174041356212 -2.498874428394038 57.000000000000000
9.140034149119348 -3.097524458970075 -1.560542847541920 31.000000000000000
9.145265008524339 -3.025118277570248 -1.714480484161527 120.000000000000000
9.144069464153207 -2.950555139971103 -1.866858859349299 121.000000000000000
9.136076371256372 -2.874510042713939 -2.018475799435728 118.000000000000000
9.140651344544601 -2.801008322186304 -2.172846376649312 121.000000000000000
6.743820520274639 -2.012117789792787 -1.716916652118584 1.000000000000000
6.653962479633859 -1.930783472833831 -1.806227699006012 99.000000000000000
6.633073765618266 -1.869466553911675 -1.912728737608212 95.000000000000000
6.580910241426662 -1.798893521109085 -2.009016300082559 74.000000000000000
6.559412193773198 -1.739247317125113 -2.114898210801778 109.000000000000000
6.569413481306080 -1.686757971949242 -2.230976032076451 86.000000000000000
6.620934124459259 -1.644593775755155 -2.363671430702309 91.000000000000000
6.670776704307873 -1.598326301311606 -2.497216689796649 50.000000000000000
9.145525826799554 -3.054690518183713 -1.729115146385819 115.000000000000000
9.144315183883240 -2.980057152787923 -1.881690512257512 118.000000000000000
9.143766714481609 -2.906292949872063 -2.035154923012521 120.000000000000000
9.140855921633690 -2.830364102817482 -2.188069483681105 120.000000000000000
9.138407412935676 -2.755805155573814 -2.341929097926552 102.000000000000000
6.668235848219090 -1.956207858990598 -1.821465751791472 105.000000000000000
6.628794973773252 -1.889371692280148 -1.922937285531935 107.000000000000000
6.602560955936131 -1.825791582282435 -2.027167955847359 82.000000000000000
6.555190708885505 -1.758914455476353 -2.125144397083986 107.000000000000000
6.568837981140484 -1.707394505306750 -2.242560050650708 92.000000000000000
6.623926104468420 -1.666250728787298 -2.376769966016406 78.000000000000000
6.640811353586372 -1.612063042656519 -2.498210021711412 63.000000000000000
6.760065095898879 -1.583107558300118 -2.662590159612012 3.000000000000000
9.138209853519077 -3.081781748781284 -1.742338063042134 56.000000000000000
9.148171646129184 -3.010820805347869 -1.897305882308514 117.000000000000000
9.140148087054641 -2.934565323438343 -2.049359731522174 119.000000000000000
9.140943229344551 -2.859754572132271 -2.203303126006178 119.000000000000000
9.138466927750610 -2.785119785214814 -2.357356568789132 115.000000000000000
6.660139421010997 -1.975139384453146 -1.830634672641527 76.000000000000000
6.620740721559981 -1.908210416636234 -1.932061413029714 94.000000000000000
6.612997527289444 -1.849738843103069 -2.041966188843344 91.000000000000000
6.554577541956467 -1.779581716434570 -2.136586567638131 106.000000000000000
6.564507924090400 -1.727086332245749 -2.252889814332756 118.000000000000000
6.637803098407753 -1.690745695620609 -2.393843148476695 59.000000000000000
6.625418474894268 -1.629240257747036 -2.504641733874540 82.000000000000000
6.722755073710974 -1.595543264416729 -2.660455207340980 39.000000000000000
9.148178357477365 -3.040402471716706 -1.912163578191370 118.000000000000000
9.140141166235919 -2.964057333459765 -2.064404898570742 118.000000000000000
9.137197227736856 -2.888004905597157 -2.217645257178132 120.000000000000000
9.142119165672559 -2.815611382047326 -2.373757718455703 116.000000000000000
6.711237437489954 -2.011814125422301 -1.856178865945998 91.000000000000000
6.656976059892511 -1.939953949302458 -1.954191498447317 89.000000000000000
6.615947744601932 -1.871683592299052 -2.054510153543933 104.000000000000000
6.553881267948877 -1.800270090827402 -2.148034433080884 94.000000000000000
6.563770534199696 -1.747754594632922 -2.264480128265945 117.000000000000000
6.669833724754342 -1.720057369342104 -2.417585723464950 84.000000000000000
6.635470511859695 -1.652704225145985 -2.520722878545963 58.000000000000000
6.670939420685993 -1.604301706597230 -2.652455330396124 37.000000000000000
9.148067471134540 -3.070018139738103 -1.927031438573082 89.000000000000000
9.147447533995228 -2.996017150995292 -2.081150845985618 119.000000000000000
9.140765151543800 -2.918638130347314 -2.233801224013723 120.000000000000000
9.134527389237448 -2.842698260841883 -2.387273753275356 115.000000000000000
6.710334310264153 -2.033113025502785 -1.867458398471742 45.000000000000000
6.685652678413787 -1.969753098835461 -1.974248462895859 91.000000000000000
6.626171549191434 -1.895777687911323 -2.069370329038182 94.000000000000000
6.567794800364157 -1.825062236962758 -2.164329755726247 63.000000000000000
6.562949769720031 -1.768443584176417 -2.276075923539690 109.000000000000000
6.665196858127855 -1.740047893856234 -2.428126884964842 56.000000000000000
6.670872723208999 -1.682673348849025 -2.546559151447176 59.000000000000000
6.637279962992175 -1.617203243079431 -2.651556592538793 70.000000000000000
6.768123678943867 -1.589472755056579 -2.824197979507136 0.000000000000000
9.136696455443568 -3.095891968427706 -1.939543967253573 0.000000000000000
9.147195907906594 -3.025597836323360 -2.096226312975819 116.000000000000000
9.144205936684076 -2.949326004759696 -2.249977312143375 119.000000000000000
9.137939278724271 -2.873267829744320 -2.403700005596471 117.000000000000000
6.709346355740605 -2.054432234374382 -1.878743109920501 0.000000000000000
6.688361616952497 -1.992053504674168 -1.986725374930305 97.000000000000000
6.636283775110559 -1.919955172168772 -2.084266248123481 68.000000000000000
6.599931508659613 -1.855114657202493 -2.186748657169931 76.000000000000000
6.562045492524417 -1.789153044963631 -2.287677061068134 97.000000000000000
6.656838964717309 -1.759074235878152 -2.437328215585888 56.000000000000000
6.684302793864397 -1.707303069454523 -2.564139697631114 66.000000000000000
6.632565114792866 -1.637082916887781 -2.662191488467137 78.000000000000000
6.734398503163121 -1.602850978811807 -2.822998678766311 52.000000000000000
9.150532322362972 -3.056449700530647 -2.112167002279084 114.000000000000000
9.143817305598011 -2.978862111341358 -2.265256189366058 118.000000000000000
9.141223680268597 -2.903891589979674 -2.420146123882180 115.000000000000000
6.711963356443410 -2.076913280145053 -1.891072481032400 0.000000000000000
6.690976494830740 -2.014394947343884 -1.999217482351026 92.000000000000000
6.664654006119583 -1.949589409245639 -2.104999789565647 99.000000000000000
6.602588884046805 -1.877042356759762 -2.199499038233781 97.000000000000000
6.608548516688344 -1.822983207864974 -2.315926321457270 77.000000000000000
6.684824550194867 -1.787816266176842 -2.459912545499432 88.000000000000000
6.719380370881936 -1.737665063697732 -2.590156666653753 56.000000000000000
6.642230337441402 -1.660575361831832 -2.678650707361850 37.000000000000000
6.718663011617034 -1.620402068987798 -2.829291160546963 72.000000000000000
9.138935108529317 -3.082361737477326 -2.124685200547604 28.000000000000000
9.147007529196973 -3.009647588683221 -2.281466776603855 120.000000000000000
9.148071984430487 -2.935753866827765 -2.437595577835635 114.000000000000000
9.143051292869794 -2.858780692633803 -2.591864581218735 113.000000000000000
6.697174812351207 -2.037896238229879 -2.012829961774482 76.000000000000000
6.667179630608342 -1.971814449629384 -2.117660867427537 100.000000000000000
6.634427703080858 -1.907427536404531 -2.222069586209888 78.000000000000000
6.643901133152578 -1.854049786325140 -2.340455751071055 89.000000000000000
6.632651893766065 -1.795092809578737 -2.452995446616271 67.000000000000000
6.743409602346506 -1.765407879634754 -2.612067754386255 78.000000000000000
6.720358380968982 -1.701511562494879 -2.722929605046045 24.000000000000000
6.699284758155694 -1.637011347193102 -2.834027801258103 47.000000000000000
6.779734464695321 -1.596454860892997 -2.990473618902796 32.000000000000000
9.150069673834459 -3.040486522570081 -2.297696818565209 115.000000000000000
9.147408719826181 -2.965300075626420 -2.453097057586157 114.000000000000000
9.146044088806971 -2.889404572068622 -2.608604750533898 115.000000000000000
6.692250064274947 -2.058070187928692 -2.023136223483512 2.000000000000000
6.654952465750997 -1.989697339793728 -2.125654763740453 68.000000000000000
6.662442856295836 -1.936957559713548 -2.243504980707888 116.000000000000000
6.660856466300475 -1.880201268250359 -2.358639083499827 49.000000000000000
6.624104899488535 -1.814032202982803 -2.462140826011654 82.000000000000000
6.709385989026299 -1.777970778452508 -2.611515950789228 56.000000000000000
6.837846883778688 -1.753086745003447 -2.783573397360180 0.000000000000000
6.661920376362802 -1.649093728298468 -2.831092152207125 55.000000000000000
6.760255779153210 -1.613338620785332 -2.995113402712506 72.000000000000000
9.138252404362690 -3.066428664086061 -2.310216925362402 52.000000000000000
9.150308712070514 -2.996083993232594 -2.469601421141042 110.000000000000000
9.148908376173987 -2.920081346271374 -2.625364061522022 114.000000000000000
6.679912985513130 -2.075962460281431 -2.031206136628023 0.000000000000000
6.675607598147436 -2.017491642255577 -2.144203038190440 3.000000000000000
6.653798205124303 -1.955944254047329 -2.252668533216511 114.000000000000000
6.717709276924709 -1.917904323379758 -2.391125483340627 41.000000000000000
6.637253474793497 -1.838978623941015 -2.479399913694777 55.000000000000000
6.682589504704694 -1.792304726173813 -2.613705660579568 50.000000000000000
6.792946017741537 -1.763310945547217 -2.778294964427424 39.000000000000000
6.671165387919146 -1.672673347556961 -2.847955800113859 48.000000000000000
6.751442622094237 -1.632726821154843 -3.004471608794280 78.000000000000000
9.789914558787581 -4.207613566023579 -0.656153191452481 22.000000000000000
9.145725099676003 -3.024488248333667 -2.484127057307630 111.000000000000000
9.147972898809963 -2.949626970774617 -2.641082462915043 112.000000000000000
9.147689888590349 -2.872662840761621 -2.797806624034131 112.000000000000000
6.630328662036251 -2.025333021809120 -2.141565778618555 0.000000000000000
6.656022894628072 -1.978158254025788 -2.265538600027944 37.000000000000000
6.701638417956921 -1.934971775141015 -2.397770369399764 0.000000000000000
6.675634215573679 -1.871133608618797 -2.506222423999749 31.000000000000000
6.644945428769215 -1.803573438607022 -2.611574065622177 71.000000000000000
6.766047307995468 -1.778029501664561 -2.780287560159514 57.000000000000000
6.698196907093769 -1.700878280681121 -2.872529768010542 42.000000000000000
6.735434547672594 -1.650345504116049 -3.010628035985584 88.000000000000000
9.714900028924331 -4.208086749733739 -0.665122044982218 21.000000000000000
9.144704323327998 -3.054129474302618 -2.499655174839568 82.000000000000000
9.146917948067999 -2.979203814162950 -2.656809493544551 115.000000000000000
9.146604025405754 -2.902166054820186 -2.813728308255911 117.000000000000000
9.165818139012851 -2.829667803552993 -2.977027706300122 2.000000000000000
6.636310764309899 -1.993849413946038 -2.270948690307993 0.000000000000000
6.717441708439944 -1.904560349095338 -2.534523775853224 1.000000000000000
6.639753113185513 -1.823563921960619 -2.622158885053857 76.000000000000000
6.721176728766189 -1.787846494151669 -2.774803109058626 41.000000000000000
6.722936997671578 -1.668783405814562 -3.018346578810430 85.000000000000000
9.639953503948137 -4.208177234602804 -0.673899698685744 20.000000000000000
9.830736815753372 -4.208425914313025 -0.857758114581178 1.000000000000000
9.147231653163066 -3.085038617382327 -2.516200670183398 0.000000000000000
9.153065768741339 -3.011220482222139 -2.674684699276042 112.000000000000000
9.152705977798380 -2.934042581524984 -2.831919386877389 118.000000000000000
9.215592670086696 -2.875103670034765 -3.009846279396500 10.000000000000000
6.645284547038690 -1.846552813568340 -2.637023321017781 15.000000000000000
6.676334770212632 -1.797434366344063 -2.769203447696678 61.000000000000000
6.819613663799765 -1.775496047605442 -2.951285018674576 25.000000000000000
6.728152889416583 -1.691645569797012 -3.034053058669449 71.000000000000000
9.416161475322237 -4.222326641245770 -0.508020477228575 22.000000000000000
9.572384096362438 -4.211099974876610 -0.683007842781981 21.000000000000000
9.748155983984983 -4.206013014812421 -0.864877697207116 0.000000000000000
9.144448796631950 -3.038449674273076 -2.688288634556619 109.000000000000000
9.151370634505932 -2.963627741854533 -2.847867643977274 115.000000000000000
9.243266918459335 -2.913974357097256 -3.035639326450840 13.000000000000000
6.670910687408559 -1.817524799528638 -2.779902552917392 58.000000000000000
6.735530844757140 -1.775305996264434 -2.928147683938213 76.000000000000000
6.729713848237003 -1.713661832356790 -3.048174969579450 60.000000000000000
9.341704287450755 -4.220742538806581 -0.517290466694248 20.000000000000000
9.497569665370643 -4.210446683850660 -0.691413894771000 32.000000000000000
9.680287920276534 -4.209534146945723 -0.873104831189355 0.000000000000000
9.860339773230367 -4.205483202200915 -1.059997449269223 0.000000000000000
9.838211889806281 -3.949134064642660 -1.564155667046350 0.000000000000000
9.143034184704652 -3.068117947033919 -2.704040340011684 19.000000000000000
9.149915074377207 -2.993242895904886 -2.863823859422870 114.000000000000000
9.245292316339350 -2.944934248413531 -3.053115827799137 13.000000000000000
6.740503510580981 -1.858314769715128 -2.822034486058607 44.000000000000000
6.729921630700581 -1.795563202146524 -2.938997725709521 91.000000000000000
6.780802913408837 -1.748511527349640 -3.084886268281484 41.000000000000000
9.278228993785230 -4.223743791462421 -0.526990628916460 20.000000000000000
9.433760364401209 -4.214295120647169 -0.700441305993726 24.000000000000000
9.612472562561296 -4.212713069926603 -0.881160498703770 0.000000000000000
9.777555738243374 -4.203329698238817 -1.065757586624470 0.000000000000000
9.823282538509540 -4.140181223816232 -1.240098222953746 0.000000000000000
9.814619170448053 -4.054350885682150 -1.407989145853725 1.000000000000000
9.799227386097016 -3.966480249615455 -1.573378868860505 1.000000000000000
9.843136362545016 -3.902561748503042 -1.748857440577958 0.000000000000000
9.151978051994510 -3.024090091524578 -2.880933330390284 112.000000000000000
9.247186413720936 -2.975944054554326 -3.070609778864404 13.000000000000000
6.809813965843864 -1.899531428408938 -2.864366963760850 24.000000000000000
6.724235481558478 -1.815816696665341 -2.949841167361625 95.000000000000000
6.775023664578415 -1.768895958485978 -3.095867799576466 36.000000000000000
9.211170167381566 -4.224761442914674 -0.536319772152176 18.000000000000000
9.373635903819368 -4.219461684195327 -0.709583707701921 24.000000000000000
9.544711646672390 -4.215550098103410 -0.889044966386251 0.000000000000000
9.705819145911436 -4.205497203857242 -1.072516654979287 0.000000000000000
9.740428226645726 -4.138306494992355 -1.244513284407730 1.000000000000000
9.731696959894670 -4.053034457582616 -1.411198769282632 1.000000000000000
9.712605680380234 -3.964214192274770 -1.574789108170660 1.000000000000000
9.760079923673249 -3.902511073710953 -1.749738038414253 0.000000000000000
9.855831191265272 -3.859545472732157 -1.934967770583074 0.000000000000000
9.143008547354938 -3.051348911838215 -2.894608871888958 51.000000000000000
9.230820817960204 -3.001109585376863 -3.082068182774612 10.000000000000000
6.722023371622004 -1.837036687592524 -2.962242731412575 98.000000000000000
6.733818791557285 -1.779932697885628 -3.090618720170376 66.000000000000000
9.147795859326298 -4.227116125181817 -0.545696051223113 20.000000000000000
9.302647555365624 -4.219384493402980 -0.717734601005455 23.000000000000000
9.473366104709458 -4.216425096779832 -0.896413994417274 0.000000000000000
9.634147432724719 -4.207301170552261 -1.079094113037999 0.000000000000000
9.664971310312298 -4.139132944375757 -1.249660769818544 1.000000000000000
9.652524770776223 -4.052825580910035 -1.414731904027278 1.000000000000000
9.633404204082289 -3.964510065106416 -1.577174493973187 1.000000000000000
9.677118684401103 -3.902031987106481 -1.750405764276655 0.000000000000000
9.838580740251716 -3.885949965865637 -1.947628784018363 30.000000000000000
9.152823843201363 -3.006006453919545 -3.072830111528889 2.000000000000000
6.719724374902147 -1.858272873567892 -2.974647248449414 50.000000000000000
6.699694994959845 -1.792651045544590 -3.088519581193857 79.000000000000000
9.077230502651723 -4.225781874366542 -0.554470875704327 19.000000000000000
9.231728506328801 -4.218947226514825 -0.725705922064180 23.000000000000000
9.394817013275164 -4.213677039612783 -0.902903700798481 0.000000000000000
9.569825416298130 -4.211947401238400 -1.086316984482611 0.000000000000000
9.585944903669882 -4.138000759611231 -1.254139552546798 1.000000000000000
9.569789960018495 -4.050665876048836 -1.417522515427085 1.000000000000000
9.557942529713314 -3.965914834364632 -1.579961431574832 2.000000000000000
9.601561952823946 -3.904096127022862 -1.752194480372753 0.000000000000000
9.766437585182466 -3.890465935304138 -1.949316726695114 19.000000000000000
9.862428074303635 -3.847429909729665 -2.137708017692100 0.000000000000000
9.154459192963374 -3.036884947090599 -3.090241204583048 1.000000000000000
6.812946245059545 -1.906276264245990 -3.029569320266724 14.000000000000000
6.683198137064996 -1.809975850433921 -3.094496094936455 64.000000000000000
9.017584519383171 -4.229176808747932 -0.563745471050242 19.000000000000000
9.168128117683885 -4.221487404377303 -0.734078274040250 25.000000000000000
9.334511492259351 -4.218731271025326 -0.910965237399961 1.000000000000000
9.487369622589517 -4.208206990129646 -1.091287117393777 0.000000000000000
9.543418750778210 -4.152306259850306 -1.263236823284866 3.000000000000000
9.552759213269169 -4.076072975436474 -1.429921855283515 3.000000000000000
9.555503019876355 -3.997448989113723 -1.594729950984669 3.000000000000000
9.555271849396505 -3.917741228960930 -1.759164445704377 2.000000000000000
9.687064530140470 -3.891683789639064 -1.949353244118395 18.000000000000000
9.372423538061941 -3.221356550772922 -3.018300680179965 9.000000000000000
6.656094814785432 -1.824341013865298 -3.095525429020960 53.000000000000000
8.954371492963164 -4.230569022871832 -0.572640296107369 21.000000000000000
9.104580310153798 -4.223708936395128 -0.742291180451242 25.000000000000000
9.259744706418141 -4.216881417813533 -0.917439414926198 1.000000000000000
9.423171291212618 -4.212158688668520 -1.098163010641230 0.000000000000000
9.551784984404417 -4.188735342664605 -1.279048021310654 4.000000000000000
9.546563698148608 -4.106120501903422 -1.443939050320189 3.000000000000000
9.552938907111997 -4.029009560062741 -1.609504334231146 3.000000000000000
9.556343044652536 -3.950745919404393 -1.774817819729853 2.000000000000000
9.593207494370512 -3.886589813231198 -1.946230611628766 23.000000000000000
9.780000172671446 -3.881513624751054 -2.152451765642708 18.000000000000000
9.312095883505574 -3.231738053955622 -3.015891809567062 28.000000000000000
8.891213782603588 -4.231644422044112 -0.581376777505725 21.000000000000000
9.048313783629078 -4.228989919540690 -0.750944693976363 25.000000000000000
9.199543422840469 -4.221295720713428 -0.925180657795615 1.000000000000000
9.351772370112165 -4.212522413976830 -1.104021942422114 1.000000000000000
9.520056627123273 -4.207599720418065 -1.289484551712069 1.000000000000000
9.558425829161083 -4.144051905087895 -1.460729090681650 3.000000000000000
9.553886807622202 -4.062142463876167 -1.624902911043142 2.000000000000000
9.550002738366699 -3.980764306011139 -1.789123594717871 2.000000000000000
9.557696006685598 -3.904789003397076 -1.954772079485333 54.000000000000000
9.696929406896103 -3.881525231073494 -2.150399488051793 13.000000000000000
9.869563944900490 -3.869044079512757 -2.358348033753193 9.000000000000000
9.266243840842767 -3.246874225791442 -3.018031948792910 20.000000000000000
8.831713363818277 -4.234129426904796 -0.590195777325210 22.000000000000000
8.977648885306527 -4.227197306833479 -0.758239685887146 25.000000000000000
9.128540589782121 -4.220396554193127 -0.931664975221795 1.000000000000000
9.284068428702849 -4.214168063652382 -1.110133749804635 1.000000000000000
9.437527957899325 -4.203716717397681 -1.292894351345008 1.000000000000000
9.555604810137629 -4.175747125659042 -1.475322559654283 3.000000000000000
9.558330873070608 -4.096878091400131 -1.640940225940868 2.000000000000000
9.550813474673129 -4.013841336298904 -1.804797966261152 4.000000000000000
9.554850262947189 -3.936298854818649 -1.969971517106625 54.000000000000000
9.610329410032444 -3.879642582783212 -2.147323464343614 22.000000000000000
9.840821925843642 -3.891262098400252 -2.368256553962992 32.000000000000000
9.252821836620416 -3.273261817800722 -3.030681298303779 14.000000000000000
8.768665909733819 -4.234582250106207 -0.598621191203105 22.000000000000000
8.914268486529611 -4.228464782089946 -0.765975806856894 26.000000000000000
9.068444939397958 -4.224182389427771 -0.939091860232999 1.000000000000000
9.212814210550382 -4.213819036394458 -1.115637687782469 1.000000000000000
9.362345999755473 -4.202660081934929 -1.297097381299248 1.000000000000000
9.541786926211140 -4.202679022132382 -1.488225551357913 2.000000000000000
9.555376056712493 -4.128546317605976 -1.655745668328239 2.000000000000000
9.522467531950419 -4.034668060222643 -1.814956128056369 3.000000000000000
9.559134524585698 -3.970847939736105 -1.986684116906173 52.000000000000000
9.560112423103604 -3.892076953223208 -2.152190383727447 52.000000000000000
9.754029961408628 -3.890229943609604 -2.364044521109109 16.000000000000000
9.253699577459138 -3.304753526299641 -3.048047286467630 14.000000000000000
8.709268510709956 -4.236465492792094 -0.607139305874514 23.000000000000000
8.850947105896793 -4.229414885159870 -0.773553526141064 25.000000000000000
9.001187051197823 -4.224286200280607 -0.945611848205955 1.000000000000000
9.145248112152126 -4.214773075197310 -1.121404874151053 1.000000000000000
9.308941759635223 -4.211032913740334 -1.304149192046326 1.000000000000000
9.473595881936717 -4.205478821720294 -1.492552493486823 0.000000000000000
9.559537858693155 -4.163393446922851 -1.671822638419576 2.000000000000000
9.504937170156836 -4.060018020135404 -1.827139586223976 4.000000000000000
9.498067756146122 -3.978152995980690 -1.989761704382505 17.000000000000000
9.556985825351429 -3.923597196641186 -2.167612274494977 54.000000000000000
9.674592266146322 -3.891661001180412 -2.361377381045486 17.000000000000000
9.261628493858128 -3.338881776583466 -3.067808684346871 15.000000000000000
8.646337569423510 -4.236297004885094 -0.615254680581224 24.000000000000000
8.794871700365352 -4.233506696598826 -0.781611683616321 23.000000000000000
8.941198201517892 -4.227454994985004 -0.952730280063333 1.000000000000000
9.077750925138650 -4.215386957999283 -1.127002633303880 1.000000000000000
9.233903848219359 -4.209272511714473 -1.308001775214627 1.000000000000000
9.391017685096632 -4.201469512723561 -1.494408502336878 0.000000000000000
9.484007095719317 -4.163386128133491 -1.673884511073344 2.000000000000000
8.919459034187774 -3.840783929541677 -1.729197890358555 13.000000000000000
9.426194561804039 -3.980572357693994 -1.990395887299421 5.000000000000000
9.560965349340110 -3.958135991154289 -2.184691526107703 54.000000000000000
9.577180836118675 -3.885354177215519 -2.354066725875690 35.000000000000000
9.255052912325802 -3.367875275480106 -3.082825281922337 13.000000000000000
8.587049298686201 -4.237579718259524 -0.623472913067068 25.000000000000000
8.728075185691399 -4.232103772690285 -0.788558945227742 14.000000000000000
8.877665597565263 -4.228613876097559 -0.959311328339960 1.000000000000000
9.017523990373759 -4.219029547057906 -1.133336121407085 1.000000000000000
9.173374462803295 -4.213753078131557 -1.313729790225201 1.000000000000000
9.319374078050814 -4.201916531184830 -1.497794464641334 1.000000000000000
9.506044324619273 -4.206126212631787 -1.693117710552182 1.000000000000000
8.895383145584058 -3.861279434763125 -1.739133065620465 23.000000000000000
9.423023065799320 -4.011843510937065 -2.005453550986943 4.000000000000000
9.557575660348080 -3.989725314611869 -2.200132589338012 56.000000000000000
9.562920635751487 -3.912495910237421 -2.367049781203127 52.000000000000000
8.531389321571430 -4.240344094886537 -0.631808674155261 26.000000000000000
8.686427328413846 -4.242611035664916 -0.797641440898927 2.000000000000000
8.799840279301115 -4.222566567327926 -0.964161108567508 1.000000000000000
8.960942373567180 -4.224067620771512 -1.139977417652585 1.000000000000000
9.098498266113527 -4.211270094542841 -1.317223402592839 1.000000000000000
9.020848733123737 -4.098874546297218 -1.464162418523526 1.000000000000000
8.803285839145071 -3.925894143857400 -1.582193921595592 19.000000000000000
8.892889357243334 -3.891146164092731 -1.753281611577178 24.000000000000000
9.553160612918207 -4.100411510153974 -2.049137318772215 38.000000000000000
9.557664768287674 -4.022855806613588 -2.216414071473969 41.000000000000000
9.570185550980115 -3.948519734391647 -2.385396492604765 52.000000000000000
8.472205555712611 -4.241047605110486 -0.639737628203115 26.000000000000000
8.616167104939125 -4.238846266905283 -0.803954442308841 1.000000000000000
8.747206501954286 -4.228246328127393 -0.971600432711858 1.000000000000000
8.893635218230132 -4.223713883224023 -1.145092851133618 1.000000000000000
9.020122773423862 -4.206730173560943 -1.320002423941749 1.000000000000000
8.884961061475559 -4.068309686040038 -1.456270316437131 25.000000000000000
8.779218706166471 -3.945889540127273 -1.592108867637792 94.000000000000000
8.890275634623187 -3.921038767854844 -1.767436030357144 22.000000000000000
9.556739082001789 -4.135224336596804 -2.065941384588896 46.000000000000000
9.557616289467672 -4.056030002654641 -2.232709448376019 40.000000000000000
9.566497560095600 -3.980137531071516 -2.401067609718821 47.000000000000000
9.848843925730513 -4.016339657295873 -2.644028949129273 25.000000000000000
9.436139628917655 -3.611036964270883 -3.029848997266878 7.000000000000000
8.416642268351428 -4.243253425879127 -0.647794172839782 27.000000000000000
8.442429116458875 -4.183406297975202 -0.800273927870211 4.000000000000000
8.540751005339780 -4.158752674070206 -0.961588509031514 9.000000000000000
8.840738063488473 -4.229879796289799 -1.151907722747550 0.000000000000000
8.945442715367513 -4.203475645471247 -1.323114176482284 35.000000000000000
8.878657196847376 -4.096679421722485 -1.469424409932617 23.000000000000000
8.762286184415206 -3.969044787783292 -1.603286716397504 65.000000000000000
8.801254977974990 -3.912598064029838 -1.764299068191209 46.000000000000000
9.330063288199851 -4.069729810084981 -2.032638263708285 29.000000000000000
9.564618680913243 -4.092323241167636 -2.250710105394436 54.000000000000000
9.569867019371330 -4.014792251745499 -2.418558332328001 42.000000000000000
9.729722414503298 -4.001484379510811 -2.629250938431525 6.000000000000000
9.335933420890097 -3.604790386150038 -3.014985478012717 23.000000000000000
8.361126732484419 -4.245185403905522 -0.655713847498997 28.000000000000000
8.354676398260979 -4.169741017315165 -0.804379343879761 11.000000000000000
8.481275054161344 -4.159982271683007 -0.967748394441239 21.000000000000000
8.766405686069929 -4.225440086099153 -1.155762703164983 0.000000000000000
8.885191885779294 -4.206626025006154 -1.328180198099151 39.000000000000000
8.947554424811358 -4.160068517892017 -1.495158767985004 21.000000000000000
8.863700522951360 -4.046202957125445 -1.636292965572204 19.000000000000000
8.769814913974219 -3.929429864581492 -1.772543741059841 83.000000000000000
9.549090131529356 -4.198726528865203 -2.096466836306321 34.000000000000000
9.564283139524690 -4.125603883511164 -2.267042263249929 53.000000000000000
9.565913537833410 -4.046475650639262 -2.434246699798321 52.000000000000000
9.589323569202794 -3.977081216012112 -2.608316408408960 22.000000000000000
9.292976570318704 -3.620252920135643 -3.018402765993470 23.000000000000000
8.178630348434814 -4.252619444540772 -0.505032160931112 25.000000000000000
8.302107860859909 -4.245027380318177 -0.663213093203899 29.000000000000000
8.295554089348743 -4.169938384006329 -0.811046376158626 18.000000000000000
8.425425677571951 -4.162678505733576 -0.974173398125264 21.000000000000000
8.706464694835635 -4.227561115685070 -1.161336958306339 1.000000000000000
8.821419873385443 -4.207771362761586 -1.332556781590885 27.000000000000000
8.955239019920620 -4.195369748583138 -1.510821885188505 33.000000000000000
8.882265375780170 -4.086063753690113 -1.654237224522704 8.000000000000000
8.770601988005257 -3.960691731409566 -1.787290065082362 55.000000000000000
8.889142337433061 -3.939792367922174 -1.966617553699060 49.000000000000000
9.345228222069734 -4.063874595268722 -2.231200742058152 42.000000000000000
9.568994924043125 -4.081235855737709 -2.451773650539099 52.000000000000000
9.567288566614460 -4.001306708439059 -2.619341540946660 52.000000000000000
9.264263514838701 -3.641114244714289 -3.026371521239116 12.000000000000000
8.123531100684353 -4.253309950554645 -0.513276651258236 23.000000000000000
8.246697452937113 -4.246402563759500 -0.670854966603991 29.000000000000000
8.240048502412350 -4.171641361745412 -0.817919939154723 21.000000000000000
8.366064689931726 -4.163327031144781 -0.980043690667314 22.000000000000000
8.643015120392457 -4.227640076978635 -1.166281701901995 0.000000000000000
8.761288172532355 -4.210314531006702 -1.337320121675608 33.000000000000000
8.898417459232975 -4.200379172163717 -1.515558488238245 43.000000000000000
9.029430443910670 -4.185772335813565 -1.696440924794324 24.000000000000000
8.792730224501286 -4.001771026553556 -1.806462800662678 11.000000000000000
8.771502535668530 -3.918581730353876 -1.955473469341209 53.000000000000000
9.423665914550318 -4.131124781587435 -2.266191688691986 37.000000000000000
9.568350592781545 -4.114520706487122 -2.468400755449929 53.000000000000000
9.566615245050354 -4.034491276408001 -2.636227777290481 51.000000000000000
9.263953063587460 -3.673136300039251 -3.043623392764372 12.000000000000000
8.064951964826465 -4.251866496227510 -0.521157464975539 21.000000000000000
8.191338955352840 -4.247504786746033 -0.678360674780425 28.000000000000000
8.188144472218012 -4.174880245144947 -0.825014570043508 22.000000000000000
8.313878103346898 -4.167245289657510 -0.986611158722788 22.000000000000000
8.501283841207471 -4.188795603291863 -1.160374269392218 1.000000000000000
8.697649473091577 -4.210833179360469 -1.341384948039464 40.000000000000000
8.820225659263484 -4.194923614525268 -1.516473273080754 46.000000000000000
8.983125344064216 -4.196254948024963 -1.702499181793396 40.000000000000000
8.843244289888814 -4.056127108753812 -1.831628594170043 8.000000000000000
8.764868300355957 -3.946622679967189 -1.968907590361678 31.000000000000000
8.965907897932803 -3.962085293331035 -2.171629732287728 52.000000000000000
9.560427062162352 -4.144751587768669 -2.483185990771294 51.000000000000000
9.569369271041703 -4.069233924642476 -2.654115864272230 50.000000000000000
9.263506045718081 -3.705200788828932 -3.060888572850375 11.000000000000000
8.013492139822789 -4.253876592352112 -0.529359671713981 23.000000000000000
8.136033739194508 -4.248334348721394 -0.685730454451758 27.000000000000000
8.132739269069150 -4.176045990079370 -0.831620027466010 22.000000000000000
8.254632290156417 -4.167324034291112 -0.992197635316012 21.000000000000000
8.384763459391596 -4.161547371233739 -1.157535834015083 20.000000000000000
8.634082596500793 -4.211034000879401 -1.345291923799340 38.000000000000000
8.774224372745099 -4.204438085912402 -1.522757708388011 57.000000000000000
8.911870124039206 -4.194768321543445 -1.703674153361783 43.000000000000000
8.850660098890511 -4.091022908909719 -1.848005241519413 14.000000000000000
9.025685112616307 -4.096093164458102 -2.042897216204456 72.000000000000000
8.776942339829009 -3.909644579821770 -2.141097480916536 43.000000000000000
9.277933789727580 -4.055030090900051 -2.426194459503678 35.000000000000000
8.941675083301080 -3.833794226674399 -2.496077829754242 68.000000000000000
9.259377246062970 -3.735876997337074 -3.076988800086714 11.000000000000000
7.962076638608574 -4.255635527311572 -0.537436377264457 24.000000000000000
8.084313441587682 -4.250747775912087 -0.693267281604402 25.000000000000000
8.077389075918362 -4.176938575233766 -0.838089407497087 23.000000000000000
8.195451819893364 -4.167108378766991 -0.997637823769959 22.000000000000000
8.328841557308438 -4.163855737069313 -1.162824025434157 22.000000000000000
8.595472646107343 -4.223143187523021 -1.352958095322373 20.000000000000000
8.710447857116117 -4.205145609943323 -1.525815364857642 45.000000000000000
8.851390091715796 -4.197987597671693 -1.706730668286619 35.000000000000000
9.025320285208391 -4.203976894694553 -1.899649446155849 0.000000000000000
8.986350333618647 -4.110236847953183 -2.049371790378675 55.000000000000000
8.762922011899812 -3.934514321641867 -2.152935406870526 41.000000000000000
9.042463441717839 -3.984134956373712 -2.380634275691539 70.000000000000000
8.806479266220084 -3.806929507963093 -2.474201821807521 15.000000000000000
9.272818933613557 -3.773776426654766 -3.099006373991953 11.000000000000000
7.907190849424076 -4.255251504132760 -0.545145400200764 24.000000000000000
8.032637891654534 -4.252908971500412 -0.700678087060730 26.000000000000000
8.029160077404068 -4.181237359020736 -0.845166610172208 22.000000000000000
8.146955405045746 -4.172035734682214 -1.004240736442470 22.000000000000000
8.272974136354518 -4.165888780473319 -1.167975003129649 23.000000000000000
8.535563440459475 -4.224536218857831 -1.357147924675102 1.000000000000000
8.650297682218847 -4.207262714360889 -1.529343147023535 41.000000000000000
8.766087832403294 -4.189016678645952 -1.704798926740906 18.000000000000000
8.950369401142185 -4.201123996059315 -1.898965179468086 0.000000000000000
9.537310420446422 -4.396306563626542 -2.191388268349129 40.000000000000000
8.923009595622501 -4.038179783300572 -2.207850491806754 71.000000000000000
8.786295516978452 -3.902480373544546 -2.328802701480730 32.000000000000000
8.877460133209354 -3.869066627978057 -2.510187445499847 56.000000000000000
7.855873416983624 -4.256499064755362 -0.552967058753743 24.000000000000000
7.977489388651365 -4.252942182950214 -0.707650932619688 27.000000000000000
7.977439362216545 -4.183453862639060 -0.851750551117169 23.000000000000000
8.087892953030231 -4.171262210588028 -1.009403363796746 23.000000000000000
8.217162577404160 -4.167646812958988 -1.172989010579975 22.000000000000000
8.479262511505135 -4.227399067177590 -1.361759298778468 1.000000000000000
8.586664741867541 -4.207344160506722 -1.532089986201461 38.000000000000000
8.723517169849504 -4.200111297479698 -1.711004756312587 42.000000000000000
8.893276751230239 -4.206286394882796 -1.901889426399861 0.000000000000000
9.550257212151774 -4.436501475090282 -2.210801176782918 16.000000000000000
8.997264641291592 -4.103941211677919 -2.241984724670452 62.000000000000000
8.772027399074611 -3.927407979033812 -2.340655010057188 45.000000000000000
9.114635475370893 -4.004833042564885 -2.593776484643754 74.000000000000000
9.651670781121638 -4.077949858408402 -3.090202596133420 7.000000000000000
7.804604111192728 -4.257496293606934 -0.560663872098755 25.000000000000000
7.922399564164877 -4.252703951393424 -0.714488801537802 26.000000000000000
7.929287251913074 -4.187277304336809 -0.858589804991114 23.000000000000000
8.043010722982560 -4.177524308404824 -1.016203307746213 18.000000000000000
8.161408259430058 -4.169130151119845 -1.177866293740618 23.000000000000000
8.281512612981325 -4.158923163619454 -1.343280670649581 8.000000000000000
8.530190760102935 -4.210603863391623 -1.535954654879504 32.000000000000000
8.663236912002263 -4.202413864873159 -1.713605530699311 40.000000000000000
8.829146452475783 -4.207790856772085 -1.903146086457770 0.000000000000000
9.513394794664398 -4.453585770747203 -2.218690889567628 18.000000000000000
9.563676507478782 -4.396594159596079 -2.399930719021724 41.000000000000000
8.846205683778816 -3.992252107093261 -2.376264318986589 30.000000000000000
8.795434946887113 -3.895947084528578 -2.518939540685762 24.000000000000000
9.371198589941727 -3.992678239994531 -3.018034701548069 16.000000000000000
7.756883004410996 -4.260165061479978 -0.568492484405125 24.000000000000000
7.874384822134992 -4.255986125634409 -0.721835002848642 26.000000000000000
7.877657257581334 -4.188999140678018 -0.864926778100307 22.000000000000000
7.987587875292922 -4.178046288315738 -1.021544491035302 5.000000000000000
8.105712559481447 -4.170339116623010 -1.182607101039376 23.000000000000000
8.229086592516060 -4.162621055824077 -1.348005859958514 21.000000000000000
8.502053417107446 -4.227649345660381 -1.544819958049783 1.000000000000000
8.603022457168212 -4.204418282331059 -1.716058130909245 38.000000000000000
8.761553454300167 -4.207276755761456 -1.903475602121075 0.000000000000000
9.444660705051376 -4.455484003176199 -2.219013849415872 14.000000000000000
9.551460208249502 -4.425342919623584 -2.413700050537316 21.000000000000000
8.955360416425627 -4.073642767552611 -2.421647871653372 63.000000000000000
8.770317372089247 -3.916200748786313 -2.527751745728816 48.000000000000000
8.816397720005838 -3.861586310916855 -2.698017495498394 0.000000000000000
9.313422719588388 -4.001196420458821 -3.017011841402408 20.000000000000000
7.705707956937823 -4.260672285474796 -0.575944926335933 25.000000000000000
7.819404893364148 -4.255225680640771 -0.728413015018338 27.000000000000000
7.822567908045265 -4.188589971439665 -0.870747595561083 22.000000000000000
7.932225901572754 -4.178295402108492 -1.026750105496625 3.000000000000000
8.050076852662338 -4.171274036202385 -1.187211683371548 24.000000000000000
8.169656005791024 -4.162470719364220 -1.351437108221518 21.000000000000000
