# This PCD file was generated using the MATLAB® pcwrite function
# from Computer Vision Toolbox®.
# .PCD v.7 - Point Cloud Data file format
VERSION .7
FIELDS x y z intensity
SIZE 8 8 8 8
TYPE F F F F
COUNT 1 1 1 1
WIDTH 638
HEIGHT 1
VIEWPOINT 0 0 0 1 0 0 0
POINTS 638
DATA ascii
7.461970101414624 -9.797148272891434 -2.045762431118188 27.000000000000000
7.672988390973121 -9.985714332845548 -2.313692809081337 18.000000000000000
7.145746923595475 -9.215690816152645 -2.350353097942020 12.000000000000000
5.780916986965626 -7.321884407806651 -2.213764104083831 21.000000000000000
5.820600399016802 -7.304916081616648 -2.385039210475151 51.000000000000000
5.725182138246177 -7.120153916819669 -2.498896093218851 12.000000000000000
5.444563887978647 -6.708247400044028 -2.521138808063014 38.000000000000000
3.898645188766858 -4.714470155796862 -2.011948518776201 0.000000000000000
3.827940093398205 -4.585498902564335 -2.076788495715396 21.000000000000000
3.789918793271157 -4.497266399487506 -2.156109104950575 29.000000000000000
3.789312452631350 -4.454056254814072 -2.256173312333210 25.000000000000000
3.821476246685834 -4.448895199738129 -2.376391128952260 12.000000000000000
7.350514420437500 -9.797625839943027 -1.827545254000856 32.000000000000000
7.474504670351163 -9.874930632054962 -2.066557752641138 26.000000000000000
7.128576632487153 -9.251545366536837 -2.362913355514521 13.000000000000000
5.771685717162931 -7.356750848476416 -2.226298483074304 8.000000000000000
5.799166113112929 -7.324591467426131 -2.393066699411235 58.000000000000000
5.692065561069803 -7.124489687176567 -2.501593961017222 11.000000000000000
5.441477934528147 -6.747766502009161 -2.536728034773605 19.000000000000000
3.906699977135103 -4.755036678509926 -2.029216960967427 1.000000000000000
3.802502725876047 -4.584897830463428 -2.076186143850541 20.000000000000000
3.767029488981768 -4.499565850033385 -2.156594535455168 30.000000000000000
3.763998761210880 -4.453609889333187 -2.255033542818508 26.000000000000000
3.798421321065511 -4.451499054316514 -2.376553731160754 12.000000000000000
7.358330391868723 -9.869175270939007 -1.845821582815379 33.000000000000000
7.481874016126220 -9.946567485468815 -2.086086398936978 26.000000000000000
7.116005484622892 -9.293612752864815 -2.377049419470579 13.000000000000000
5.767063841550690 -7.397771292463919 -2.240689749134254 8.000000000000000
5.782446355673183 -7.350304849845891 -2.403054048100856 24.000000000000000
5.649381470390701 -7.116623235696423 -2.499987744600356 12.000000000000000
5.445379349158478 -6.796320630811905 -2.555708439348839 0.000000000000000
3.873690516417064 -4.745681364820907 -2.025175095297213 2.000000000000000
3.777108072279763 -4.584197792605153 -2.075535884679688 23.000000000000000
3.741763144879844 -4.498894794833538 -2.155655397469312 34.000000000000000
3.741126347879695 -4.455921119739788 -2.255291693741022 37.000000000000000
3.777784659219953 -4.456843768612717 -2.378182224040110 12.000000000000000
7.365764870546221 -9.940856456375828 -1.864141836223359 32.000000000000000
7.110347645521246 -9.345052232246813 -2.393577058799086 10.000000000000000
5.759845505964070 -7.435760549194135 -2.254158113902762 15.000000000000000
5.767996219779667 -7.379045363641874 -2.414020117961496 15.000000000000000
5.613965291320206 -7.117664859252281 -2.501490887294457 13.000000000000000
6.015418220203740 -7.556480436325692 -2.842353083532716 1.000000000000000
3.847957843780267 -4.745031969475607 -2.024842720100591 4.000000000000000
3.761321279065532 -4.595083902977028 -2.080127438463860 18.000000000000000
3.750001139041372 -4.538622865262965 -2.174067603387852 12.000000000000000
3.732606006344683 -4.475327436428177 -2.264199800846382 14.000000000000000
3.752379975881986 -4.456451022082820 -2.376752575338226 12.000000000000000
7.111514129995859 -9.405923821904757 -2.412521468379885 9.000000000000000
5.754804463429988 -7.476861341706348 -2.268564758736996 10.000000000000000
5.784291596643104 -7.447535499018653 -2.437988046701821 17.000000000000000
5.566704584726815 -7.103401852508190 -2.497594480327957 15.000000000000000
5.978322970565783 -7.558693250812356 -2.843961110797625 1.000000000000000
3.822267770577917 -4.744283089174989 -2.024462165556456 10.000000000000000
3.766927655954555 -4.632279681650651 -2.096622280185742 8.000000000000000
3.741341217575652 -4.558148813963756 -2.182793916848390 47.000000000000000
3.738256703502283 -4.511953288848368 -2.281810320331346 35.000000000000000
3.729394293747555 -4.458799415290161 -2.376789005353922 14.000000000000000
7.112354967061268 -9.466889079348061 -2.431493775817515 6.000000000000000
5.878728421969456 -7.756220837234021 -2.173102497533263 0.000000000000000
5.766083683881060 -7.539625724286138 -2.289545563679253 10.000000000000000
5.759978208776006 -7.464079830240395 -2.444946486576768 14.000000000000000
5.536164972132151 -7.110226172037413 -2.501092797920787 15.000000000000000
5.879652917516772 -7.482356098025168 -2.815990907634839 1.000000000000000
3.798992142369474 -4.746397740719253 -2.025297802573776 17.000000000000000
3.762831672835321 -4.657815627603419 -2.107831914826392 40.000000000000000
3.715994795785295 -4.557327371096093 -2.181773111566594 36.000000000000000
3.717641842637492 -4.517011811738110 -2.283449894893539 26.000000000000000
3.722989561566414 -4.480991105640978 -2.387400979231173 9.000000000000000
7.122244018099356 -9.540504171415447 -2.453722947248203 4.000000000000000
5.846885570494710 -7.763629315165792 -2.177518996986962 9.000000000000000
5.765246871695008 -7.587048660422322 -2.305870146559601 18.000000000000000
5.825117266276789 -7.597297042274705 -2.490130616166158 5.000000000000000
5.496200067130212 -7.104753601698410 -2.500247404004515 13.000000000000000
5.599842473126360 -7.172782817526579 -2.700187943230163 17.000000000000000
3.718457273680158 -4.719542513772290 -1.894464030936208 8.000000000000000
3.789907685767560 -4.766244745208020 -2.033693871293541 17.000000000000000
3.739710419160581 -4.659841557302433 -2.108397173603451 38.000000000000000
3.695412272502957 -4.562234166216102 -2.183493427708217 35.000000000000000
3.699388660889729 -4.524883219294192 -2.286510745094000 21.000000000000000
3.725887909823062 -4.514608961958074 -2.404090098985930 10.000000000000000
7.129393082170916 -9.611117760621017 -2.475190835343561 0.000000000000000
5.817383964336700 -7.774054069303139 -2.182757691322960 18.000000000000000
5.764154266268263 -7.634539019719315 -2.322213502467982 12.000000000000000
6.159165544749770 -8.085025709605231 -2.651613672349292 39.000000000000000
5.456322253874296 -7.099121944024569 -2.499326126327841 17.000000000000000
3.651489778190743 -4.707747156293808 -1.772680205839760 0.000000000000000
3.695498457761350 -4.721223668508756 -1.895331691445115 23.000000000000000
3.778374303062467 -4.783111684542248 -2.040812151853431 10.000000000000000
3.718963999711754 -4.664731171374632 -2.110254455664959 34.000000000000000
3.667785053186675 -4.558309723962883 -2.180986305332026 35.000000000000000
3.669381095668954 -4.518243535380924 -2.282240506549601 21.000000000000000
3.730932320072381 -4.551152772735922 -2.422322947556218 16.000000000000000
6.207365486374455 -8.644262539860042 -1.641695118022732 16.000000000000000
5.780881338107625 -7.774990033375769 -2.185306599913718 15.000000000000000
5.772134127905677 -7.694531421752461 -2.342360734201852 37.000000000000000
6.518105797057558 -8.611766595203004 -2.826069519334281 40.000000000000000
5.437571860723405 -7.120884487150267 -2.508033568382147 27.000000000000000
3.390128930632886 -4.399431277438697 -1.656999175853760 2.000000000000000
3.667882779444391 -4.716800367384668 -1.893740798128177 13.000000000000000
3.776127656755777 -4.811893860184771 -2.053007890437888 11.000000000000000
3.695881030269355 -4.666594137702245 -2.110738866856381 30.000000000000000
3.647241750561968 -4.563054466525332 -2.182626296112295 34.000000000000000
3.646471789868477 -4.520171180902746 -2.282300589543295 21.000000000000000
3.710073691873693 -4.556233845462074 -2.423803281277709 6.000000000000000
6.164770438893027 -8.639326411227533 -1.644762778037337 28.000000000000000
6.223979669063518 -8.647296124009319 -1.840024679937035 5.000000000000000
5.749059054578384 -7.782067086225711 -2.189555172278788 5.000000000000000
5.777454811912993 -7.751527017415370 -2.361598779340598 43.000000000000000
5.822614215692424 -7.742951377349895 -2.542464092806796 5.000000000000000
5.442004455957572 -7.173290741458614 -2.527526743645272 26.000000000000000
3.373127778172345 -4.406123271848435 -1.659924909566014 1.000000000000000
3.409607284938039 -4.413601246494085 -1.772175555480695 8.000000000000000
3.664170082773793 -4.700185011762375 -2.005258701442239 18.000000000000000
3.672822804502029 -4.668372420575167 -2.111181562429676 26.000000000000000
3.619715457728380 -4.558927526233084 -2.180021975952656 35.000000000000000
3.623587706750215 -4.522014518155465 -2.282319177740029 21.000000000000000
3.689219255606796 -4.561243327447065 -2.425247325919495 5.000000000000000
6.140543172184427 -8.660019322103373 -1.652673861152113 26.000000000000000
6.176530886404259 -8.636112130727646 -1.841252148618705 26.000000000000000
5.728781864482690 -7.804758794335214 -2.198177088275956 6.000000000000000
5.763961416579843 -7.783649162726001 -2.373254832455575 0.000000000000000
5.797326262926443 -7.759619272805826 -2.549426002511884 4.000000000000000
5.784497316118844 -7.674714137635419 -2.705292905656038 20.000000000000000
3.380809313889642 -4.405268843856325 -1.768988071318123 3.000000000000000
3.652801471091378 -4.716736553109978 -2.012226056224517 31.000000000000000
3.645149140609464 -4.664128383562325 -2.108897855364829 27.000000000000000
3.596893750178681 -4.560570396357728 -2.180176371257849 37.000000000000000
3.600729209605428 -4.523773695026639 -2.282296368852935 20.000000000000000
3.661426023080719 -4.557538666229794 -2.422062093202334 5.000000000000000
6.129894426119954 -8.700035941279184 -1.664257475595034 9.000000000000000
6.149746122696412 -8.653646967189450 -1.848565063402763 30.000000000000000
6.183430404673186 -8.627370371178642 -2.036303736939081 22.000000000000000
6.495784782820573 -8.751350343334277 -2.876913489053808 36.000000000000000
3.421813311843851 -4.569792785768646 -1.611462551232593 0.000000000000000
3.379822856294163 -4.433177772847366 -1.780347239839363 0.000000000000000
3.657529856775485 -4.754294229429027 -2.028148349311202 1.000000000000000
3.619851884485401 -4.662748754121820 -2.107906637003381 26.000000000000000
3.574098039477915 -4.562129403823387 -2.180289546590128 35.000000000000000
3.573282996573405 -4.519613336636103 -2.279289344006254 20.000000000000000
3.636003225920259 -4.556609840715116 -2.420357680301741 5.000000000000000
6.131993238215760 -8.683982827953590 -1.858592254983145 18.000000000000000
6.156391790964906 -8.644957462531945 -2.043627800543227 31.000000000000000
6.204738939532756 -8.637286710214195 -2.238731108865725 15.000000000000000
6.501623541838353 -8.816633450674091 -2.900015502832348 6.000000000000000
3.411324884650963 -4.585783993364248 -1.617729179302070 17.000000000000000
3.312853359822939 -4.413625295071067 -1.663914171770499 3.000000000000000
4.869072543978613 -6.429001356329820 -2.582072447043837 3.000000000000000
4.598250613826092 -6.016999545938798 -2.566675623568405 5.000000000000000
3.596900804171810 -4.664253859741726 -2.108216435006754 26.000000000000000
3.549030091999529 -4.560650909609612 -2.178950363537185 36.000000000000000
3.550497282031906 -4.521191276221535 -2.279178469120472 20.000000000000000
3.612920564913033 -4.558477225791965 -2.420142634962758 5.000000000000000
6.133830584152719 -8.668882069053792 -2.052428327067807 22.000000000000000
6.166015732750198 -8.639040055235279 -2.241950246441138 28.000000000000000
6.216346594960768 -8.635156987441833 -2.439293917008387 6.000000000000000
3.445469945751666 -4.702987693159032 -1.547794434321530 0.000000000000000
3.389327529184824 -4.586286769866976 -1.618522957653993 15.000000000000000
3.346196964519570 -4.487604830894399 -1.692179882983268 14.000000000000000
4.698569895880094 -6.245191552844610 -2.508443222759415 0.000000000000000
3.573975988161112 -4.665674959275846 -2.108484956179228 26.000000000000000
3.526297733924260 -4.562035995042377 -2.178978630381292 36.000000000000000
3.530024568699810 -4.525616661791150 -2.280503535382929 21.000000000000000
3.589863975085035 -4.560260099842472 -2.419886043220090 5.000000000000000
6.122461879945781 -8.708819944603727 -2.065006465143175 1.000000000000000
6.143178277926440 -8.662997108253292 -2.250905983822468 25.000000000000000
6.177372414194340 -8.637050464022002 -2.442180447528012 22.000000000000000
6.230877110710020 -8.636251776998289 -2.641232605342403 1.000000000000000
3.439204146586893 -4.725358532700200 -1.556009503678222 14.000000000000000
3.367358390299056 -4.586708529084969 -1.619277104297393 19.000000000000000
3.285658161053164 -4.435701062557794 -1.672970571267882 6.000000000000000
3.366811778189663 -4.504935586226108 -1.809584983966490 2.000000000000000
4.721358795247323 -6.261132076463528 -2.670515352440475 2.000000000000000
3.555636305327002 -4.673003233984659 -2.111419247664816 25.000000000000000
3.505870494056948 -4.566304760663436 -2.180382744300490 35.000000000000000
3.505006360181192 -4.524096349644396 -2.278833612667596 21.000000000000000
3.560013869241264 -4.553235939734327 -2.414961641086978 5.000000000000000
6.127001211431700 -8.696499929929702 -2.262326484804343 6.000000000000000
6.149727806833768 -8.654689140742102 -2.449493780146473 27.000000000000000
6.184859528867166 -8.628833838212227 -2.640897423359087 21.000000000000000
3.421501340175515 -4.732080462339317 -1.559063525685745 21.000000000000000
3.340884730778386 -4.580833913673306 -1.617796609896416 21.000000000000000
3.254984940705209 -4.423568234265933 -1.668747168559603 8.000000000000000
3.276743791191052 -4.413762164981493 -1.773084791505690 5.000000000000000
4.729536417680917 -6.314138030386653 -2.692961605195088 5.000000000000000
3.528206591336764 -4.668265747200105 -2.108898566163399 24.000000000000000
3.483182371986571 -4.567529833989775 -2.180332034139605 35.000000000000000
3.486833168422656 -4.531312435683945 -2.281564828314912 21.000000000000000
3.539304494253738 -4.557744602511393 -2.416158901072850 6.000000000000000
6.126518501440793 -8.678619034430783 -2.458568426283755 14.000000000000000
6.154703201225318 -8.643365592771772 -2.647254376616631 28.000000000000000
3.419564856078932 -4.760714630574192 -1.569329921114963 26.000000000000000
3.321249874530858 -4.584195360839408 -1.619566659507168 23.000000000000000
3.289905764768834 -4.500888675122392 -1.698265348258567 25.000000000000000
3.264125982440287 -4.426262963206052 -1.778223200644007 3.000000000000000
3.413548405938096 -4.587946165896146 -1.956622922066571 0.000000000000000
3.507621339490067 -4.672444399244370 -2.110402775472926 24.000000000000000
3.458264690081453 -4.565691592549707 -2.178818398824637 36.000000000000000
3.461880471183477 -4.529618932780246 -2.279810502440326 22.000000000000000
3.511843752244239 -4.553420247194030 -2.412677664394180 6.000000000000000
6.133471366538779 -8.670479171628855 -2.657446881914884 19.000000000000000
3.397277036544802 -4.761081440693617 -1.570270120727059 22.000000000000000
3.303869763820118 -4.590610017810028 -1.622405697751771 19.000000000000000
3.286130770190617 -4.525828322352293 -1.708018313075201 30.000000000000000
3.357139208005836 -4.583010095477036 -1.841308991675630 20.000000000000000
3.388927394991767 -4.585624832342980 -1.955505052019484 0.000000000000000
3.484794824571534 -4.673537529806270 -2.110509888186209 24.000000000000000
3.437889863744491 -4.569730842185182 -2.180108555724781 36.000000000000000
3.439221549455155 -4.530786690046186 -2.279497993652024 22.000000000000000
3.488936580754897 -4.554840424438626 -2.412245062876094 6.000000000000000
3.839208885118713 -4.967306435259854 -2.765129637946761 0.000000000000000
6.493568344159464 -9.240357851300992 -2.834094730179328 44.000000000000000
3.377251421538283 -4.764517973038338 -1.572210329540005 26.000000000000000
3.282006671745800 -4.590715737132197 -1.623004999210671 15.000000000000000
3.284457942193690 -4.553893405774730 -1.718945861509962 19.000000000000000
3.332738962641064 -4.580378649734867 -1.840358234678010 25.000000000000000
4.635782672282569 -6.315252785125540 -2.692908701632643 13.000000000000000
3.461996347104119 -4.674547395314876 -2.110576210799469 24.000000000000000
3.415286189902384 -4.570707091279286 -2.179935991443627 37.000000000000000
3.414356584291680 -4.528907597856072 -2.277654294528824 22.000000000000000
3.466057373782814 -4.556176972564103 -2.411771480949713 6.000000000000000
3.823595949601883 -4.981383931118370 -2.771357816122590 28.000000000000000
5.560978689983452 -8.308649549517067 -1.618098474401282 0.000000000000000
6.501424924049369 -9.313015300065750 -2.858349869713452 43.000000000000000
3.348340796890066 -4.755255896357826 -1.569946262786003 27.000000000000000
3.260173511853441 -4.590741206556564 -1.623565165625570 18.000000000000000
3.287083078689073 -4.588211261197277 -1.732229273629344 22.000000000000000
3.312844761539098 -4.583818264891464 -1.841839759694194 24.000000000000000
3.348746922349642 -4.592920948934188 -1.958345017328475 0.000000000000000
3.436998785424669 -4.672445996412819 -2.109234875397988 24.000000000000000
3.394937564876567 -4.574600453197323 -2.181153278473751 36.000000000000000
3.391765402214548 -4.529903221069517 -2.277258058298267 23.000000000000000
3.443206489260254 -4.557430049007471 -2.411257020875178 6.000000000000000
3.646026673256731 -4.783039704183873 -2.659473009094301 35.000000000000000
3.863221940647140 -4.975356661148804 -3.043905112132238 13.000000000000000
5.531057779074528 -8.317852702647395 -1.623307198776792 49.000000000000000
6.508868947076941 -9.385806572574221 -2.882648090211505 40.000000000000000
3.330586409791325 -4.761694021423544 -1.572852254107997 27.000000000000000
3.233940573438006 -4.584406579688143 -1.621864568816868 42.000000000000000
3.260693950725517 -4.582095443187439 -1.730240535076824 13.000000000000000
3.292959715439892 -4.587189686965414 -1.843287033613638 13.000000000000000
3.328669767765331 -4.596465820817931 -1.959713125745099 0.000000000000000
3.416484929574550 -4.676317962287061 -2.110586895055822 26.000000000000000
3.372381533480740 -4.575418062003344 -2.180902645817012 36.000000000000000
3.366989766352946 -4.527839404061592 -2.275325524908842 23.000000000000000
3.418173305371265 -4.555653076918475 -2.409143477921253 6.000000000000000
3.564839417497566 -4.709097757014040 -2.616852736082208 28.000000000000000
3.600382361751926 -4.712082288661449 -2.748240046660534 7.000000000000000
3.629519624552340 -4.707233592417998 -2.877734386874679 25.000000000000000
5.503300173248490 -8.330254583099901 -1.629110734071272 0.000000000000000
5.540449986835868 -8.317171344106150 -1.808980590318745 43.000000000000000
6.509300122273270 -9.449149963501386 -2.904044229249089 10.000000000000000
3.301806953361079 -4.752225338848419 -1.570490742266083 28.000000000000000
3.221007686418613 -4.596844784911209 -1.626795471922279 77.000000000000000
3.243201872428537 -4.588359010942453 -1.732917540271095 20.000000000000000
3.268669967946658 -4.584302173287544 -1.842212318011874 14.000000000000000
3.368196274775450 -4.682796195473461 -1.996369115731872 2.000000000000000
3.391566085555881 -4.674037968672971 -2.109159205633986 28.000000000000000
3.347649744656754 -4.573140729165143 -2.179176233889879 35.000000000000000
3.348874242292660 -4.534630267306491 -2.277843200954935 24.000000000000000
3.390989577667284 -4.550826928292169 -2.405423029922742 6.000000000000000
3.688531720406785 -4.906507608541563 -2.724990428400937 38.000000000000000
3.572314797080729 -4.708136725242028 -2.744134028611824 31.000000000000000
3.605681747278161 -4.709269633679019 -2.876856384085548 30.000000000000000
3.561331246854074 -4.562997133781029 -3.052853240378076 18.000000000000000
5.518949374031718 -8.339488663678328 -1.816871661745977 0.000000000000000
5.545315035030487 -8.310939435336616 -1.993266380700667 31.000000000000000
3.257773462596837 -4.720401889874096 -1.560722289349671 30.000000000000000
3.208022689250982 -4.609253974452904 -1.631708375979299 33.000000000000000
3.223503128261507 -4.591440096775261 -1.734384449830156 59.000000000000000
3.248824945958183 -4.587524712608511 -1.843586038601402 15.000000000000000
3.341265178972764 -4.677150769217425 -1.993806331064516 14.000000000000000
3.364501478651535 -4.668615177591152 -2.106311022550364 32.000000000000000
3.325163631721500 -4.573787443043829 -2.178842639598205 32.000000000000000
3.324168556842729 -4.532395395503170 -2.275827626275725 23.000000000000000
3.370447287784836 -4.554770910239847 -2.406342252360769 7.000000000000000
3.719018625464225 -4.981685627808879 -2.765162702108618 33.000000000000000
3.570506225757411 -4.738839270888460 -2.760221668002933 27.000000000000000
3.573161288164196 -4.699763869911492 -2.868943006725533 55.000000000000000
3.526879510100570 -4.551081455925415 -3.042190411983536 19.000000000000000
4.917362379724355 -7.541480535300755 -1.480876281851901 23.000000000000000
5.525725862164627 -8.336545255257624 -2.002090633124920 1.000000000000000
5.553113657377454 -8.307763165816016 -2.180821837968108 35.000000000000000
3.229251509302958 -4.710652219193194 -1.558233088942346 32.000000000000000
3.210272680338468 -4.643747052373708 -1.644433833099695 7.000000000000000
3.212556298980392 -4.606989759761996 -1.740553756518168 32.000000000000000
3.226803786905339 -4.587571240338896 -1.843676608201342 48.000000000000000
3.325337421543551 -4.686804933796200 -1.997760382384653 36.000000000000000
3.344065639499377 -4.672245790021289 -2.107544608388625 39.000000000000000
3.302707789274844 -4.574352179387173 -2.178469049033997 31.000000000000000
3.301696350268600 -4.533061763809721 -2.275270589646276 23.000000000000000
3.349913788344819 -4.558644892119738 -2.407226278979166 7.000000000000000
3.509662178411225 -4.734239725490224 -2.626318643085797 21.000000000000000
3.570687316980703 -4.772486933606988 -2.778009458749865 38.000000000000000
3.562421608550133 -4.718824679687205 -2.878475625276339 20.000000000000000
3.545021073230265 -4.652100863417527 -2.970586330498281 26.000000000000000
3.499028039708719 -4.547422488324524 -3.037073507508924 22.000000000000000
4.887719244743736 -7.545503572121778 -1.484628043537927 78.000000000000000
4.929175686759637 -7.547232344425255 -1.649668751088821 12.000000000000000
5.528926345707847 -8.326869991380709 -2.188157583534850 7.000000000000000
5.558326193019218 -8.302221943631229 -2.368532189075038 12.000000000000000
3.218195089582325 -4.726297982409054 -1.564132905754596 14.000000000000000
3.212324681730315 -4.678298658454583 -1.657177057965825 7.000000000000000
3.212411152469591 -4.638223908063629 -1.752643023024356 7.000000000000000
3.215692431893971 -4.603109421668282 -1.849986442006677 38.000000000000000
3.302849758889489 -4.687152078603106 -1.997741940854781 57.000000000000000
3.321463856244440 -4.672746759089701 -2.107363181105358 37.000000000000000
3.280282567589214 -4.574835103081110 -2.178055567791408 32.000000000000000
3.277083074578323 -4.530643813068900 -2.273167209294730 22.000000000000000
3.325051401419953 -4.556504391827799 -2.404937609413015 7.000000000000000
3.416885391868112 -4.641522163424669 -2.573423833198854 13.000000000000000
3.495015097324047 -4.704362683537165 -2.736579107429563 13.000000000000000
3.517013538919157 -4.648274500215797 -2.965764646377544 27.000000000000000
3.475537554654780 -4.549269589839329 -3.035652303072173 22.000000000000000
2.972510603951476 -4.619253259972717 -0.910661314445419 3.000000000000000
4.899288606858456 -7.551352635635391 -1.653223674821204 39.000000000000000
4.932431442833516 -7.541011092367099 -1.815801687008705 8.000000000000000
3.291183049016602 -4.989938395186800 -1.312641973314262 14.000000000000000
5.533880082343418 -8.321360236447299 -2.375945927313282 11.000000000000000
5.570763150302882 -8.306657353403104 -2.559495562875936 23.000000000000000
3.211387935353711 -4.748316990795832 -1.572135262496278 8.000000000000000
3.214178336327403 -4.712908012352337 -1.669937630388856 6.000000000000000
3.212088160337025 -4.669503425969338 -1.764744572192622 7.000000000000000
3.211003348584179 -4.627992206490288 -1.860045599453503 7.000000000000000
3.291219185946976 -4.702887543027136 -2.004276684416279 47.000000000000000
3.301057257221824 -4.676232030175663 -2.108524361847004 33.000000000000000
3.255725043558412 -4.572198374630463 -2.176156350948414 33.000000000000000
3.254683011089013 -4.531140228324815 -2.272527827901145 22.000000000000000
3.304557453523473 -4.560225977651216 -2.405746260335339 7.000000000000000
3.393765668817214 -4.642642520975361 -2.572591107733443 16.000000000000000
3.422028473352521 -4.638765430665429 -2.696678031732372 12.000000000000000
3.620043414387321 -4.863587843015159 -2.962482568932033 13.000000000000000
3.501919641472593 -4.661433276054103 -2.971789803731747 31.000000000000000
3.452075639653871 -4.551031910273339 -3.034189567212658 22.000000000000000
2.907286485815571 -4.547906553164989 -0.898340288016243 19.000000000000000
2.940828845213578 -4.562981612642420 -1.000562094948108 7.000000000000000
4.902340345512838 -7.545206797149719 -1.819151869691678 52.000000000000000
3.268931074331803 -4.989533736824399 -1.313889919422117 29.000000000000000
3.291890651466487 -4.983484493954461 -1.424056964205782 9.000000000000000
5.546025198739031 -8.325846798696830 -2.566995048608666 36.000000000000000
3.221671280485361 -4.795955642674197 -1.588618152356741 5.000000000000000
3.220138288348966 -4.753929853358985 -1.684967760300240 6.000000000000000
3.213741013392603 -4.703980418289930 -1.778049752729987 6.000000000000000
3.212641896334377 -4.662275574074419 -1.873876868234973 6.000000000000000
3.281669054748511 -4.721704339316328 -2.012118373055464 17.000000000000000
3.280660464780998 -4.679647926860887 -2.109650728307774 27.000000000000000
3.233372671464839 -4.572511895757431 -2.175660849163100 34.000000000000000
3.232314290145454 -4.531555101764303 -2.271848738229593 24.000000000000000
3.273333918597277 -4.548953466730363 -2.398650331933022 7.000000000000000
3.374964237032542 -4.649587269395090 -2.574989441343492 20.000000000000000
3.398784044913570 -4.639998374568069 -2.695660605500372 16.000000000000000
3.427118924604901 -4.637264381111964 -2.822593654121192 10.000000000000000
3.473990044865379 -4.657423741114506 -2.966879381417318 28.000000000000000
3.426518340414957 -4.549888847960329 -3.030806416451925 23.000000000000000
2.889054672918229 -4.549502580122568 -0.900380680794213 27.000000000000000
2.916035115971181 -4.554786761989916 -1.000328323713944 10.000000000000000
3.010089723481082 -4.663965881370015 -1.125912125349929 1.000000000000000
3.250970434023032 -4.995596083369296 -1.316824593077393 25.000000000000000
3.273785883674626 -4.989650569785501 -1.426958015952812 24.000000000000000
3.298192440760399 -4.985015722469175 -1.537897548748317 6.000000000000000
3.334401009261977 -4.997671643918464 -1.656161842636772 15.000000000000000
3.223715205156672 -4.791848692300760 -1.698895637211764 6.000000000000000
3.215194403875455 -4.738513799375063 -1.791371518814581 6.000000000000000
3.214080607390384 -4.696615484607315 -1.887724778389016 6.000000000000000
3.282744458908138 -4.756046881906459 -2.026569237557837 3.000000000000000
3.260273764575238 -4.682994529078184 -2.110742338762882 25.000000000000000
3.211051986517191 -4.572744135080625 -2.175125792907103 34.000000000000000
3.209977259499085 -4.531888601942696 -2.271130047593183 26.000000000000000
3.252912627560514 -4.552504437800055 -2.399376331730426 7.000000000000000
3.354017072632875 -4.653513357043102 -2.575718717622062 20.000000000000000
3.375569523629680 -4.641147428937212 -2.694602184741191 18.000000000000000
3.397371812268155 -4.629925481553670 -2.816109160608979 15.000000000000000
3.431295963485885 -4.633271443822547 -2.949165939519850 10.000000000000000
3.405238957386229 -4.554302849801558 -3.031139916828082 23.000000000000000
2.885569121081248 -4.574391745563351 -0.907020951017272 17.000000000000000
2.899758051466474 -4.559766881725633 -1.002968208505863 11.000000000000000
2.912936990526209 -4.543855122470976 -1.098290815412011 26.000000000000000
3.165159164018554 -4.896650971232165 -1.292037434581701 4.000000000000000
3.270536338892620 -5.018572109399310 -1.436358603811120 0.000000000000000
3.273546877420761 -4.981523902039492 -1.537740698147126 27.000000000000000
3.322318833580987 -5.013676137879026 -1.662182045533980 27.000000000000000
3.380538731234800 -5.059523528770759 -1.794300852264326 11.000000000000000
3.218580907491495 -4.776267970104061 -1.805906204565800 6.000000000000000
3.217452722868711 -4.734150507057121 -1.902850743656875 5.000000000000000
4.358955783598081 -6.359244844970732 -2.709445234425309 15.000000000000000
3.239897441741306 -4.686271917691213 -2.111799251931124 22.000000000000000
3.193026387744529 -4.579008758601129 -2.177458444108927 33.000000000000000
3.187672265962061 -4.532140898589562 -2.270371863846998 26.000000000000000
3.232501712646100 -4.555986006525571 -2.400067537817051 7.000000000000000
3.339448179863037 -4.666268001766129 -2.581335466324163 20.000000000000000
3.358742506708082 -4.651015943087638 -2.698610655647998 17.000000000000000
3.378288638883835 -4.636973742845621 -2.818386840117707 17.000000000000000
3.401474816856017 -4.626130513765158 -2.942310238554943 13.000000000000000
3.381864906628085 -4.555811792862193 -3.029553211504165 23.000000000000000
2.909180954431083 -4.642754801860457 -0.922296061022230 18.000000000000000
2.931776620904896 -4.641162078817998 -1.022426722683470 16.000000000000000
2.896556134443427 -4.548855926855603 -1.100857991172706 26.000000000000000
2.987181547776765 -4.652687392454729 -1.228878524800081 6.000000000000000
3.303055674757575 -5.103025673896006 -1.461662129566882 13.000000000000000
3.257419658643659 -4.990910637771634 -1.541546033454651 37.000000000000000
3.288970576024175 -4.997459934718375 -1.657507390913184 26.000000000000000
3.332012834120724 -5.021308486031184 -1.781237648761666 8.000000000000000
3.221746136132091 -4.814089253331170 -1.820461615986251 2.000000000000000
3.220603146185956 -4.771752819115100 -1.917997499488517 5.000000000000000
4.330933659040465 -6.362500172853670 -2.710572853001260 14.000000000000000
3.215287177361333 -4.683297603398940 -2.110036000899872 25.000000000000000
3.170748867388932 -4.579091322809330 -2.176849622120027 33.000000000000000
3.167518396805155 -4.535345838751618 -2.271093421420460 28.000000000000000
3.209985450368698 -4.556394698650058 -2.399142504841032 7.000000000000000
3.329049755445498 -4.684934384067533 -2.590218821402940 16.000000000000000
3.341882283565489 -4.660838079618759 -2.702593420839847 17.000000000000000
3.359193251906623 -4.643962847988149 -2.820633574722318 18.000000000000000
3.382238111652283 -4.633239086484809 -2.944531358901822 15.000000000000000
3.358520858930577 -4.557236602768235 -3.027925393155792 23.000000000000000
2.888627477323293 -4.640975453021596 -0.923641782134095 36.000000000000000
2.913157521474688 -4.642846996505948 -1.024334428842029 30.000000000000000
2.932534806077876 -4.636601833328617 -1.123460302064784 15.000000000000000
2.936729266839831 -4.605262113249371 -1.217537712580735 16.000000000000000
2.992303501278327 -4.654549726997405 -1.334222843135978 2.000000000000000
3.213881794338752 -4.958015564663258 -1.532273302180392 30.000000000000000
3.276845216830596 -5.013362134287481 -1.663472733598877 42.000000000000000
3.283770940834150 -4.982864225655267 -1.768074805209931 25.000000000000000
3.239472155120675 -4.874218970735247 -1.843449370479822 0.000000000000000
3.219306662332468 -4.803118237326072 -1.930630936281577 5.000000000000000
4.307157601818943 -6.371908983724964 -2.714314885236858 14.000000000000000
3.194953730070622 -4.686424505129452 -2.111018716267096 25.000000000000000
3.148504029031789 -4.579093059133245 -2.176201538223957 35.000000000000000
3.147375949497873 -4.538482247568185 -2.271780693867875 26.000000000000000
3.187501450136174 -4.556721817916616 -2.398177803980029 7.000000000000000
3.318554579325832 -4.703591643524948 -2.599091601886671 14.000000000000000
3.333380160089666 -4.682400779423725 -2.713380852216048 16.000000000000000
3.344271452925008 -4.656720973621280 -2.826386778731200 17.000000000000000
3.362989118610761 -4.640288098004345 -2.946721323034270 17.000000000000000
3.333125268143741 -4.555731890542707 -3.024367518730797 23.000000000000000
2.874329593314437 -4.649184311877502 -0.926957724596422 75.000000000000000
2.892472392766140 -4.641131763154225 -1.025473263486996 53.000000000000000
2.909626846480622 -4.631695803012777 -1.123619865698830 25.000000000000000
2.897047108904285 -4.574081266436430 -1.210455541035949 54.000000000000000
2.962735203461562 -4.640178818551226 -1.331103544446533 4.000000000000000
2.992463223475946 -4.648238032597509 -1.437355574817166 6.000000000000000
3.243664863995221 -4.996921903210016 -1.658693987239016 39.000000000000000
3.282010059387703 -5.014777440835107 -1.779865497437719 28.000000000000000
3.080328623974693 -4.667081291148908 -1.765339567938706 29.000000000000000
3.274578322981137 -4.919784188609065 -1.977545029619880 0.000000000000000
4.283360677079536 -6.381245842875543 -2.718018911419178 14.000000000000000
3.174631553808266 -4.689482500042113 -2.111966945613421 24.000000000000000
3.128391808298613 -4.582089368375132 -2.176975359069024 34.000000000000000
3.120952961941637 -4.532412282178602 -2.267861440587645 28.000000000000000
3.165050058497130 -4.556967536231768 -2.397173544184294 7.000000000000000
3.316326631922331 -4.734179342574071 -2.614547689897359 9.000000000000000
3.320585520082908 -4.698060218636490 -2.720742175561838 11.000000000000000
3.331377312415922 -4.672364690949810 -2.833890152614591 16.000000000000000
3.345804919085704 -4.650164046098650 -2.950711742578957 17.000000000000000
3.311924195603984 -4.559834484244108 -3.024546841903953 23.000000000000000
2.857940620290835 -4.653993465151526 -0.929580678165440 132.000000000000000
2.875959755791007 -4.646026098198380 -1.028054948886514 86.000000000000000
2.892995686245533 -4.636673366779200 -1.126159868386892 43.000000000000000
2.909544133272176 -4.625311676022560 -1.225171349726573 22.000000000000000
2.935367017049307 -4.628965833658657 -1.328870116316817 8.000000000000000
2.964901597443744 -4.637257264311177 -1.434763946462538 10.000000000000000
3.003956465085357 -4.659758922968542 -1.547394046675556 6.000000000000000
3.250819994118465 -5.001727242632550 -1.775688586477654 22.000000000000000
3.025035610139510 -4.615365247752431 -1.745997476294575 13.000000000000000
3.191079731301821 -4.828005743669934 -1.940666557542750 8.000000000000000
2.990253667071701 -4.486220089707589 -1.910657560440454 3.000000000000000
3.148049915630100 -4.683142703296792 -2.108680191318573 24.000000000000000
3.108291583856006 -4.585017399235818 -2.177715059054956 34.000000000000000
3.100866286261490 -4.535393567168621 -2.268472936936295 28.000000000000000
3.142631621046573 -4.557132026669804 -2.396129834941868 7.000000000000000
3.299354187848791 -4.743868442472667 -2.618455679143070 0.000000000000000
3.320173731179723 -4.731451346978154 -2.738362749155549 5.000000000000000
3.322550265815035 -4.693838464017547 -2.844924639571640 15.000000000000000
3.336852169413957 -4.671563050300019 -2.962012198919671 16.000000000000000
3.288672289091564 -4.561007889359421 -3.022796322639416 22.000000000000000
2.841544905971421 -4.658751384796694 -0.932177065799600 112.000000000000000
2.861498879159329 -4.654217177356593 -1.031351846155679 137.000000000000000
2.874294141777651 -4.638269255586979 -1.127863244910164 79.000000000000000
2.898995293491123 -4.640249436607970 -1.230274544309414 32.000000000000000
2.916381814125223 -4.630795938509509 -1.330364645547795 10.000000000000000
2.941586768675824 -4.632697320806969 -1.434143234178253 16.000000000000000
2.970023305289571 -4.639197546822390 -1.541170882022474 10.000000000000000
3.007729933613767 -4.660056605673437 -1.654804241704467 6.000000000000000
2.999235953864294 -4.608116020911949 -1.743466211563146 12.000000000000000
2.962598455454457 -4.513903365006466 -1.814415278573835 5.000000000000000
2.970818865062401 -4.488593660533712 -1.911467033878927 5.000000000000000
3.127783215842730 -4.686044944968744 -2.109552305212028 23.000000000000000
3.081969039240446 -4.578615036977977 -2.174022811362035 36.000000000000000
3.080791937704229 -4.538306667415555 -2.269050380460545 28.000000000000000
3.124392989374696 -4.563271563752995 -2.398229572703483 8.000000000000000
3.321847461781592 -4.727043292262946 -2.863056959567358 9.000000000000000
3.325725272547066 -4.690064470201857 -2.971469447410140 19.000000000000000
3.265451803863648 -4.562097828404353 -3.021005117624254 21.000000000000000
2.831270943213283 -4.673574037369780 -0.936774553101923 65.000000000000000
2.849058695171688 -4.665722598316172 -1.035371038337653 108.000000000000000
2.859712569160757 -4.646472568214699 -1.131159005008701 117.000000000000000
2.880147481990481 -4.641907758132048 -1.231845301560787 61.000000000000000
2.897410553094610 -4.632561374415118 -1.331827015453992 13.000000000000000
2.924519645608098 -4.637867385918327 -1.436521824786314 23.000000000000000
2.948650105028957 -4.637987635573867 -1.541362141216869 16.000000000000000
2.975791494793109 -4.642909791164143 -1.649117840128212 11.000000000000000
2.977652105529270 -4.607167583760742 -1.743310297560739 12.000000000000000
2.943244961404323 -4.516118064212699 -1.815304582503943 5.000000000000000
2.947258367708204 -4.484602404443473 -1.909561569584441 22.000000000000000
3.105459767844344 -4.685756868392176 -2.108985111520632 24.000000000000000
3.066060772952661 -4.587575531844950 -2.177623951966560 36.000000000000000
3.058664926070813 -4.538087466069675 -2.268062393393432 28.000000000000000
3.093769959682393 -4.551149822266718 -2.390736859599655 8.000000000000000
3.310411612736278 -4.702745007119812 -2.977237033269347 17.000000000000000
3.244302251308162 -4.565974348143977 -3.021072186202766 23.000000000000000
2.818895901749937 -4.685002523664668 -0.940681268205708 38.000000000000000
2.832494719874068 -4.670479615067358 -1.037879485839169 57.000000000000000
2.847145877135992 -4.657977110310982 -1.135246930903784 88.000000000000000
2.865407385886917 -4.650144973033020 -1.235148672298373 98.000000000000000
2.882553861405079 -4.640863746482729 -1.335156516173643 13.000000000000000
2.901285527861729 -4.633147389653621 -1.435824345651633 35.000000000000000
2.923200618304636 -4.630187994108255 -1.539350929567121 23.000000000000000
2.950166399931379 -4.635322500865058 -1.646814964010838 16.000000000000000
2.958161852906187 -4.609348514961696 -1.744330450239014 12.000000000000000
2.923905514752546 -4.518266857167755 -1.816161101945271 6.000000000000000
2.927872706514659 -4.486831617128445 -1.910300357007522 6.000000000000000
3.083170252028021 -4.685388306304120 -2.108378907160212 23.000000000000000
3.041895515882321 -4.584094329872689 -2.175317642387909 35.000000000000000
3.040681340765822 -4.543928666817392 -2.270103357733671 29.000000000000000
3.075577475375073 -4.557139878907874 -2.392763113438734 8.000000000000000
3.286907714805967 -4.703746755747920 -2.975617605160306 12.000000000000000
3.243447575137961 -4.598538597028464 -3.040116214714689 15.000000000000000
2.814560823014379 -4.709937130203493 -0.947292775800118 22.000000000000000
2.822006330276207 -4.685282540904870 -1.042608164064050 35.000000000000000
2.834530766602836 -4.669453016622153 -1.139317277469368 55.000000000000000
2.846567294350360 -4.651686755021665 -1.236660410901427 82.000000000000000
2.863590109691583 -4.642511872855207 -1.336559461481229 43.000000000000000
2.888321488944870 -4.644762990285471 -1.440177676737719 49.000000000000000
2.908054399844390 -4.638597484227457 -1.542717403436025 33.000000000000000
2.928712548924332 -4.634110349203858 -1.646766552118070 23.000000000000000
2.936637689787675 -4.608249700938019 -1.744101422716915 12.000000000000000
2.904580386522511 -4.520349836894363 -1.816984900960335 6.000000000000000
2.906453102063419 -4.485833581913440 -1.909660556455928 5.000000000000000
3.065009878804930 -4.691206913589463 -2.110553514298704 24.000000000000000
3.019832420703259 -4.583626738990128 -2.174441093358065 35.000000000000000
3.014514434616055 -4.537409116106582 -2.265970263830558 30.000000000000000
3.051253319275201 -4.553935101378674 -2.389964073797610 9.000000000000000
3.263435750220421 -4.704664607244479 -2.973957302572522 13.000000000000000
3.240371037599866 -4.628269504524557 -3.057268868152094 13.000000000000000
2.804059939707585 -4.724721418931393 -0.951856800163766 13.000000000000000
2.811448925836132 -4.700068457542363 -1.047323938344865 21.000000000000000
2.823888718241527 -4.684253200335040 -1.144188997560787 34.000000000000000
2.839895586404268 -4.673163768815486 -1.243461880457863 50.000000000000000
2.850728021514421 -4.654032987329849 -1.340793310021374 39.000000000000000
2.869212151743677 -4.646476806787981 -1.441450280886508 65.000000000000000
2.888811210779299 -4.640429374272680 -1.543886333530777 46.000000000000000
2.909330276839508 -4.636064822277630 -1.647833821689805 34.000000000000000
2.917186340074923 -4.610292446215507 -1.745053413981506 12.000000000000000
2.905646046658985 -4.554304718044198 -1.830613445469950 13.000000000000000
2.887107068111039 -4.487924982834882 -1.910331417767560 6.000000000000000
3.038694379301384 -4.684410436254613 -2.107049912534357 26.000000000000000
2.997804353762429 -4.583079496319630 -2.173526026294057 33.000000000000000
2.996557517871430 -4.543114661077481 -2.267943610055384 30.000000000000000
3.031045775113331 -4.556742199610278 -2.390323416497968 8.000000000000000
3.634616860821311 -5.371424651209938 -3.099145284011002 13.000000000000000
3.256095431122579 -4.728880093547751 -2.987025209848504 17.000000000000000
3.239118434348272 -4.660924039765864 -3.076334647563210 12.000000000000000
2.797492521641942 -4.746278623255533 -0.957778064994690 9.000000000000000
2.804835173788664 -4.721591893156439 -1.053533882871027 12.000000000000000
2.813177331093680 -4.699035960422075 -1.149047582339753 22.000000000000000
2.827066808918874 -4.684629365191468 -1.247591667451750 29.000000000000000
2.837817143227525 -4.665524651430519 -1.345009140674551 38.000000000000000
2.856181704984798 -4.658015393576883 -1.445760236453792 60.000000000000000
2.871606395964622 -4.645469740626123 -1.546112413630440 58.000000000000000
2.889962555015790 -4.637953571286051 -1.648868430530942 45.000000000000000
2.893696710544900 -4.605818499281222 -1.743530699202191 12.000000000000000
2.900430715982472 -4.578712947084206 -1.840398166155592 31.000000000000000
2.869802589648674 -4.493123728249627 -1.912320124635499 6.000000000000000
3.016508701129870 -4.683801486488642 -2.106327346633130 35.000000000000000
2.979860375622373 -4.588687412464823 -2.175528435227307 35.000000000000000
2.972526369742643 -4.539500130029196 -2.265265006715448 31.000000000000000
3.008832266306445 -4.556423022303424 -2.389045339682058 9.000000000000000
3.299640446046451 -4.955400190638397 -2.726295266003907 7.000000000000000
3.601088750923138 -5.361117164129334 -3.091307581016919 22.000000000000000
3.250616419879019 -4.756035391879455 -3.001938747210368 14.000000000000000
3.241653217705007 -4.699412965687625 -3.099228645013115 12.000000000000000
2.796786358520686 -4.778043395386235 -0.965757410843211 8.000000000000000
2.800106179178527 -4.746503803702610 -1.060495651458731 9.000000000000000
2.804396917302347 -4.717165640254597 -1.154716524791481 14.000000000000000
2.814189563481206 -4.696065536774645 -1.251703469321274 17.000000000000000
2.828872997180103 -4.683634865308890 -1.351124721958797 31.000000000000000
2.843102257861982 -4.669524062754147 -1.450051922760048 44.000000000000000
2.858421064118498 -4.657015743228359 -1.550494562237120 57.000000000000000
2.872624115884788 -4.643032674421668 -1.651028247211391 56.000000000000000
2.874296190254310 -4.607717696110956 -1.744412521061318 12.000000000000000
2.887015053404809 -4.590315390342122 -1.845029186382231 44.000000000000000
2.856523426930167 -4.504626537511620 -1.916986611571717 28.000000000000000
2.990328220667355 -4.676809789442195 -2.102732347698600 18.000000000000000
2.955868186698541 -4.584869989058742 -2.173061077441674 34.000000000000000
2.952575184377842 -4.541982410266131 -2.265630059261488 30.000000000000000
2.986654103765499 -4.556023861044962 -2.387728594721282 9.000000000000000
3.279885803247232 -4.962027650550255 -2.728473330056933 22.000000000000000
3.447620249285011 -5.170617094476181 -2.979647207142261 20.000000000000000
3.246966104511863 -4.786147640699395 -3.018704668823812 12.000000000000000
2.795906630994793 -4.809847070158459 -0.973745999964790 0.000000000000000
2.797230236904617 -4.774820834549019 -1.068215802028386 6.000000000000000
2.801495148975781 -4.745399754937026 -1.162854288425161 10.000000000000000
2.811232849673087 -4.724224685755479 -1.260266235133465 11.000000000000000
2.815843476085846 -4.695078640417450 -1.355308849849584 24.000000000000000
2.829973900791373 -4.681002644969023 -1.454325258885603 32.000000000000000
2.845186558360814 -4.668531395858526 -1.554858210257833 43.000000000000000
2.859286658595725 -4.654581456160566 -1.655480374979624 55.000000000000000
2.852905913226834 -4.606314131975116 -1.744036114259592 12.000000000000000
2.859512753028543 -4.579407364726864 -1.840606151014515 50.000000000000000
2.843194714632566 -4.516098835455818 -1.921634492581781 96.000000000000000
2.874037256660237 -4.527634496170406 -2.035222768253303 19.000000000000000
2.939944437469605 -4.593477961652062 -2.176481316347179 35.000000000000000
2.930637917039354 -4.541297399126511 -2.264415891990256 30.000000000000000
2.966509274634495 -4.558614672315889 -2.387981363590143 9.000000000000000
3.266102369803650 -4.977711071921524 -2.735630054381045 0.000000000000000
3.285621289259699 -4.964242698323178 -2.858986389563345 15.000000000000000
3.249071624861422 -4.825114498661915 -3.041035950350296 11.000000000000000
2.817897231922063 -4.843898547844939 -1.085064997367282 0.000000000000000
2.798439281110582 -4.773661139564833 -1.170996547623375 8.000000000000000
2.802171980530880 -4.742342493271594 -1.266145279199115 8.000000000000000
2.806738130699499 -4.713163545543510 -1.361401652208932 17.000000000000000
2.820775251330411 -4.699078726662194 -1.460640305521065 22.000000000000000
2.833894463639624 -4.683307679364626 -1.560299762660050 32.000000000000000
2.845899873004699 -4.666099460381147 -1.659913774466189 47.000000000000000
2.847505014558469 -4.630776078763133 -1.753445779150161 21.000000000000000
2.762306726160640 -4.455785854991473 -1.790875195279000 40.000000000000000
2.829816545182815 -4.527540450748072 -1.926263685856518 99.000000000000000
2.852490377639745 -4.526501250794263 -2.034271631820746 23.000000000000000
2.916024558209969 -4.589502362074469 -2.173937635818751 35.000000000000000
2.910726589331492 -4.543639076368623 -2.264711607656646 31.000000000000000
2.944391936878119 -4.558061932311865 -2.386589940324174 10.000000000000000
3.283170859672758 -4.955650885012650 -2.985199727332994 22.000000000000000
3.252896797513645 -4.867095377710297 -3.065242079998990 11.000000000000000
3.270263597104567 -5.661158973441696 -1.269746070233434 28.000000000000000
2.964517641600924 -5.092771463407479 -1.250555866060897 29.000000000000000
2.806827460363357 -4.783986256232218 -1.278303214394543 4.000000000000000
2.801492832811170 -4.737923610868166 -1.369416578432435 12.000000000000000
2.809506398838390 -4.713827662860893 -1.465913558070035 16.000000000000000
2.820551117910905 -4.694767858867403 -1.564628435954405 22.000000000000000
2.832463852687556 -4.677586516464803 -1.664328364297453 34.000000000000000
