# This PCD file was generated using the MATLAB® pcwrite function
# from Computer Vision Toolbox®.
# .PCD v.7 - Point Cloud Data file format
VERSION .7
FIELDS x y z intensity
SIZE 8 8 8 8
TYPE F F F F
COUNT 1 1 1 1
WIDTH 629
HEIGHT 1
VIEWPOINT 0 0 0 1 0 0 0
POINTS 629
DATA ascii
-1.276624940855949 -5.363721435788274 -1.225000048836699 47.000000000000000
-1.290622576616430 -5.353470094580223 -1.324970683133471 43.000000000000000
-1.303594767462938 -5.337683109096771 -1.423641706717769 41.000000000000000
-1.318439167177849 -5.331640905398604 -1.524901117558685 40.000000000000000
-1.332135014176548 -5.319912635642805 -1.625529407034176 41.000000000000000
-1.344803935468103 -5.302669290044967 -1.724788907537240 39.000000000000000
-1.358513512012663 -5.291062686658373 -1.826662717507116 38.000000000000000
-1.373013153751363 -5.281157568826191 -1.930065701694008 32.000000000000000
-1.385218610446365 -5.262224564989769 -2.030523584913817 31.000000000000000
-1.401952674926205 -5.259361028100467 -2.138399932979151 29.000000000000000
-1.413602147948190 -5.236694096105238 -2.238791618514956 26.000000000000000
-1.428955417247017 -5.226205110427965 -2.345651841014992 26.000000000000000
-1.443837084173705 -5.213763931341825 -2.452672041387479 13.000000000000000
-1.459844264220373 -5.202541818178251 -2.561798851262413 25.000000000000000
-1.473811863655027 -5.185719738673636 -2.669914864275702 23.000000000000000
-1.490173653059195 -5.173462117230281 -2.781775009829405 23.000000000000000
-1.504554129456804 -5.155700354557919 -2.892243199585027 21.000000000000000
-1.521984850737002 -5.149072506517358 -3.011137731282664 22.000000000000000
-1.476874063763273 -4.934834490451956 -3.005918753331357 3.000000000000000
-1.482574713553084 -4.885996451703521 -3.097385170215932 3.000000000000000
-1.333400882938468 -4.221771758379130 -3.007089839950132 3.000000000000000
-1.318726286966940 -4.116809208957715 -3.045617657734363 20.000000000000000
-1.295017070012830 -5.509440786277812 -1.049061013894763 8.000000000000000
-1.317648922737020 -5.532669761760925 -1.157489794212583 6.000000000000000
-1.295183388888571 -5.367932879600275 -1.223982266723424 45.000000000000000
-1.308386329325435 -5.353845098171457 -1.323137135001420 44.000000000000000
-1.323323575676316 -5.345537804258955 -1.423862457296208 42.000000000000000
-1.337378036138744 -5.335671910612167 -1.524233988191444 40.000000000000000
-1.351197350199560 -5.323879834696436 -1.624977915704190 40.000000000000000
-1.363022320992150 -5.302877721781861 -1.723153510371843 40.000000000000000
-1.376850366331850 -5.291226591853453 -1.825075401838167 37.000000000000000
-1.391475247785640 -5.281273839370672 -1.928524635149588 30.000000000000000
-1.404742332650090 -5.265919840856787 -2.030429316310127 31.000000000000000
-1.420661013902584 -5.259379350258101 -2.136949960494151 28.000000000000000
-1.433370741360134 -5.240236411932926 -2.238916404170784 25.000000000000000
-1.447875855383753 -5.226126529285737 -2.344295418093161 26.000000000000000
-1.463863954425178 -5.217140555946242 -2.453008508431152 15.000000000000000
-1.478026489020754 -5.198875190818144 -2.558815047643851 24.000000000000000
-1.494085425226375 -5.188923411280602 -2.670460367425474 22.000000000000000
-1.509584046374548 -5.173160388566188 -2.780586916660071 23.000000000000000
-1.524075381300212 -5.155343135298784 -2.891097955698201 22.000000000000000
-1.539657285195408 -5.141965073079830 -3.006119530453146 21.000000000000000
-1.495944451613632 -4.934503646198237 -3.004970542841094 3.000000000000000
-1.500636460234622 -4.882358010707688 -3.094423123862181 3.000000000000000
-1.380744777866594 -4.316276382392810 -3.074065394423509 13.000000000000000
-1.324470960963869 -4.082506180193232 -3.020003967256916 57.000000000000000
-1.324498913762862 -4.027420459611649 -3.093071461984429 32.000000000000000
-1.317369672265933 -5.528935523014556 -1.050623209786323 7.000000000000000
-1.333831053453180 -5.525351380352991 -1.153857376141119 23.000000000000000
-1.313775732704234 -5.372087425368256 -1.222933366278683 45.000000000000000
-1.326160310171900 -5.354167720343287 -1.321276221748781 42.000000000000000
-1.340282724528008 -5.342059876230620 -1.421049786988013 42.000000000000000
-1.354452731134371 -5.332171704066597 -1.521402878094482 41.000000000000000
-1.367427167745515 -5.316642743239203 -1.620996262078785 40.000000000000000
-1.382212772755716 -5.306725426919821 -1.722688913911502 38.000000000000000
-1.395197384768886 -5.291336523591844 -1.823459912264877 37.000000000000000
-1.408974413938838 -5.277690976131178 -1.925625368894283 28.000000000000000
-1.422343903000859 -5.262317179526395 -2.027513680263993 31.000000000000000
-1.437413000861608 -5.252157779969248 -2.132553989764977 29.000000000000000
-1.452185701758008 -5.240153803787890 -2.237486268171698 25.000000000000000
-1.467798617169969 -5.229528223553547 -2.344495207606707 26.000000000000000
-1.481931757577220 -5.213444266135587 -2.450016561124042 15.000000000000000
-1.498195721545490 -5.202107314537330 -2.559225091307915 24.000000000000000
-1.513388677869081 -5.188622531342184 -2.669201179556518 23.000000000000000
-1.529003951518753 -5.172801740471060 -2.779369185628207 23.000000000000000
-1.545627791460206 -5.161680403875502 -2.893708025788619 21.000000000000000
-1.560330097598091 -5.144832322526899 -3.006937039515793 21.000000000000000
-1.517054080644136 -4.940726552354571 -3.008017295704847 3.000000000000000
-1.519700930291987 -4.881936312796457 -3.093506573496977 3.000000000000000
-1.341199762539079 -4.082408793981042 -3.019706216801790 54.000000000000000
-1.342199489214999 -4.030360820823407 -3.095194369522319 40.000000000000000
-1.334308810934392 -5.525410474613592 -1.047787709458959 26.000000000000000
-1.350907360100033 -5.521797787185238 -1.150998914796949 10.000000000000000
-1.330522480457808 -5.368602135186680 -1.220129928763906 42.000000000000000
-1.343944324046089 -5.354437894574580 -1.319387921351430 43.000000000000000
-1.360091411285137 -5.349796831812276 -1.421205548567742 42.000000000000000
-1.373435757971923 -5.336091612858698 -1.520676335681974 39.000000000000000
-1.387489278207432 -5.324213516173807 -1.621517788077446 39.000000000000000
-1.400463366066846 -5.306823999820910 -1.720995466359375 38.000000000000000
-1.414533960635182 -5.295059353511371 -1.823078746791118 36.000000000000000
-1.428429596020012 -5.281343354789668 -1.925357436434365 27.000000000000000
-1.441911810484555 -5.265898236456299 -2.027358402964702 31.000000000000000
-1.458107527084580 -5.259250933517538 -2.133963930752860 28.000000000000000
-1.471010424371983 -5.240015866892143 -2.236027291002405 24.000000000000000
-1.486750778267541 -5.229335899385454 -2.343078781159395 25.000000000000000
-1.503011073830383 -5.220207487549643 -2.451936275451280 16.000000000000000
-1.519411695668473 -5.208750598508016 -2.561309294405549 23.000000000000000
-1.533717719771863 -5.191705478919703 -2.669681661961393 21.000000000000000
-1.549453205462195 -5.175793476298234 -2.779951915913577 23.000000000000000
-1.564168899243946 -5.157830308090730 -2.890608615426631 20.000000000000000
-1.582061528283531 -5.150975194788530 -3.009671055680079 21.000000000000000
-1.535141082046856 -4.936976465360823 -3.004996711925882 2.000000000000000
-1.541862741656833 -4.891254258209614 -3.098766701033944 3.000000000000000
-1.358973187007000 -4.085368882883707 -3.021680487371484 52.000000000000000
-1.360968455094922 -4.036311913331627 -3.099641108666247 60.000000000000000
-1.348428643006138 -5.510373609123956 -1.042759263967888 9.000000000000000
-1.367969577020207 -5.518196012670127 -1.148116719719149 17.000000000000000
-1.349158312544846 -5.372647375407541 -1.219022570429934 42.000000000000000
-1.362697146050914 -5.358426439103873 -1.318400009427066 44.000000000000000
-1.377058488186881 -5.346215706245705 -1.418339713328301 41.000000000000000
-1.391479435722211 -5.336221679350506 -1.518855874924234 40.000000000000000
-1.405650035207460 -5.324300084120630 -1.619745842024090 40.000000000000000
-1.419709651614415 -5.310556645874982 -1.720468719874303 38.000000000000000
-1.433904380519429 -5.298723000220631 -1.822665299625817 37.000000000000000
-1.445924256588927 -5.277656703110321 -1.922405464079431 25.000000000000000
-1.460511166829720 -5.265805344525778 -2.025780147283867 30.000000000000000
-1.476845291991276 -5.259104061596307 -2.132427830625087 27.000000000000000
-1.491868948971233 -5.246941859199191 -2.237575510519993 25.000000000000000
-1.505712413243045 -5.229087829693777 -2.341633318424181 25.000000000000000
-1.521085723333520 -5.216401624612583 -2.448887974777562 25.000000000000000
-1.537610275327102 -5.204917428223283 -2.558239474049691 24.000000000000000
-1.553051710962224 -5.191288646142756 -2.668361402716396 22.000000000000000
-1.568903625508875 -5.175318238735004 -2.778672802199266 23.000000000000000
-1.584764973109416 -5.160669465564918 -2.891260390762378 21.000000000000000
-1.599700549012999 -5.143707190199702 -3.004572930546934 20.000000000000000
-1.554252147114375 -4.936475129290854 -3.003958981258433 2.000000000000000
-1.560982205833869 -4.890713025153099 -3.097785767071032 3.000000000000000
-1.376781515303627 -4.088274610159214 -3.023624872738972 51.000000000000000
-1.365304552151361 -5.506760524158814 -1.039882690230449 16.000000000000000
-1.388838273846353 -5.529758633300147 -1.148370021614104 4.000000000000000
-1.367827389355726 -5.376635286672196 -1.217883913613968 43.000000000000000
-1.379541668773381 -5.354820635962700 -1.315529072573454 42.000000000000000
-1.394989642065631 -5.346335887041925 -1.416443603345093 40.000000000000000
-1.409532727078844 -5.336298468424180 -1.517007629244965 40.000000000000000
-1.423820388360113 -5.324333049099732 -1.617945945930952 41.000000000000000
-1.436993700493710 -5.306859639642176 -1.717524343314613 38.000000000000000
-1.452304746727993 -5.298665467740231 -1.820961060431700 36.000000000000000
-1.464413564595942 -5.277557872578902 -1.920752928777634 24.000000000000000
-1.478105510912068 -5.262046076082314 -2.022785008793100 29.000000000000000
-1.494572965258199 -5.255317192680514 -2.129410447949365 27.000000000000000
-1.510736789571229 -5.246687895952118 -2.236054667289138 24.000000000000000
-1.525712115933107 -5.232312143406340 -2.341737853231544 27.000000000000000
-1.539145302594741 -5.212544759808330 -2.445814560528918 25.000000000000000
-1.557868068713838 -5.207967616815265 -2.558551227293555 24.000000000000000
-1.572394679881733 -5.190814982628404 -2.667011583551917 22.000000000000000
-1.589407201178372 -5.178188078561778 -2.779189984848645 22.000000000000000
-1.605394019927329 -5.163446002101979 -2.891878182800697 19.000000000000000
-1.622547376962577 -5.153057425233554 -3.009185135839469 20.000000000000000
-1.573372315500711 -4.935917645490890 -3.002892031650088 2.000000000000000
-1.578003908348005 -4.883595479772436 -3.092646577801068 3.000000000000000
-1.394624532854013 -4.091125805996445 -3.025539299343449 50.000000000000000
-1.389834231440757 -5.533630188399370 -1.042735703402657 4.000000000000000
-1.405918795317258 -5.526050401747359 -1.145432363049657 21.000000000000000
-1.384579374133500 -5.372998101430837 -1.215002616764546 42.000000000000000
-1.397354607748041 -5.354933072912883 -1.313558481693565 41.000000000000000
-1.412930225409561 -5.346403065882963 -1.414519860320577 38.000000000000000
-1.427595433415956 -5.336321915051404 -1.515131577597148 39.000000000000000
-1.442000137867373 -5.324312346005000 -1.616118078782989 39.000000000000000
-1.457292850260423 -5.314162011535971 -1.718127953246736 38.000000000000000
-1.469698764556647 -5.294894407390270 -1.817972154915447 35.000000000000000
-1.485976061389896 -5.288308220511458 -1.923037001684344 21.000000000000000
-1.498764646511425 -5.269064000414051 -2.023924181857649 29.000000000000000
-1.515380385442757 -5.262226845560754 -2.130719811067399 27.000000000000000
-1.528577430008109 -5.242823882123933 -2.232990994496113 23.000000000000000
-1.543663275215380 -5.228424192861959 -2.338655201659088 26.000000000000000
-1.560324914514311 -5.219124119654668 -2.447634283299855 24.000000000000000
-1.577109645100572 -5.207491265139525 -2.557128055226467 23.000000000000000
-1.593851899985308 -5.197149879905533 -2.669158153184472 21.000000000000000
-1.607830854435510 -5.174196253809673 -2.776025408851136 19.000000000000000
-1.624996475918962 -5.162794175366127 -2.890577581739772 19.000000000000000
-1.642290338886461 -5.152342485495670 -3.007921766761311 20.000000000000000
-1.594627548489580 -4.941893140580233 -3.005803581188256 2.000000000000000
-1.599248083290366 -4.889462020566821 -3.095736215753323 3.000000000000000
-1.411432757029006 -4.090823192742953 -3.025131927387937 54.000000000000000
-1.405804688658957 -5.526087592943862 -1.039078963532798 27.000000000000000
-1.422984682033063 -5.522293964300637 -1.142470991556469 8.000000000000000
-1.401317004663500 -5.369313637492729 -1.212098063143206 43.000000000000000
-1.416171298314031 -5.358755972841081 -1.312482105543377 39.000000000000000
-1.429878023657140 -5.342673188794557 -1.411579269895300 39.000000000000000
-1.445667355779258 -5.336291954781080 -1.513227699248506 38.000000000000000
-1.461204514119399 -5.327940440151147 -1.615384794443446 37.000000000000000
-1.475605335281196 -5.314039668406739 -1.716317947552045 39.000000000000000
-1.490160989153075 -5.302044003017821 -1.818721973383806 35.000000000000000
-1.504519911523005 -5.288092291974323 -1.921321354535091 19.000000000000000
-1.518442471684579 -5.272410121969236 -2.023642252459847 30.000000000000000
-1.534157801934459 -5.261911537624923 -2.129095302933468 27.000000000000000
-1.548499634341379 -5.246013124025157 -2.232926148577338 23.000000000000000
-1.564758086698171 -5.235054330341820 -2.340272268023968 26.000000000000000
-1.579447312176427 -5.218650467773062 -2.446141754533178 24.000000000000000
-1.596359867500155 -5.206958254470255 -2.555675431199933 23.000000000000000
-1.613236390701081 -5.196557049084028 -2.667744962198007 18.000000000000000
-1.628375726340761 -5.176946325954095 -2.776478926996314 19.000000000000000
-1.644607244708893 -5.162084706020886 -2.889247046985822 19.000000000000000
-1.662041477414000 -5.151569521011098 -3.006628277247619 20.000000000000000
-1.614864555319231 -4.944509830225717 -3.006675740211251 2.000000000000000
-1.619471571374504 -4.892006949879833 -3.096727923443904 3.000000000000000
-1.427170204701581 -4.087374439941208 -3.022408872824347 60.000000000000000
-1.422718967824186 -5.522313511818977 -1.036117858052275 7.000000000000000
-1.437064577598397 -5.507103203925765 -1.137134864966560 22.000000000000000
-1.419038735551896 -5.369360510046847 -1.210021809783915 42.000000000000000
-1.434014362635238 -5.358760291619857 -1.310454480214449 39.000000000000000
-1.448838889261512 -5.346378160860412 -1.410589392430811 39.000000000000000
-1.463748294888202 -5.336208523740624 -1.511295973782036 38.000000000000000
-1.479414396219625 -5.327809545813823 -1.613498834146845 38.000000000000000
-1.493926778451429 -5.313863184684186 -1.714479756393694 38.000000000000000
-1.508600763034065 -5.301820686177995 -1.816930694712415 35.000000000000000
-1.523072644098149 -5.287821583054316 -1.919577199954412 28.000000000000000
-1.539203887040014 -5.279299454243268 -2.024709526462414 29.000000000000000
-1.552943989327958 -5.261540805604077 -2.127441965594683 26.000000000000000
-1.568454707452684 -5.249141302499325 -2.232828120806707 23.000000000000000
-1.582714624434284 -5.231057024125777 -2.337133463871121 26.000000000000000
-1.599647535947156 -5.221610826776183 -2.446255124559158 23.000000000000000
-1.616692025765366 -5.209827902818391 -2.555890474343845 20.000000000000000
-1.630475339174910 -5.189052370138687 -2.662784570388776 18.000000000000000
-1.648952995482847 -5.179633677893433 -2.776898446382273 19.000000000000000
-1.665309592590045 -5.164677764666555 -2.889766694386667 19.000000000000000
-1.682886310081262 -5.154063672366515 -3.007244806884346 20.000000000000000
-1.635134112071355 -4.947064755509923 -3.007514379073216 2.000000000000000
-1.637548499263314 -4.887985874136906 -3.093569622103004 3.000000000000000
-1.446173359968807 -4.093162817462998 -3.026526848163569 50.000000000000000
-1.439618395632833 -5.518491685591714 -1.033133288114689 22.000000000000000
-1.461080328444311 -5.529807560307681 -1.139603711733633 3.000000000000000
-1.437779701241139 -5.373130772307204 -1.208767651115932 42.000000000000000
-1.450848132976042 -5.354953879517879 -1.307481794625204 38.000000000000000
-1.466806573341860 -5.346285950016086 -1.408582626991298 38.000000000000000
-1.481838051138137 -5.336071558637264 -1.509336381096540 37.000000000000000
-1.497633062838964 -5.327624757867551 -1.611584825086259 37.000000000000000
-1.512256977757674 -5.313632496996315 -1.712613359777370 37.000000000000000
-1.525997569750869 -5.297891637429996 -1.813860969083287 34.000000000000000
-1.540576692639200 -5.283869489904427 -1.916489151483511 29.000000000000000
-1.555771331649687 -5.271719177611958 -2.020219907835595 29.000000000000000
-1.572806498337020 -5.264688713050237 -2.127203909706421 27.000000000000000
-1.586297315676897 -5.245115465881352 -2.229681720750412 24.000000000000000
-1.601732585632130 -5.230526534233374 -2.335540386892254 24.000000000000000
-1.618798888554325 -5.221021645645370 -2.444701849739105 19.000000000000000
-1.635970987981820 -5.209178659214690 -2.554376758206200 20.000000000000000
-1.652030126130523 -5.195200057142280 -2.664829605927181 18.000000000000000
-1.668469771229639 -5.178866615190841 -2.775466303984731 19.000000000000000
-1.684948408499217 -5.163850101271822 -2.888374108783512 19.000000000000000
-1.701567421694410 -5.149849271297485 -3.003950863836658 19.000000000000000
-1.654336750043297 -4.946271193121794 -3.006321872579462 2.000000000000000
-1.655609598715750 -4.883913772425590 -3.090386241257217 3.000000000000000
-1.464129169362665 -4.095799562172177 -3.028324903627680 52.000000000000000
-1.459518339052736 -5.526039589149621 -1.032258047737983 3.000000000000000
-1.479161945130601 -5.529686050343632 -1.137342571397244 27.000000000000000
-1.456552831236978 -5.376843055454624 -1.207481928156659 41.000000000000000
-1.470756770658595 -5.362365419001476 -1.307232050807746 39.000000000000000
-1.485820478169144 -5.349876430485683 -1.407531060114477 38.000000000000000
-1.500980948575070 -5.339596791325317 -1.508398587271637 36.000000000000000
-1.515860312758962 -5.327386013562872 -1.609642747536542 37.000000000000000
-1.531653502619795 -5.317019517363930 -1.711900990093631 38.000000000000000
-1.545506266243638 -5.301210394890568 -1.813263006324742 33.000000000000000
-1.560203939057212 -5.287115571221086 -1.916003289428775 28.000000000000000
-1.575523215422346 -5.274889084409958 -2.019843495134686 29.000000000000000
-1.591621647755376 -5.264204190351896 -2.125490713383146 26.000000000000000
-1.606293301240599 -5.248126534215887 -2.229521408564789 21.000000000000000
-1.621847980760410 -5.233454626109849 -2.335486631037053 20.000000000000000
-1.639051783431324 -5.223860832050535 -2.444750142366065 19.000000000000000
-1.655257952046543 -5.208472535153478 -2.552833516455505 19.000000000000000
-1.670337865990872 -5.191013877865560 -2.661572905866795 18.000000000000000
-1.689099036068063 -5.181430793979000 -2.775819766043914 20.000000000000000
-1.705702481819410 -5.166319329385382 -2.888827379808992 19.000000000000000
-1.723561449517455 -5.155541325200439 -3.006438686201298 19.000000000000000
-1.675769908043902 -4.951988656197131 -3.009090820196268 2.000000000000000
-1.678108862311656 -4.892777486492599 -3.095393854407260 3.000000000000000
-1.481001709846823 -4.095292547294583 -3.027809255469083 52.000000000000000
-1.477439309752852 -5.525917385203019 -1.029929190725282 26.000000000000000
-1.496226088863634 -5.525723585432333 -1.134276134105218 9.000000000000000
-1.474324009419773 -5.376726702551008 -1.205319327532485 41.000000000000000
-1.487595835577934 -5.358455787457109 -1.304206350175693 41.000000000000000
-1.502767652328899 -5.345941698539447 -1.404485934045285 38.000000000000000
-1.518043215035002 -5.335636775977522 -1.505333515245835 36.000000000000000
-1.535159073993697 -5.330784930050843 -1.608786700304814 37.000000000000000
-1.548942835113421 -5.313008259177867 -1.708795871793517 37.000000000000000
-1.563971588236995 -5.300823295460255 -1.811386557721276 32.000000000000000
-1.579863449474645 -5.290301157169916 -1.915484572493533 29.000000000000000
-1.594220625119743 -5.274402791932737 -2.018058420089708 28.000000000000000
-1.611536763628894 -5.267232607542847 -2.125188442823338 25.000000000000000
-1.626321457057727 -5.251076113210469 -2.229327739831914 17.000000000000000
-1.641995484204323 -5.236320909049318 -2.335399359275743 18.000000000000000
-1.658231206945539 -5.223155736884770 -2.443135979138217 19.000000000000000
-1.674552706052866 -5.207709469437121 -2.551260730812505 20.000000000000000
-1.690855449098599 -5.193614213471662 -2.661795493999997 18.000000000000000
-1.707526450841938 -5.177159840774504 -2.772512471161642 20.000000000000000
-1.726488084348288 -5.168725053849185 -2.889246305235178 18.000000000000000
-1.777022934705021 -5.254038378822273 -3.063032191047784 20.000000000000000
-1.693889124331724 -4.947795242342871 -3.005841957641809 2.000000000000000
-1.696185751407719 -4.888592345381253 -3.092151803744643 3.000000000000000
-1.499012670235271 -4.097821265808095 -3.029548792801505 55.000000000000000
-1.494339708874061 -5.521941606851400 -1.026865972269779 8.000000000000000
-1.510163104132854 -5.510359177592169 -1.128860103308456 26.000000000000000
-1.492103424944766 -5.376557570059791 -1.203129280294036 40.000000000000000
-1.506526608883549 -5.361997908359969 -1.302979665025186 39.000000000000000
-1.521821891488614 -5.349419952772827 -1.403374611236064 39.000000000000000
-1.538294742347259 -5.342759333820965 -1.505381010420863 36.000000000000000
-1.553414783560726 -5.330435290365990 -1.606786272481759 36.000000000000000
-1.567298087531691 -5.312614585248371 -1.706844742038883 36.000000000000000
-1.582445018400461 -5.300381477839363 -1.809481680790655 32.000000000000000
-1.598461647036760 -5.289807884922912 -1.913624023563647 28.000000000000000
-1.615123486566605 -5.281046236682135 -2.018991522806964 25.000000000000000
-1.630380002702952 -5.266633910246531 -2.123415244889152 18.000000000000000
-1.645272867284142 -5.250426016660819 -2.227599568088892 16.000000000000000
-1.661061541396841 -5.235616093796794 -2.333714351429571 19.000000000000000
-1.678535843818878 -5.225873232178645 -2.443118986503515 18.000000000000000
-1.696098554385434 -5.213785943738425 -2.553035414303386 19.000000000000000
-1.711404606882627 -5.196151593546627 -2.661984013555258 19.000000000000000
-1.729323528578169 -5.182986309126650 -2.774612955514995 19.000000000000000
-1.783518542097209 -5.278239488408778 -2.949519539348350 19.000000000000000
-1.810802887543669 -5.292653575358099 -3.084696911158801 18.000000000000000
-1.715397720739049 -4.953385319616728 -3.008541263650665 2.000000000000000
-1.715383756614005 -4.887597277160741 -3.090934393324409 3.000000000000000
-1.517056827513265 -4.100294382868285 -3.031257916429117 48.000000000000000
-1.509144403629940 -5.510322898420182 -1.022370150258032 28.000000000000000
-1.531356496395324 -5.521435957982496 -1.128845535423582 4.000000000000000
-1.509890880356720 -5.376335597400161 -1.200911767593044 40.000000000000000
-1.525488976257030 -5.365481305392026 -1.301721070278481 39.000000000000000
-1.538761684061166 -5.345383929942267 -1.400278229917253 37.000000000000000
-1.556441468339569 -5.342401965630898 -1.503305422479439 36.000000000000000
-1.572765374478658 -5.333717528195373 -1.605867493370003 36.000000000000000
-1.586754844334689 -5.315830022833975 -1.706041099246245 35.000000000000000
-1.602025889601430 -5.303524911846774 -1.808789804943464 32.000000000000000
-1.617067691325444 -5.289259487619588 -1.911734854601334 25.000000000000000
-1.632749966516757 -5.276853763439154 -2.015773277458941 20.000000000000000
-1.649230954470755 -5.265979410988772 -2.121613089575440 18.000000000000000
-1.664231923245223 -5.249719821045770 -2.225842291396825 6.000000000000000
-1.681260503378712 -5.238361130275979 -2.333562038728032 19.000000000000000
-1.698872019397226 -5.228528258487335 -2.443068175861776 18.000000000000000
-1.714298530014923 -5.209457679852218 -2.549712774376249 20.000000000000000
-1.731985092563379 -5.198625856328566 -2.662138397050443 18.000000000000000
-1.787682461131302 -5.296912870902205 -2.834559834654068 19.000000000000000
-1.811613302596301 -5.300503899086924 -2.961015308575833 18.000000000000000
-1.831126938011463 -5.291405571416407 -3.083125883851026 19.000000000000000
-1.734667126774798 -4.952356452386701 -3.007224555597848 2.000000000000000
-1.736888115624706 -4.893022056522211 -3.093782608424321 3.000000000000000
-1.532828955068825 -4.096551505940996 -3.028382596977334 54.000000000000000
-1.529145340893776 -5.517641723264480 -1.021371793282856 3.000000000000000
-1.553687902100610 -5.536221207697412 -1.129561260980394 14.000000000000000
-1.527686177889527 -5.376060724567640 -1.198666770894460 39.000000000000000
-1.542328615790018 -5.361417804943720 -1.298616787873815 39.000000000000000
-1.558940272955787 -5.352474336828565 -1.400081318691220 36.000000000000000
-1.574595986596101 -5.341990688716882 -1.501201838747070 34.000000000000000
-1.589949900451782 -5.329573426580188 -1.602700971717333 35.000000000000000
-1.604032223397572 -5.311663822288334 -1.702857617446486 34.000000000000000
-1.619415385073939 -5.299333444598296 -1.805586567724682 23.000000000000000
-1.636798645031502 -5.292268374793973 -1.911121567242284 20.000000000000000
-1.652605443712627 -5.279785134467430 -2.015268761547239 20.000000000000000
-1.669217260022208 -5.268829069280099 -2.121215212455576 18.000000000000000
-1.683198415480032 -5.248957466361254 -2.224055891936160 5.000000000000000
-1.699216134471352 -5.234037161212268 -2.330256535963640 19.000000000000000
-1.718097895096461 -5.227647134556910 -2.441361312756480 19.000000000000000
-1.737064868556856 -5.218848067311733 -2.553101347918279 19.000000000000000
-1.792820188445712 -5.320404899431932 -2.723359593957834 18.000000000000000
-1.813432919984717 -5.312640298738041 -2.841932107025129 19.000000000000000
-1.832948374657329 -5.302608212992707 -2.961246763669544 18.000000000000000
-1.852615042822295 -5.293406010037063 -3.083451039989456 18.000000000000000
-1.755102916538684 -4.954543129708985 -3.007865044879989 2.000000000000000
-1.756124558418493 -4.891907797391003 -3.092502002771310 3.000000000000000
-1.547422095727964 -4.089686823303170 -3.023210635227606 46.000000000000000
-1.551326561331718 -5.532479896629086 -1.021737781185434 12.000000000000000
-1.568614456659710 -5.524496886243295 -1.124849696735657 15.000000000000000
-1.546569881090364 -5.379492145906050 -1.197230911327993 38.000000000000000
-1.560241185073774 -5.361047880889127 -1.296393868858449 37.000000000000000
-1.575883718487122 -5.348334034246673 -1.396931481471410 36.000000000000000
-1.592758095379788 -5.341525443348226 -1.499070241071343 34.000000000000000
-1.610450212897225 -5.336421663936966 -1.602826857911825 35.000000000000000
-1.623528062065194 -5.314764399937193 -1.701992950880553 25.000000000000000
-1.639035308092404 -5.302361352315515 -1.804833329783453 20.000000000000000
-1.655431712456061 -5.291606631378499 -1.909172884823658 20.000000000000000
-1.672492230055954 -5.282655091658774 -2.014730980298383 20.000000000000000
-1.688094996705186 -5.268059863137434 -2.119352863611751 18.000000000000000
-1.701027432042058 -5.244609546278642 -2.220745906789728 12.000000000000000
-1.720602983681756 -5.240163811701922 -2.331598721708996 19.000000000000000
-1.743098823003506 -5.244062029699700 -2.447724641765419 17.000000000000000
-1.795803127935706 -5.334790679111737 -2.608584968092638 18.000000000000000
-1.816205556310581 -5.329465082326594 -2.726854472370714 18.000000000000000
-1.834650323595257 -5.314781528042499 -2.842033690741553 19.000000000000000
-1.854313548196433 -5.304647092171249 -2.961442974715917 18.000000000000000
-1.874133067482558 -5.295340610954930 -3.083740757479444 19.000000000000000
-1.775569570773700 -4.956666974873460 -3.008471572001520 2.000000000000000
-1.776541326833587 -4.893969142137425 -3.093235029844811 3.000000000000000
-1.567857708089126 -4.098155326306287 -3.029384282103034 5.000000000000000
-1.567158377935421 -5.524507162951545 -1.017869945014532 14.000000000000000
-1.583478178171744 -5.512735870483886 -1.120123243904066 30.000000000000000
-1.565484411682796 -5.382864762486805 -1.195763147766331 38.000000000000000
-1.580362260644664 -5.368101093655118 -1.295948214022771 36.000000000000000
-1.595027876111171 -5.351583795122194 -1.395698018273948 38.000000000000000
-1.610927592645034 -5.341006170383593 -1.496910611619569 33.000000000000000
-1.626515262112260 -5.328494384067633 -1.598502956229856 21.000000000000000
-1.644184250658369 -5.321459318002950 -1.702264631814494 21.000000000000000
-1.659821653596466 -5.308959712462975 -1.805281930806744 19.000000000000000
-1.674071996278153 -5.290889549925419 -1.907195512203006 20.000000000000000
-1.690116844991618 -5.278301599919629 -2.011430652685166 20.000000000000000
-1.708131616758674 -5.270788782049457 -2.118890274377371 19.000000000000000
-1.723466246889131 -5.254316817075019 -2.223380057848079 17.000000000000000
-1.752497014910948 -5.277699354290927 -2.346900027364897 18.000000000000000
-1.799697976383220 -5.354016232718974 -2.497713629218506 18.000000000000000
-1.817929437056155 -5.340502591529825 -2.610138048408154 19.000000000000000
-1.837322596880253 -5.331639379713550 -2.726822913150193 17.000000000000000
-1.858251448681428 -5.323600559373837 -2.845704594245149 18.000000000000000
-1.875708567147738 -5.306620379041022 -2.961603876934774 17.000000000000000
-1.794883662851291 -4.955461209406215 -3.007061828246939 3.000000000000000
-1.796988678832959 -4.895967664224538 -3.093934116786246 3.000000000000000
-1.583620936809663 -4.094270199805062 -3.026436891707194 49.000000000000000
-1.581864302782640 -5.512706272799259 -1.013287164342710 30.000000000000000
-1.603756275311005 -5.519790141664402 -1.119204450216778 4.000000000000000
-1.583325405097594 -5.382424982532882 -1.193431174797456 34.000000000000000
-1.597200714519316 -5.363883287832604 -1.292765234700046 35.000000000000000
-1.614202795827383 -5.354773949133971 -1.394432245617993 36.000000000000000
-1.630231683843419 -5.344128612525719 -1.495757343213453 23.000000000000000
-1.644808776482550 -5.327873273197072 -1.596361636208502 20.000000000000000
-1.661471687371051 -5.317131995470649 -1.698998285698576 21.000000000000000
-1.678368254693529 -5.308234467299365 -1.803227895140278 19.000000000000000
-1.693872367978141 -5.293720693908454 -1.906487245141052 20.000000000000000
-1.708883067194234 -5.277476273339634 -2.009468299574305 20.000000000000000
-1.728199026791539 -5.273455646604603 -2.118394124588436 19.000000000000000
-1.757670367697357 -5.299183758873529 -2.240870895033816 18.000000000000000
-1.799914911395944 -5.360540578180009 -2.382311277188618 19.000000000000000
-1.819387903557618 -5.352853241278329 -2.495834496460913 18.000000000000000
-1.840109785516201 -5.346143926076495 -2.611651795114142 19.000000000000000
-1.856099046426222 -5.326945414944773 -2.723278332461545 19.000000000000000
-1.877174919620642 -5.318868227596139 -2.842131435844504 19.000000000000000
-1.943608170790666 -5.438573512735458 -3.034284334898112 5.000000000000000
-1.817789612271371 -4.963989167280817 -3.011562463678445 3.000000000000000
-1.817466367380891 -4.897903205261084 -3.094599197849781 3.000000000000000
-1.601768682616410 -4.096477592156941 -3.028004033079442 72.000000000000000
-1.603095581494472 -5.523569029972713 -1.012852273393904 5.000000000000000
-1.627408769440527 -5.538080938110356 -1.120535684432582 17.000000000000000
-1.603405024328878 -5.389432952711719 -1.192731644663611 32.000000000000000
-1.615146732499633 -5.363350237486717 -1.290456997558206 34.000000000000000
-1.632276288886429 -5.354191307196221 -1.392168654539950 23.000000000000000
-1.649566349468502 -5.347190930888005 -1.494571512952870 19.000000000000000
-1.664255422956155 -5.330869089167999 -1.595290770146363 19.000000000000000
-1.681048254488770 -5.320053577352620 -1.698037308240856 21.000000000000000
-1.696921697767409 -5.307454046019224 -1.801145274829419 19.000000000000000
-1.712538376684513 -5.292889744740754 -1.904450172202183 20.000000000000000
-1.728826524496842 -5.280170092247107 -2.008837137533889 19.000000000000000
-1.770635679285318 -5.343474652609571 -2.144925156773740 28.000000000000000
-1.800456499565256 -5.368558086808902 -2.268686946612940 17.000000000000000
-1.819466167804351 -5.359384290019240 -2.380366126483553 18.000000000000000
-1.840273357815700 -5.355093489731972 -2.495538355694812 18.000000000000000
-1.859956264396116 -5.344853251429158 -2.609775931995083 20.000000000000000
-1.879646140495954 -5.335792783606086 -2.726654682378369 17.000000000000000
-1.940509972214846 -5.438604951627365 -2.905046166219920 5.000000000000000
-1.992008577367202 -5.513589463094452 -3.075163907850982 7.000000000000000
-1.837152247532131 -4.962659927600114 -3.010086720076295 3.000000000000000
-1.836764951154883 -4.896552071010437 -3.093193872050764 3.000000000000000
-1.621159976108752 -4.101694112852726 -3.031806348771695 71.000000000000000
-1.625512264836485 -5.538140787897371 -1.013067860655769 14.000000000000000
-1.645590351033117 -5.537465811594891 -1.118016449791517 15.000000000000000
-1.625793010153912 -5.403870663137440 -1.193651098192936 29.000000000000000
-1.635370931744870 -5.370222295513263 -1.289912559973033 23.000000000000000
-1.651500279693136 -5.357264789441607 -1.390840322245035 22.000000000000000
-1.667780364570972 -5.346503179874651 -1.492323156404725 19.000000000000000
-1.682574453446360 -5.330135948351160 -1.593090700714925 19.000000000000000
-1.700655216867531 -5.322914208841200 -1.697043357919213 21.000000000000000
-1.715481776153764 -5.306618391303140 -1.799034053254024 19.000000000000000
-1.731210967989612 -5.292003250164209 -1.902384341967712 19.000000000000000
-1.772448769538464 -5.354239445211070 -2.035328308334417 20.000000000000000
-1.799304388575063 -5.370774281049002 -2.154271881466471 130.000000000000000
-1.822260485532445 -5.374441522053931 -2.269645137216318 17.000000000000000
-1.841417845176323 -5.365146770365265 -2.381487865160212 18.000000000000000
-1.859986936621488 -5.353810660080105 -2.493596601619844 18.000000000000000
-1.881014110168965 -5.346931266367938 -2.609542479072187 19.000000000000000
-1.944383097542847 -5.460010620697091 -2.788957223025240 5.000000000000000
-1.991371054501154 -5.521074979655890 -2.948015670296318 7.000000000000000
-2.011789508608428 -5.508521413537385 -3.071366928527615 7.000000000000000
-1.857739883017088 -4.964530858012526 -3.010556740353696 3.000000000000000
-1.856069565333241 -4.895143735713583 -3.091758977564024 3.000000000000000
-1.639383124884725 -4.103785503972648 -3.033309662271091 69.000000000000000
-1.642422033031930 -5.533748386837821 -1.009791392605959 17.000000000000000
-1.659256990579966 -5.521750806683834 -1.112437983933461 26.000000000000000
-1.648280759470517 -5.418230793178784 -1.194524846877831 27.000000000000000
-1.654501162604850 -5.373302332720501 -1.288437792103138 21.000000000000000
-1.671909766646356 -5.363985196863193 -1.390440412252554 21.000000000000000
-1.686000933464187 -5.345761104027272 -1.490046667399048 19.000000000000000
-1.700900014280386 -5.329348189335231 -1.590862350503739 20.000000000000000
-1.717938992359702 -5.318428214612774 -1.693696237387602 21.000000000000000
-1.735231126191667 -5.309346632962137 -1.798119926409032 19.000000000000000
-1.780798315797204 -5.384517396719358 -1.933854638508395 19.000000000000000
-1.804634242006348 -5.392435294837195 -2.048138873116823 19.000000000000000
-1.816174036879787 -5.362547715407233 -2.149355686652264 45.000000000000000
-1.840504431843280 -5.369712260108932 -2.266115107403209 17.000000000000000
-1.862213731132868 -5.367353496140472 -2.381024247471842 18.000000000000000
-1.882133011966114 -5.359380198246565 -2.494841721614816 17.000000000000000
-1.944721943664024 -5.468798900145391 -2.667740458065625 6.000000000000000
-1.986808117722042 -5.519483682761798 -2.818147863239267 7.000000000000000
-2.008542084950171 -5.509268587371788 -2.940632300234505 8.000000000000000
-2.032778290014739 -5.506722788824584 -3.069396121500895 6.000000000000000
-1.883280750610389 -4.979356091337720 -3.018884981253560 3.000000000000000
-1.876612987517296 -4.896895552493134 -3.092326251069636 3.000000000000000
-1.657637729972384 -4.105820127920262 -3.034782073450557 67.000000000000000
-1.654784220269510 -5.514211115197559 -1.003743473890978 31.000000000000000
-1.679688157007814 -5.528556064787141 -1.111382712531112 4.000000000000000
-1.674320137674749 -5.443737092331303 -1.197822418454899 30.000000000000000
-1.672502114675708 -5.372599303392532 -1.286039424586733 21.000000000000000
-1.687703909638065 -5.355823686442934 -1.386168876121955 22.000000000000000
-1.704227852360858 -5.344964647230172 -1.487742029754197 19.000000000000000
-1.721595105969137 -5.335830162484680 -1.590789353818359 20.000000000000000
-1.738770865561892 -5.324812339475992 -1.693798520024551 21.000000000000000
-1.783683141777643 -5.398799089897519 -1.826534104981334 19.000000000000000
-1.805795586513459 -5.401395350797476 -1.938114177264056 19.000000000000000
-1.826231258334183 -5.398414791579546 -2.048690588922182 18.000000000000000
-1.839059197980843 -5.371970580197596 -2.151505833553226 16.000000000000000
-1.862379379159788 -5.375464687892372 -2.267002081450864 18.000000000000000
-1.881817725850796 -5.366013604004383 -2.378982145438178 18.000000000000000
-1.944771627993199 -5.478804644161007 -2.549052174058518 7.000000000000000
-1.984701321788300 -5.521956205832871 -2.692377448307651 6.000000000000000
-2.008705093117557 -5.521165326986381 -2.817817112760685 8.000000000000000
-2.028118955103514 -5.504131637409485 -2.936812629708915 9.000000000000000
-2.058728865911480 -5.518150807947387 -3.074798061241166 4.000000000000000
-1.906460591248451 -4.987589872885142 -3.023218694357090 3.000000000000000
-1.895940901769818 -4.895369535433417 -3.090829857586252 3.000000000000000
-1.675923564895513 -4.107797825238124 -3.036223514762519 68.000000000000000
-1.673902002239216 -5.517277861763390 -1.001798923434813 5.000000000000000
-1.702478328664256 -5.542805375402759 -1.111796793858853 14.000000000000000
-1.697041253223185 -5.457931438011736 -1.198597264648068 31.000000000000000
-1.691679973230120 -5.375562585718501 -1.284502142931480 22.000000000000000
-1.706993959656270 -5.358722796488559 -1.384747490371741 21.000000000000000
-1.722460917178755 -5.344113753965036 -1.485409227611521 20.000000000000000
-1.739956679132164 -5.334926736286047 -1.588499755493744 20.000000000000000
-1.786062905152583 -5.411132129974755 -1.719282516281945 20.000000000000000
-1.808602471616778 -5.415780254888658 -1.830381744451092 20.000000000000000
-1.826067048681933 -5.403832398387769 -1.937175919696701 19.000000000000000
-1.844226973032535 -5.393637023376199 -2.045150980246884 18.000000000000000
-1.864468059184385 -5.388388566358390 -2.156442328053170 17.000000000000000
-1.884307302328632 -5.381146635143414 -2.267849836624043 17.000000000000000
-1.944585090362463 -5.486380373952728 -2.430860592186714 9.000000000000000
-1.982265655639266 -5.525516907552418 -2.569387042628143 5.000000000000000
-2.006442844697001 -5.523680128314876 -2.691921423634717 9.000000000000000
-2.025649962396420 -5.509234870648989 -2.810540405307955 8.000000000000000
-2.051421677088635 -5.508998398617887 -2.938331115922165 4.000000000000000
-2.082275793624142 -5.522853324480590 -3.076451637123626 8.000000000000000
-1.929717059564471 -4.995746978400776 -3.027508579314906 4.000000000000000
-1.917787675132023 -4.900208411357069 -3.093358039150518 3.000000000000000
-1.694240402404867 -4.109718437151625 -3.037633919055257 67.000000000000000
-1.697671156839953 -5.535357108972272 -1.002551903585961 10.000000000000000
-1.718376584967132 -5.534462403788140 -1.107658707947669 11.000000000000000
-1.718687100187464 -5.468311570405475 -1.198507079920187 31.000000000000000
-1.710887134736912 -5.378465741407622 -1.282932375730022 21.000000000000000
-1.727503943194419 -5.365259092215395 -1.384247448850011 21.000000000000000
-1.741897927619750 -5.346885732264166 -1.484068925577216 20.000000000000000
-1.786042755233554 -5.418054321861415 -1.611186718489381 19.000000000000000
-1.809685016435825 -5.424577613950457 -1.721563780844394 20.000000000000000
-1.827553743106937 -5.414624553664119 -1.828083219909166 19.000000000000000
-1.846367588936848 -5.406206268555072 -1.936203632978564 18.000000000000000
-1.865894170387051 -5.399486350552525 -2.045631954950007 18.000000000000000
-1.887530460110511 -5.397652178966592 -2.158500339831388 17.000000000000000
-1.944736138756084 -5.495404231137929 -2.314415193306383 10.000000000000000
-1.978311192096564 -5.523045713754304 -2.445605624585795 4.000000000000000
-2.002607760094039 -5.523836548218581 -2.567203916282412 10.000000000000000
-2.023198144228677 -5.511677146404934 -2.684775652263556 10.000000000000000
-2.050068838703154 -5.517559871042693 -2.813596777443000 4.000000000000000
-2.077296776873619 -5.520490312644519 -2.943380506966179 10.000000000000000
-2.099557456069759 -5.510901592144001 -3.068831394906960 7.000000000000000
-1.956849537486855 -5.013562124361492 -3.037652829538847 5.000000000000000
-1.940955635466098 -4.908185072931467 -3.097871932634582 3.000000000000000
-1.712588014480905 -4.111581805571865 -3.039013219574202 72.000000000000000
-1.715724951795801 -5.534526309216860 -0.999853200410793 14.000000000000000
-1.733057453269951 -5.522328453070960 -1.102753063957828 28.000000000000000
-1.736851410057447 -5.467422453747595 -1.195925955750644 31.000000000000000
-1.727735336530693 -5.373881000304391 -1.279561487960096 22.000000000000000
-1.746864183994941 -5.368033983076544 -1.382758358937332 21.000000000000000
-1.789187869449631 -5.434102779373633 -1.506117442637875 18.000000000000000
-1.809554022262495 -5.431578420517989 -1.613125569283722 19.000000000000000
-1.829735070202345 -5.427050994131291 -1.720345046777005 20.000000000000000
-1.847740417927274 -5.417018842128180 -1.826971869511463 19.000000000000000
-1.866696957467520 -5.408516807543476 -1.935197253899775 18.000000000000000
-1.886372023048482 -5.401709431870583 -2.044727806897620 18.000000000000000
-1.944342748893427 -5.502128996921769 -2.198591316288271 12.000000000000000
-1.974650703925053 -5.521853280657766 -2.323952440214158 4.000000000000000
-1.999734359686719 -5.524854705399036 -2.444900606347519 12.000000000000000
-2.020431474996335 -5.515210349570547 -2.561791454204275 10.000000000000000
-2.044947570239988 -5.513279390026140 -2.684257029884166 5.000000000000000
-2.073293991455171 -5.522424494536855 -2.814884673860589 9.000000000000000
-2.096908580644443 -5.515161677052286 -2.939460848590012 7.000000000000000
-2.120596478671784 -5.508844578336717 -3.066725613154034 4.000000000000000
-1.989242911370257 -5.044247784799553 -3.055593710739045 6.000000000000000
-1.959077812465950 -4.903265876184401 -3.094252393090980 3.000000000000000
-1.730966172336506 -4.113387773098524 -3.040361349963236 74.000000000000000
-1.730248041145674 -5.522355983614575 -0.995093013917722 26.000000000000000
-1.753614707859689 -5.528888349711104 -1.101564829143971 4.000000000000000
-1.757415348723953 -5.473936642225566 -1.194944738876974 31.000000000000000
-1.745771481183101 -5.372959239900364 -1.277049310659950 21.000000000000000
-1.788103860858538 -5.437190336197236 -1.398323936270198 19.000000000000000
-1.811395256995254 -5.444020541093090 -1.506688943044189 18.000000000000000
-1.830707131169139 -5.437721989461296 -1.612851811300574 19.000000000000000
-1.848578071431067 -5.425834763423567 -1.717944188222805 21.000000000000000
-1.867955707596283 -5.419350038554505 -1.825826561883071 18.000000000000000
-1.887054903711012 -5.410763862348518 -1.934156719680069 18.000000000000000
-1.941982007346149 -5.503348123545627 -2.081413297308019 14.000000000000000
-1.971654745893116 -5.521728181591507 -2.204720266068988 4.000000000000000
-1.998439352991075 -5.530699738722462 -2.326064606263525 11.000000000000000
-2.017378870325706 -5.516189276733483 -2.439557000115782 11.000000000000000
-2.039484474411676 -5.509976172869315 -2.557954192913967 5.000000000000000
-2.074388412253585 -5.535264718536667 -2.693654248568522 7.000000000000000
-2.094008659972327 -5.520461762606174 -2.812690821893519 8.000000000000000
-2.112646957661968 -5.499747668509043 -2.930170373034815 6.000000000000000
-2.146786695601713 -5.519962488001712 -3.071954591891198 6.000000000000000
-2.020587535535650 -5.071571510305822 -3.071495470791433 6.000000000000000
-1.979765543974544 -4.904698453249829 -3.094647875539300 3.000000000000000
-1.749374646419698 -4.115136183022734 -3.041678244265993 78.000000000000000
-1.748277667133271 -5.521426598277904 -0.992345463249741 6.000000000000000
-1.776622285592295 -5.542866258924976 -1.101827069012128 14.000000000000000
-1.776821982678823 -5.476657898471490 -1.193114372128311 26.000000000000000
-1.791810028917200 -5.457253008478421 -1.294739518870477 19.000000000000000
-1.813859419066829 -5.458225033695656 -1.401461197964682 21.000000000000000
-1.829978438895322 -5.442860202349308 -1.504176761840272 18.000000000000000
-1.849431318664835 -5.436504164564985 -1.610379541042802 19.000000000000000
-1.868673367686982 -5.428185832425504 -1.716660249890009 21.000000000000000
-1.888199362224389 -5.421617990756050 -1.824647234619817 18.000000000000000
-1.941457630622983 -5.509479365646984 -1.967555688667006 13.000000000000000
-1.965379145713587 -5.512450252207388 -2.083055695494684 5.000000000000000
-1.996571296579831 -5.534183527845031 -2.207979107193329 10.000000000000000
-2.018475374463001 -5.528982068131441 -2.323725124227781 11.000000000000000
-2.037540920367594 -5.514408982725030 -2.437255950668511 7.000000000000000
-2.067512052508972 -5.528741077464442 -2.565250867086386 6.000000000000000
-2.091106845490984 -5.523091750106333 -2.686423957726723 9.000000000000000
-2.110848634064075 -5.508318104173962 -2.805311695213065 7.000000000000000
-2.143847224216390 -5.524378211088711 -2.942213530671760 5.000000000000000
-2.165281183481246 -5.511155377633528 -3.066096508599020 7.000000000000000
-2.053451547193864 -5.102012634204908 -3.089282736128339 7.000000000000000
-1.997873189908247 -4.899670287815765 -3.090973598680715 3.000000000000000
-1.765201960912091 -4.110745894279218 -3.038469060210859 78.000000000000000
-1.772320011711421 -5.539220168014420 -0.992935902437575 10.000000000000000
-1.793671126556399 -5.538066617320422 -1.098334207734167 12.000000000000000
-1.797476917127030 -5.483040464600653 -1.192060399454391 22.000000000000000
-1.815039137442357 -5.470964377531852 -1.295625605385298 19.000000000000000
-1.832336257489402 -5.457056997457737 -1.398874106554012 20.000000000000000
-1.849811216565431 -5.445308639269627 -1.502647093020937 18.000000000000000
-1.869412324577512 -5.438873228219505 -1.608956049143313 19.000000000000000
-1.890056004639284 -5.434094231316407 -1.716485998923591 20.000000000000000
-1.938844677030529 -5.510143330544905 -1.852453992735551 13.000000000000000
-1.964734026096424 -5.518653283476056 -1.968930202794877 5.000000000000000
-1.993960681994581 -5.535658859912942 -2.090009039532376 9.000000000000000
-2.015172711633545 -5.528956187495951 -2.204172955790389 12.000000000000000
-2.033363997408918 -5.513238291615968 -2.315489234244173 9.000000000000000
-2.064169123282267 -5.529881983350271 -2.442571407493788 5.000000000000000
-2.085310722649904 -5.519943084897390 -2.559752239865184 10.000000000000000
-2.109058218797982 -5.514279343480489 -2.680830608558675 8.000000000000000
