# This PCD file was generated using the MATLAB® pcwrite function
# from Computer Vision Toolbox®.
# .PCD v.7 - Point Cloud Data file format
VERSION .7
FIELDS x y z intensity
SIZE 8 8 8 8
TYPE F F F F
COUNT 1 1 1 1
WIDTH 637
HEIGHT 1
VIEWPOINT 0 0 0 1 0 0 0
POINTS 637
DATA ascii
2.262321576718033 -4.614510002270462 -2.163324876772299 40.000000000000000
2.257156606697482 -4.570703110270170 -2.249689118658065 48.000000000000000
2.272443805234332 -4.567930683469022 -2.356779247845316 13.000000000000000
2.352673376248550 -4.695232139973763 -2.536128375388092 20.000000000000000
2.368038670727248 -4.689886489386242 -2.649304355979647 17.000000000000000
2.377018128778164 -4.673177140463959 -2.757712136772990 18.000000000000000
2.388958078232306 -4.660448580792628 -2.870171131872905 17.000000000000000
2.400516899241267 -4.645185648851651 -2.983315086302444 23.000000000000000
2.386457253924768 -4.578579392384493 -3.064220703999941 24.000000000000000
2.636390328859624 -5.902634052235529 -1.247963653030411 2.000000000000000
2.293690436237735 -5.100488990875062 -1.181800421676112 23.000000000000000
2.260736275410931 -4.993471440277706 -1.258447642205269 78.000000000000000
2.277255200246023 -4.994926600015269 -1.362040019020129 76.000000000000000
2.292822184862019 -4.994726169635648 -1.465953927980468 79.000000000000000
2.308139915732885 -4.992669442693110 -1.569758569143375 77.000000000000000
2.324301147312687 -4.992174720959054 -1.675515363110207 74.000000000000000
2.341104201178255 -4.993393651647152 -1.782937732764511 79.000000000000000
2.252620612635988 -4.770000191383474 -1.806813368815130 37.000000000000000
2.242440174113051 -4.714373699947983 -1.889668405504675 12.000000000000000
2.250967315394367 -4.698239792946988 -1.987829216254681 14.000000000000000
2.286135055791958 -4.737190763034314 -2.111595174578090 34.000000000000000
2.246332319245035 -4.621178392578110 -2.165750995725134 40.000000000000000
2.237948810744395 -4.570799864784361 -2.248881881419077 47.000000000000000
2.254702758458711 -4.571404225726299 -2.357548488580967 14.000000000000000
2.337528494091373 -4.705440741348445 -2.540410196989675 18.000000000000000
2.347948396972960 -4.690546005053954 -2.648262165954212 15.000000000000000
2.360016513601453 -4.680266159695630 -2.760291058916862 18.000000000000000
2.371831544180211 -4.667590004562665 -2.872769164993667 16.000000000000000
2.381687982574796 -4.649287256451601 -2.983948116280768 27.000000000000000
2.367704181789962 -4.582691795170727 -3.064785933472225 23.000000000000000
2.621287355867911 -5.917369247667713 -1.252221140503327 3.000000000000000
2.272961588546073 -5.096355705583390 -1.181702221019210 23.000000000000000
2.243382355664606 -4.996424914640405 -1.259910186740839 77.000000000000000
2.258147564425956 -4.994425636882812 -1.362492618301047 76.000000000000000
2.273563108045507 -4.994326247920177 -1.466293327772455 78.000000000000000
2.288735123642080 -4.992372004491249 -1.569986402036368 79.000000000000000
2.306348449837055 -4.995458526374198 -1.676799015746833 74.000000000000000
2.322994359224642 -4.996765632467643 -1.784178920736574 78.000000000000000
2.236705549375777 -4.776580654965414 -1.809199141057110 24.000000000000000
2.236187289594142 -4.741347451496931 -1.900228078426680 9.000000000000000
2.241407713276128 -4.718346767427978 -1.995935681621084 11.000000000000000
2.268274834584206 -4.740568613400865 -2.112542188083019 31.000000000000000
2.227121162518516 -4.621162889465965 -2.165042465284395 39.000000000000000
2.220362362801705 -4.574124040247972 -2.249662250712136 49.000000000000000
2.230584842039852 -4.561780581362864 -2.351566539556711 14.000000000000000
2.325518839568776 -4.722072211011320 -2.548156227707664 14.000000000000000
2.335815020948937 -4.707128580566276 -2.656210216440980 13.000000000000000
2.346155564584919 -4.693638006052505 -2.766575561033295 16.000000000000000
2.354681436388153 -4.674683986310557 -2.875341538193447 15.000000000000000
2.361286176158387 -4.650235568883005 -2.982566134753536 30.000000000000000
2.345816340970351 -4.580627393652545 -3.061232166131206 21.000000000000000
2.034349139845879 -4.630611372756150 -0.980798598953807 5.000000000000000
2.247529752666730 -5.081415378666706 -1.179079200192811 21.000000000000000
2.222858423817985 -4.992203991071107 -1.259549022148457 75.000000000000000
2.239063309570340 -4.993862128866009 -1.362914719860990 76.000000000000000
2.252737579809001 -4.990341539962030 -1.465567709471547 78.000000000000000
2.269353620243644 -4.992011087053335 -1.570183254599174 78.000000000000000
2.286803730210836 -4.995209151989468 -1.676887064585590 77.000000000000000
2.301699078952831 -4.993171568267260 -1.782924294465460 80.000000000000000
2.244665140596751 -4.834585288515703 -1.831054203091025 8.000000000000000
2.237738765957255 -4.785363366798006 -1.917608579204774 6.000000000000000
2.239693633675300 -4.755346036842123 -2.011178882437924 8.000000000000000
2.248825003052529 -4.740539419163437 -2.111967831431945 31.000000000000000
2.206345715547290 -4.617759628261537 -2.162746078272712 38.000000000000000
2.201191238705248 -4.574099012571337 -2.248795089340328 50.000000000000000
2.212891634925590 -4.565126826291481 -2.352273723857454 15.000000000000000
2.321312797302576 -4.754858534362650 -2.564610538713033 8.000000000000000
2.323589490036753 -4.723692709803037 -2.664143214082979 10.000000000000000
2.332225337679236 -4.706981578882394 -2.772841392930503 13.000000000000000
2.342204858998449 -4.691137817955967 -2.883670988761961 15.000000000000000
2.344027981395279 -4.657318698013302 -2.985126357052855 28.000000000000000
2.327084941535433 -4.584616274673332 -3.061735666069077 22.000000000000000
1.982363075714920 -4.550049659231776 -0.964583192144092 44.000000000000000
2.057195020308034 -4.690160254086368 -1.089055296763355 6.000000000000000
2.180341064694420 -4.937997201172285 -1.246553842728773 35.000000000000000
2.220002684258157 -4.993236198818787 -1.363306401617877 75.000000000000000
2.235115231424273 -4.993337464825192 -1.466879976217662 80.000000000000000
2.249995657631697 -4.991586813324842 -1.570349205011438 78.000000000000000
2.267282462104326 -4.994895917802116 -1.676943948782400 72.000000000000000
2.283612899009801 -4.996424124275314 -1.784105965977278 79.000000000000000
2.294964106553178 -4.985454099787882 -1.888068634488901 75.000000000000000
2.278546948632638 -4.914703216650308 -1.969165329555652 12.000000000000000
2.244072374541714 -4.805922839954975 -2.032152758583326 5.000000000000000
2.232556967251103 -4.747160931425531 -2.114352969379907 31.000000000000000
2.188771555475548 -4.620942298136366 -2.163533072369211 39.000000000000000
2.182044567695151 -4.574010889415259 -2.247897214754872 50.000000000000000
2.193628321408352 -4.565148883307303 -2.351269117041529 15.000000000000000
2.421928031445829 -5.004705861633393 -2.698070393638624 11.000000000000000
2.366004249136576 -4.852489952714998 -2.735337118504345 9.000000000000000
2.324461888624429 -4.732994120458331 -2.786564118056396 9.000000000000000
2.328081810419843 -4.704431719716351 -2.890055583984315 13.000000000000000
2.322099133876790 -4.655037724786729 -2.981693376801354 24.000000000000000
2.308353260820230 -4.588548208210764 -3.062210078388874 21.000000000000000
1.966708107709292 -4.552129397976753 -0.965857734423835 54.000000000000000
2.028484498161073 -4.663786022769460 -1.083674570404075 9.000000000000000
2.052220143322087 -4.687249243381419 -1.183888091739829 7.000000000000000
2.149307418679652 -4.875368679480338 -1.331661315481816 21.000000000000000
2.215926931677726 -4.992748850111576 -1.467127381373164 75.000000000000000
2.232230166184183 -4.994609222184025 -1.571588751185130 79.000000000000000
2.247784898807609 -4.994518947457832 -1.676969746947503 73.000000000000000
2.262387448367486 -4.992692236521133 -1.782785254833251 76.000000000000000
2.267339724077023 -4.968082252446794 -1.881357304858786 75.000000000000000
2.294960436469022 -4.993103336160090 -2.000294895626366 78.000000000000000
2.292057489053897 -4.951470301999152 -2.093263078376046 38.000000000000000
2.214699735530343 -4.750375458840797 -2.115216793022623 32.000000000000000
2.171198999926551 -4.624071328660157 -2.164292782915712 42.000000000000000
2.162922600665780 -4.573859798037917 -2.246968707263571 49.000000000000000
2.175949387743179 -4.568382449192335 -2.351919654216855 16.000000000000000
2.393192743389607 -4.989201312353091 -2.688420123009337 5.000000000000000
2.437011109396372 -5.042619719403957 -2.841014469895751 9.000000000000000
2.452712827883265 -5.038770206185299 -2.964893690032786 34.000000000000000
2.327772852536658 -4.746002677604491 -2.913799603810177 8.000000000000000
2.300216227408333 -4.652680953580973 -2.978224513254871 20.000000000000000
2.285023881281023 -4.583201487249411 -3.056505519257276 23.000000000000000
1.947964748758969 -4.546943765717475 -0.965575335743100 45.000000000000000
1.968973396728788 -4.565450102975270 -1.061539033770024 23.000000000000000
2.018805054859038 -4.650272293184648 -1.175163711877959 10.000000000000000
2.043638608859608 -4.675365955816375 -1.277534506607006 8.000000000000000
2.090969617560015 -4.751684954126285 -1.396678973555058 8.000000000000000
2.197335752528714 -4.958918454622970 -1.560634278445405 48.000000000000000
2.228311292926767 -4.994078365413643 -1.676964538063473 77.000000000000000
2.244325889087261 -4.995825735331762 -1.783907656177733 78.000000000000000
2.149449252215546 -4.750784549860666 -1.798935816797036 37.000000000000000
2.242306348945418 -4.921177146337135 -1.971196015582459 40.000000000000000
2.290799694675459 -4.992145712093346 -2.110017523174357 72.000000000000000
2.196843914312854 -4.753535606078627 -2.116052943073324 33.000000000000000
2.152074408669591 -4.623808262156955 -2.163463171481897 43.000000000000000
2.143825587812345 -4.573645866503555 -2.246009647542948 50.000000000000000
2.153627365983676 -4.561723716918078 -2.347479903852925 15.000000000000000
2.373862496628168 -4.993073999398394 -2.689217894413541 60.000000000000000
2.394207424318761 -4.998425148600109 -2.814635472521958 6.000000000000000
2.422106730714774 -5.020634985335644 -2.952539132517967 9.000000000000000
2.363931899357655 -4.863221600889552 -2.983936600506214 33.000000000000000
2.282957694405151 -4.659592705796160 -2.980697230791402 21.000000000000000
2.264805820490228 -4.583927229512285 -3.054865258895951 23.000000000000000
1.935409204900310 -4.556144912768528 -0.968334004071220 55.000000000000000
1.939315149376087 -4.535148267605827 -1.055188581359876 32.000000000000000
1.997964879529944 -4.641777817280310 -1.173617925548742 15.000000000000000
2.019487350273648 -4.659914064289602 -1.273800516376361 10.000000000000000
2.037081237502677 -4.669244842749289 -1.372817770235265 8.000000000000000
2.060665264550217 -4.690820509812719 -1.476511297686720 6.000000000000000
2.164004056748408 -4.892164174658732 -1.642873132826176 26.000000000000000
2.224718438557126 -4.995430521897515 -1.783761690932582 75.000000000000000
2.130505203408836 -4.750176177854660 -1.798565499944323 39.000000000000000
2.106636807658336 -4.664074788134642 -1.867937828544057 6.000000000000000
2.190359575875521 -4.815375581117431 -2.034872708831779 11.000000000000000
2.177445422668131 -4.753270290908465 -2.115361192058830 36.000000000000000
2.134517237341028 -4.626825518429367 -2.164166764716814 42.000000000000000
2.126293455279018 -4.576683259349287 -2.246646942808239 51.000000000000000
2.135986742983520 -4.564835662244231 -2.348070699638733 16.000000000000000
2.352999068370570 -4.993635015249320 -2.688234498462353 69.000000000000000
2.367041257193041 -4.986244008595532 -2.806305466889013 69.000000000000000
2.388613013341345 -4.995998957714036 -2.936383198258812 15.000000000000000
2.343037729975642 -4.864002825739827 -2.982595297237888 32.000000000000000
2.265676408736600 -4.666456626908974 -2.983144140009288 15.000000000000000
2.249139710583938 -4.593836367472434 -3.059352544438458 16.000000000000000
1.924336507248842 -4.568933336912379 -0.971844210622275 23.000000000000000
1.969403358242400 -4.645153233218444 -1.081481323215429 23.000000000000000
1.977195932304589 -4.633207112783725 -1.172037582728680 15.000000000000000
1.996984185564017 -4.647931720878212 -1.270999953053233 15.000000000000000
2.014402663735323 -4.657427840689906 -1.369702090639638 12.000000000000000
2.033167802818765 -4.668621258131320 -1.469763325745151 9.000000000000000
2.051253702028326 -4.677880207416216 -1.571028648681720 22.000000000000000
2.112998786898540 -4.786267920442257 -1.709061590555077 8.000000000000000
2.110050793641447 -4.746051568375703 -1.796857300558850 30.000000000000000
2.070973713882980 -4.625681481218881 -1.852283647478005 7.000000000000000
2.091144729761886 -4.638067209528812 -1.959528075604609 6.000000000000000
2.159604608046757 -4.756317217739205 -2.116140463471367 36.000000000000000
2.115431594192588 -4.626441623119208 -2.163277855052813 41.000000000000000
2.107235511465917 -4.576348598654791 -2.245628643121407 51.000000000000000
2.116823173388839 -4.564605219405629 -2.346943297904510 17.000000000000000
2.330637463534811 -4.990870688181682 -2.685465097039418 71.000000000000000
2.349095716972287 -4.993312132267941 -2.808815989389168 71.000000000000000
2.367429090277223 -4.996763645080965 -2.935171643653287 67.000000000000000
2.316134951429419 -4.852080694564800 -2.973477395272850 24.000000000000000
2.254384232247991 -4.685768030590187 -2.993548011455736 12.000000000000000
2.248407438812988 -4.634583644385027 -3.084366131361388 13.000000000000000
1.938911701907514 -4.643272366125033 -0.988446835285415 41.000000000000000
1.951842357403971 -4.643609777676144 -1.081805733260010 32.000000000000000
1.948909322766104 -4.606621939483480 -1.165882823573973 14.000000000000000
1.979135604297168 -4.646570311146176 -1.271090320700388 21.000000000000000
1.993340280280396 -4.649073676402913 -1.367592219336295 16.000000000000000
2.008879659350107 -4.653364333486234 -1.465189030155362 12.000000000000000
2.025266026334291 -4.659317399907390 -1.564900920025403 48.000000000000000
2.046882700213365 -4.677506685107138 -1.670205503028077 8.000000000000000
2.075927432969755 -4.710727882968562 -1.783331743020953 7.000000000000000
2.047779655834546 -4.614595261527381 -1.847561921408643 10.000000000000000
2.008384314601942 -4.494299253039503 -1.898378958213942 6.000000000000000
2.132638994922102 -4.739028742576229 -2.107871318267319 30.000000000000000
2.096371571909003 -4.625995196133680 -2.162358591408902 41.000000000000000
2.088203253183121 -4.575951454687786 -2.244580018118348 50.000000000000000
2.100712127611406 -4.570898283543876 -2.349170372365956 17.000000000000000
2.309832165341150 -4.991292104822534 -2.684413994206492 72.000000000000000
2.328115144754569 -4.993870135722839 -2.807667526666926 74.000000000000000
2.341764675778015 -4.987867819950252 -2.928295206085449 69.000000000000000
2.308800164458060 -4.881179383229425 -2.989500565200556 33.000000000000000
2.256399060293793 -4.733222986066010 -3.021914533020690 10.000000000000000
1.924519629763948 -4.648838583258899 -0.990408007568924 60.000000000000000
1.937316103471126 -4.649227890393013 -1.083785190166016 47.000000000000000
1.946418613616309 -4.640982938488011 -1.175140819319604 38.000000000000000
1.961313526922068 -4.645150255516629 -1.271152371978399 32.000000000000000
1.975370441404969 -4.647749333063843 -1.367538575773325 22.000000000000000
1.990755812386580 -4.652141769410436 -1.465022952979160 17.000000000000000
2.002444295611725 -4.647670567813096 -1.561086524205485 51.000000000000000
2.023858929761630 -4.666052921496092 -1.666087982737378 12.000000000000000
2.039035406656683 -4.668326812382563 -1.767122911172420 9.000000000000000
2.023169140962245 -4.599983147811307 -1.841424901240903 13.000000000000000
1.988576867849743 -4.489978333885958 -1.896141503656198 7.000000000000000
2.096757514578809 -4.701324063210368 -2.090525287514229 26.000000000000000
2.080352421635961 -4.632199701357095 -2.164546079098485 40.000000000000000
2.070701798406118 -4.578819589182086 -2.245132787119743 51.000000000000000
2.081576684281479 -4.570551371458106 -2.347985235966815 17.000000000000000
2.292046679985015 -4.998179775551439 -2.686842188897266 73.000000000000000
2.307158000342848 -4.994360318401964 -2.806485875864303 74.000000000000000
2.322151192899781 -4.991684065855957 -2.928890579040784 70.000000000000000
2.298310601667082 -4.903955779324346 -3.001641233174951 26.000000000000000
2.253650843411149 -4.771347987694615 -3.044299633136456 10.000000000000000
1.908619334928478 -4.650734347432333 -0.991573630120488 83.000000000000000
1.919785731394468 -4.647577768757158 -1.084057022895215 65.000000000000000
1.930271408413191 -4.643005229875025 -1.176201821634241 50.000000000000000
1.943518186432508 -4.643671686543061 -1.271186188803364 39.000000000000000
1.957427319951668 -4.646366012091679 -1.367456459557706 32.000000000000000
1.971158512761454 -4.647322972166670 -1.463714217304735 23.000000000000000
1.985721834946049 -4.649996261085753 -1.561956326568391 44.000000000000000
2.002431853155344 -4.658003819343391 -1.663178611109234 16.000000000000000
2.015956647537645 -4.656966274012546 -1.762659331226114 13.000000000000000
2.004679815037075 -4.599044221578469 -1.840757204834088 20.000000000000000
1.968819566807700 -4.485588354131921 -1.893871862252358 5.000000000000000
2.035692354591183 -4.605842981519108 -2.047501664724643 12.000000000000000
2.061321137586842 -4.631637532435265 -2.163569489495228 41.000000000000000
2.053203259892957 -4.581634438149983 -2.245658533420211 52.000000000000000
2.060977047014107 -4.566839730060787 -2.345074090859246 17.000000000000000
2.268292853581612 -4.991933120674809 -2.682213125219629 72.000000000000000
2.284741914116624 -4.991543646115046 -2.803451874886963 73.000000000000000
2.302537927983509 -4.995441129239347 -2.929455753975698 69.000000000000000
2.286208945766519 -4.923554751682091 -3.011830218237054 29.000000000000000
2.259456878272192 -4.828337468096849 -3.078692564937360 9.000000000000000
1.894202103966440 -4.656216424257450 -0.993490311882446 86.000000000000000
1.905245337844617 -4.653106677513465 -1.085990078362113 78.000000000000000
1.915612294580687 -4.648579016941912 -1.178150525229554 66.000000000000000
1.928721651243646 -4.649298525704666 -1.273153569254079 51.000000000000000
1.939511149941687 -4.644923846925484 -1.367345953120441 44.000000000000000
1.953099715117135 -4.645977260436041 -1.463489254596900 34.000000000000000
1.966024404448491 -4.645232757554941 -1.560436050997118 46.000000000000000
1.981077685039194 -4.649876824466779 -1.660233936265154 21.000000000000000
1.995952980319530 -4.652462505228869 -1.760785148106691 17.000000000000000
1.983239499262447 -4.591151081929536 -1.837301508044472 27.000000000000000
1.952088438492450 -4.487970964326683 -1.894458062788598 7.000000000000000
2.010975794239998 -4.591497218086911 -2.040557191377140 13.000000000000000
2.042316185866995 -4.631013162713264 -2.162562758331462 41.000000000000000
2.035707839709415 -4.584396037637074 -2.246157287779092 51.000000000000000
2.044862699567527 -4.572976431439401 -2.347221143696768 17.000000000000000
2.251983697721514 -5.001980044121837 -2.686341203831603 73.000000000000000
2.262373091732671 -4.988650528704254 -2.800381741167215 73.000000000000000
2.279992637695468 -4.992717536441683 -2.926227122655065 69.000000000000000
2.295913016036161 -4.990791650931452 -3.051137184688466 66.000000000000000
1.882701736736997 -4.668936675863220 -0.996939560488399 68.000000000000000
1.890686811510328 -4.658595264127389 -1.087901441230211 74.000000000000000
1.899462449332407 -4.650507108349951 -1.179163279093573 74.000000000000000
1.910957653241141 -4.647711937493060 -1.273134161667032 65.000000000000000
1.923098064958932 -4.646989348847915 -1.368257221521318 55.000000000000000
1.938022373076295 -4.651663340742875 -1.465469701442021 46.000000000000000
1.947855011318149 -4.643924400731752 -1.560067631601599 58.000000000000000
1.961274727072579 -4.645172769926424 -1.658503959139215 28.000000000000000
1.974521478295235 -4.644413078245472 -1.757563111348558 23.000000000000000
1.961872689683056 -4.583179965247920 -1.833810501558393 31.000000000000000
1.935361523659581 -4.490302528452615 -1.895018463158106 7.000000000000000
1.993752525090555 -4.594044722699848 -2.041119289637114 18.000000000000000
2.024810401576265 -4.633696686688366 -2.163099131672382 41.000000000000000
2.013805945619239 -4.577081617839937 -2.241720204891847 53.000000000000000
2.025794415757081 -4.572446511120640 -2.345946693347510 18.000000000000000
2.229776563595242 -4.998866077913550 -2.683402767295024 73.000000000000000
2.244429793220018 -4.995425191685802 -2.802742595668969 74.000000000000000
2.258949230225422 -4.993132362570300 -2.924845566028591 70.000000000000000
2.276156089584337 -4.994521145818910 -3.051601543422057 67.000000000000000
1.866769985767662 -4.670703877156226 -0.998037630630632 54.000000000000000
1.879028041484411 -4.671297041263055 -1.091485946589462 64.000000000000000
1.887700440514045 -4.663213880968922 -1.182897860012368 68.000000000000000
1.897610288263121 -4.656838582451217 -1.276038248200928 66.000000000000000
1.908153890431504 -4.652575514272430 -1.370194808931836 64.000000000000000
1.919995103943654 -4.650208051743406 -1.465190730360113 57.000000000000000
1.932645662377496 -4.649612146402474 -1.562040854689798 77.000000000000000
1.944454999487973 -4.647409797690614 -1.659244685781909 38.000000000000000
1.956096229614777 -4.643247295506573 -1.756939979981601 29.000000000000000
1.946442490167739 -4.588953348634094 -1.835813932981648 40.000000000000000
1.917174406152440 -4.489153633624608 -1.894106108460932 7.000000000000000
1.973607046003356 -4.589735178991655 -2.038632437368822 20.000000000000000
2.005847184491773 -4.632952682984917 -2.162033882641362 43.000000000000000
1.997810649392455 -4.583069023703830 -2.243798327198887 55.000000000000000
2.005297662450805 -4.568539013896852 -2.342941860881681 17.000000000000000
2.209068904153137 -4.998960929929436 -2.682190932380224 71.000000000000000
2.225016651908911 -4.998897718650696 -2.803252842181191 74.000000000000000
2.237930090786318 -4.993479417519977 -2.923430898030169 69.000000000000000
2.256399845954109 -4.998191135561082 -3.052035567875462 70.000000000000000
1.853732790764302 -4.679717517746981 -1.000671122066198 42.000000000000000
1.865858507579689 -4.680344220247864 -1.094205652372948 48.000000000000000
1.872975524732744 -4.668669773268544 -1.184782356351049 54.000000000000000
1.882770271442031 -4.662337919361657 -1.277937882158797 57.000000000000000
1.891738470541977 -4.654545310307839 -1.371057078812844 62.000000000000000
1.906357802470842 -4.659355953306897 -1.468243177863299 61.000000000000000
1.914508096109237 -4.648193582994200 -1.561618123916257 91.000000000000000
1.926184809898353 -4.646086522548862 -1.658706756213004 49.000000000000000
1.939153166929861 -4.645506319809155 -1.757606334706122 39.000000000000000
1.929539317555138 -4.591224082260410 -1.836410479299468 45.000000000000000
1.900468151982342 -4.491378902578569 -1.894613511187162 7.000000000000000
1.954963605418975 -4.588762608877223 -2.037625829453862 20.000000000000000
1.988360262586543 -4.635525511202149 -2.162514901951157 44.000000000000000
1.978902607172762 -4.582312777335372 -2.242573985846140 55.000000000000000
1.989181883047999 -4.574519776079189 -2.345009222671421 18.000000000000000
2.189825932570935 -5.002277846388894 -2.682710333332082 70.000000000000000
2.204168931330052 -4.999055022932116 -2.801907957063635 75.000000000000000
2.216935484460877 -4.993758828541790 -2.921983199831774 70.000000000000000
2.235218077517925 -4.998611725015615 -3.050492578006623 68.000000000000000
1.843522475020459 -4.696002565260057 -1.004848640923304 31.000000000000000
1.849776196841942 -4.682088875747760 -1.095205816819852 36.000000000000000
1.861109271625057 -4.681320245359305 -1.188481821257842 42.000000000000000
1.869352432674773 -4.671395009003201 -1.280802151900479 48.000000000000000
1.879652248476875 -4.667202584095511 -1.375057621995536 54.000000000000000
1.889793940372136 -4.661353898240138 -1.469033252957274 57.000000000000000
1.899284772102559 -4.653788399998747 -1.563543054250962 72.000000000000000
1.910828819289056 -4.651730371031348 -1.660648601781531 55.000000000000000
1.922214550266176 -4.647713833943118 -1.758246666574052 50.000000000000000
1.914083094373204 -4.596907531358371 -1.838366409608101 49.000000000000000
1.898179611135278 -4.527933946894436 -1.909594809490041 6.000000000000000
1.936347774937762 -4.587729186752925 -2.036589846657622 33.000000000000000
1.969439700222444 -4.634662283363987 -2.161391400545269 44.000000000000000
1.961456787469447 -4.584848834926381 -2.242960639816097 54.000000000000000
1.968751067747724 -4.570483870476551 -2.341942873546637 18.000000000000000
2.169156743028628 -5.002243647249896 -2.681434973614218 69.000000000000000
2.183346211537221 -4.999145234030681 -2.800530351493160 75.000000000000000
2.197385175095549 -4.997198888382879 -2.922390402087857 71.000000000000000
2.215475566841415 -5.002158491431145 -3.050864539656261 68.000000000000000
1.831804572923548 -4.708616337287398 -1.008230229087877 24.000000000000000
1.839398182614495 -4.698341833166984 -1.099588261354037 24.000000000000000
1.846325935073646 -4.686702712075081 -1.190325262313837 33.000000000000000
1.855893800640976 -4.680419232984137 -1.283647149435771 38.000000000000000
1.864642114626280 -4.672668427967597 -1.376929753704544 45.000000000000000
1.876097084388418 -4.670426465099626 -1.472043601272154 49.000000000000000
1.885474789853498 -4.662881517734399 -1.566634854839458 60.000000000000000
1.895454366246943 -4.657331619565742 -1.662567571820325 56.000000000000000
1.905280574614459 -4.649869878385914 -1.758861008174370 56.000000000000000
1.897177526240180 -4.599079716764433 -1.838912502751335 55.000000000000000
1.905669722683740 -4.588619587223867 -1.934739566916421 24.000000000000000
1.920615728623025 -4.593465481802212 -2.038555883574794 39.000000000000000
1.951972501576575 -4.637124699023289 -2.161817263044463 44.000000000000000
1.942591990412593 -4.583973707353996 -2.241678257259971 56.000000000000000
1.951211363996767 -4.573034078840499 -2.342253087685725 18.000000000000000
2.148513021156307 -5.002142931113296 -2.680127216128943 68.000000000000000
2.163961262065921 -5.002433777704611 -2.800948402944628 75.000000000000000
2.176428708497673 -4.997347669044375 -2.920878352743210 72.000000000000000
2.194331398606547 -5.002447379535789 -3.049256618926153 69.000000000000000
1.821434860810406 -4.724865923274875 -1.012379896531158 18.000000000000000
1.828934391090336 -4.714578801777791 -1.103957297595567 8.000000000000000
1.835771197882848 -4.702922163664336 -1.194910553781551 24.000000000000000
1.843811707725385 -4.693017681179371 -1.287462399681089 28.000000000000000
1.852450944864540 -4.685267615856739 -1.380894226461456 36.000000000000000
1.860939611557396 -4.675898743206115 -1.473910005875560 40.000000000000000
1.871623464911444 -4.671940723049540 -1.569706815269727 47.000000000000000
1.882901574720888 -4.669933853674927 -1.666977942929792 52.000000000000000
1.891191060907628 -4.658969944574251 -1.762095180941396 54.000000000000000
1.881695945850710 -4.604673136363431 -1.840820924104777 53.000000000000000
1.891498542995907 -4.597699511530643 -1.938114667277263 53.000000000000000
1.903448672484109 -4.595738681475130 -2.038981393444220 49.000000000000000
1.933095509567157 -4.636142662630662 -2.160635777410706 46.000000000000000
1.923755024382466 -4.583037175787673 -2.240366231559330 57.000000000000000
1.930859199944708 -4.568866067120299 -2.339124111864433 19.000000000000000
2.126490475661675 -4.998674194778792 -2.677018967316588 69.000000000000000
2.143177592002879 -5.002394434590397 -2.799507051235229 73.000000000000000
2.156893599698673 -5.000665836962066 -2.921224261610083 71.000000000000000
2.170429667089764 -4.996262977356272 -3.043713409852455 69.000000000000000
1.809580309185718 -4.737435443393015 -1.015730537244472 12.000000000000000
1.819786839147549 -4.734446938691086 -1.109167275384547 4.000000000000000
1.825130302507460 -4.719125123767737 -1.199482157054942 20.000000000000000
1.830260310730199 -4.701979840143947 -1.290270040668117 21.000000000000000
1.840195903533498 -4.697841616275535 -1.384841935026597 27.000000000000000
1.849987979118676 -4.692041387227447 -1.479130858869881 33.000000000000000
1.859139345746966 -4.684514739840352 -1.573951252521511 38.000000000000000
1.866059026438605 -4.671932082560414 -1.667595372321987 44.000000000000000
1.877059912816099 -4.668035330961762 -1.765309103979110 46.000000000000000
1.836640950483552 -4.537211008714591 -1.813523168147017 51.000000000000000
1.811193841417790 -4.444559553809288 -1.873118053261154 47.000000000000000
1.889095531333266 -4.604807074858684 -2.042417654846355 54.000000000000000
1.915648891505698 -4.638494954309945 -2.161006682848103 47.000000000000000
1.904946130788437 -4.582039378327889 -2.239024647976600 56.000000000000000
1.911955104863258 -4.567964763706721 -2.337670120979677 18.000000000000000
2.108695816992158 -5.005048317042583 -2.679184445959065 69.000000000000000
2.121030675155190 -4.999014607965020 -2.796202035691101 74.000000000000000
2.134591968152530 -4.997443491936441 -2.917755931259641 69.000000000000000
2.152118442959943 -5.002821810657582 -3.045941584843753 70.000000000000000
1.803215819064748 -4.764652169207204 -1.022212510363543 9.000000000000000
1.809140150011052 -4.750654966875411 -1.113510351689634 8.000000000000000
1.815795756266589 -4.738945414666074 -1.204963953128738 15.000000000000000
1.822245305791546 -4.725370385829158 -1.297027664411774 16.000000000000000
1.827877058282210 -4.710390183993513 -1.388772758352902 20.000000000000000
1.837552769776722 -4.704591662176129 -1.483210406674912 24.000000000000000
1.845194041953655 -4.693509790615724 -1.576984715503950 29.000000000000000
1.857601909813874 -4.695059936282335 -1.675746800495936 35.000000000000000
1.865680177081611 -4.684077978343764 -1.771154134918737 35.000000000000000
1.790663669527899 -4.466050482316167 -1.784752283101613 57.000000000000000
1.796095593607862 -4.449919110921731 -1.874930538680295 32.000000000000000
1.871914897627226 -4.606984445121544 -2.042793415509605 55.000000000000000
1.896816380991667 -4.637394530644847 -2.159767483769246 44.000000000000000
1.888941364207117 -4.587722146935356 -2.240946680558511 56.000000000000000
1.894464067010710 -4.570342937638295 -2.337895491929653 19.000000000000000
2.085356226162582 -4.998132973098047 -2.674239367228562 67.000000000000000
2.100310573214793 -4.998837750209265 -2.794694373831408 76.000000000000000
2.115084758823008 -5.000635855058838 -2.918039326002064 70.000000000000000
2.131050183349338 -5.002907613905945 -3.044234636615365 70.000000000000000
1.800828152802491 -4.802891890284103 -1.031053565202686 4.000000000000000
1.803924334927022 -4.781468191178194 -1.121268447165629 7.000000000000000
1.804971145547047 -4.755118409309472 -1.209509023194420 11.000000000000000
1.812715038023744 -4.745140350063599 -1.302782886409271 11.000000000000000
1.818261999915117 -4.730112636481498 -1.394809573333482 15.000000000000000
1.826438248534245 -4.720694983008578 -1.488401223356389 16.000000000000000
1.835363252080741 -4.713141709005105 -1.583583582810848 21.000000000000000
1.840700099296514 -4.696980623339249 -1.676321021888543 27.000000000000000
1.850057937404052 -4.689571615043898 -1.773003016247527 21.000000000000000
1.829606303457734 -4.607255180910101 -1.840837981008856 38.000000000000000
1.798955589299827 -4.500204219350662 -1.895662620791317 52.000000000000000
1.858882607162097 -4.619405583444989 -2.047706890262252 50.000000000000000
1.879391197250378 -4.639636992273219 -2.160083634405785 39.000000000000000
1.870165790376309 -4.586610520675538 -2.239549027847935 57.000000000000000
1.876977928073482 -4.572668124129626 -2.338094113609166 19.000000000000000
2.067567247034770 -5.004391695816503 -2.676346284364542 65.000000000000000
2.082347723666003 -5.005158597764792 -2.796822369934175 76.000000000000000
2.094219330095575 -5.000520405788444 -2.916397961312449 70.000000000000000
2.110007753223386 -5.002925983822103 -3.042494844980816 70.000000000000000
1.897892006330833 -5.109502766361081 -1.097536975620405 0.000000000000000
1.835459312160617 -4.911103515797788 -1.152204569736415 6.000000000000000
1.814603122677854 -4.825906772304375 -1.227941094757625 7.000000000000000
1.805817546857964 -4.772147645808819 -1.310516628685510 7.000000000000000
1.805792597692446 -4.742617666485219 -1.398708963173351 10.000000000000000
1.813863441749339 -4.733197158312787 -1.492447679225303 11.000000000000000
1.824048120460752 -4.729202283578299 -1.588973950460302 15.000000000000000
1.830670598292950 -4.716541559571494 -1.683182960162271 19.000000000000000
1.844029259333424 -4.719621558369132 -1.784127920441680 10.000000000000000
1.803121558948787 -4.584746871600254 -1.831497957139395 37.000000000000000
1.804234766199986 -4.557480133489840 -1.919324813907411 39.000000000000000
1.849892969157402 -4.642107452882644 -2.057170483589879 36.000000000000000
1.861971160857497 -4.641826704252293 -2.160373172353629 38.000000000000000
1.851418981743236 -4.585437982089966 -2.238122040114781 58.000000000000000
1.858135616222156 -4.571591214176566 -2.336554258345037 20.000000000000000
2.045685497499250 -5.000646209587685 -2.673105372382010 63.000000000000000
2.061656904573308 -5.004857223722123 -2.795252936315727 74.000000000000000
2.074729221870590 -5.003591471803039 -2.916620482547591 70.000000000000000
2.090335682010722 -5.006096407203506 -3.042679000206383 72.000000000000000
2.006608755988615 -5.453515810516527 -1.172122265310277 0.000000000000000
1.868910831476837 -5.048293026836609 -1.184927769605146 25.000000000000000
1.863186123008097 -5.002535035703821 -1.273312486228667 68.000000000000000
1.831394950718545 -4.886220385734949 -1.342157545339158 9.000000000000000
1.806865489576336 -4.791174586251579 -1.413232884784064 6.000000000000000
1.808032087759420 -4.763608131306840 -1.502132331380849 7.000000000000000
1.814007363588716 -4.748809340107026 -1.595547284212600 10.000000000000000
1.820529934663090 -4.736091701451762 -1.690032589163697 13.000000000000000
1.833734705299138 -4.739129892691183 -1.791259023922097 12.000000000000000
1.791772548109855 -4.600555921830556 -1.837460297788694 25.000000000000000
1.794192103800353 -4.576696384956858 -1.926947039901018 32.000000000000000
1.843482553800457 -4.671686306794023 -2.069672226403631 27.000000000000000
1.843201175521418 -4.640551539118094 -2.159048595873920 38.000000000000000
1.835406270958627 -4.590971026027560 -2.239967155719299 58.000000000000000
1.843370611439797 -4.580512934221792 -2.340124365991462 20.000000000000000
2.023854366081062 -4.996826813153565 -2.669829826832453 60.000000000000000
2.040992879705431 -5.004489615289109 -2.793651330330110 71.000000000000000
2.055242113069387 -5.006604029841635 -2.916813320224586 71.000000000000000
2.069333904286872 -5.005984381713064 -3.040875131045949 72.000000000000000
1.995060940732972 -5.474033975708081 -1.177208509804124 0.000000000000000
1.850417705418433 -5.046360427554995 -1.184996519269548 25.000000000000000
1.850077326094702 -5.015236572986611 -1.276962021536969 77.000000000000000
1.861653704601873 -5.015013821794652 -1.377845365543870 75.000000000000000
1.861602230714593 -4.984255548158148 -1.470385583870151 50.000000000000000
1.822267912467707 -4.847897725118229 -1.528799300753404 6.000000000000000
1.813307137054958 -4.793389509154724 -1.610502480665890 6.000000000000000
1.812977996885823 -4.762723269600445 -1.699400435451960 8.000000000000000
1.817930137581463 -4.744537451222317 -1.793052812613695 33.000000000000000
1.800566737951826 -4.668804757386026 -1.864355534652965 22.000000000000000
1.806944657527294 -4.654912736782314 -1.959396442166659 24.000000000000000
1.834197742340329 -4.694389184559760 -2.079118280878217 20.000000000000000
1.825803833913321 -4.642631839202789 -2.159283669573765 37.000000000000000
1.815353347608080 -4.586297954591618 -2.236832424442404 59.000000000000000
1.821875605604613 -4.572611628146408 -2.335100892005114 20.000000000000000
2.003407975147705 -4.996260145609207 -2.668296280871305 57.000000000000000
2.021685962985648 -5.007350217055165 -2.793855699713998 73.000000000000000
2.034432859326200 -5.006296685194717 -2.915077433054257 71.000000000000000
2.048358726943508 -5.005805289218295 -3.039038652631537 72.000000000000000
1.971422602949987 -5.461347663213172 -1.175138554424081 0.000000000000000
1.833286233176671 -5.048039700862597 -1.185899138105751 25.000000000000000
1.834234921596779 -5.020601851121707 -1.278731912837144 75.000000000000000
1.845667956434623 -5.020428484581762 -1.379631699327943 75.000000000000000
1.854931997621926 -5.014995817550311 -1.479644631035173 77.000000000000000
1.864075368903534 -5.007812805698099 -1.579309318067013 74.000000000000000
1.861857047327044 -4.970219335305789 -1.669881461143608 38.000000000000000
1.829356094924836 -4.853264502902316 -1.731561128816907 7.000000000000000
1.806121584515242 -4.760479976759654 -1.798820506003466 43.000000000000000
1.790202417399905 -4.688137153787697 -1.871705460805982 18.000000000000000
1.795142678842145 -4.670699838358741 -1.965553810648559 20.000000000000000
1.823443147539904 -4.713639483512381 -2.087027049935599 15.000000000000000
1.808412248012941 -4.644659552567508 -2.159492250965533 36.000000000000000
1.799340251278101 -4.591730007237945 -2.238625962674667 62.000000000000000
1.804434720163604 -4.574717263804327 -2.335190205726022 20.000000000000000
1.980345138340877 -4.988967227455218 -2.663175385968310 57.000000000000000
2.002382689956896 -5.010152883333508 -2.794030717187253 72.000000000000000
2.014964233709172 -5.009188325876923 -2.915209675610171 71.000000000000000
2.030028112302533 -5.012022220143693 -3.041091108146434 72.000000000000000
1.955798193946027 -5.470724491262807 -1.177799204132336 1.000000000000000
1.814838554697832 -5.045992238562649 -1.185912032466063 24.000000000000000
1.814404829361283 -5.014949510965889 -1.277682479199524 76.000000000000000
1.827014843354776 -5.018520270410646 -1.379393728287459 74.000000000000000
1.837475377423940 -5.016789275560630 -1.480353201766591 78.000000000000000
1.850475352276252 -5.020466089726741 -1.583370207033709 78.000000000000000
1.860174668361806 -5.015031674045566 -1.684895104006408 80.000000000000000
1.870357093112161 -5.011481718767285 -1.787852154599571 74.000000000000000
1.786268391695333 -4.755220883187428 -1.796569949912429 37.000000000000000
1.778401334864451 -4.703952408325985 -1.877643318726034 13.000000000000000
1.784576332114681 -4.689946026907228 -1.973159288945835 15.000000000000000
1.821830853194191 -4.757041823041064 -2.105618540046577 15.000000000000000
1.789706772778463 -4.643210527282746 -2.158082868381466 38.000000000000000
1.780675363875600 -4.590327174899730 -2.237086425658063 62.000000000000000
1.786999755300556 -4.576770194096627 -2.335252976656807 21.000000000000000
1.961287920525006 -4.991596308842820 -2.663355023715284 54.000000000000000
1.983083277379634 -5.012897652426682 -2.794176415560103 73.000000000000000
1.995499276937678 -5.012021602459885 -2.915312348997384 70.000000000000000
2.006489212864565 -5.005246442547444 -3.035268206933995 75.000000000000000
1.936207670408151 -5.468976120862801 -1.178049254694012 2.000000000000000
1.797729980459763 -5.047564575766811 -1.186761463319468 24.000000000000000
1.798562374656794 -5.020215240246662 -1.279401549969383 75.000000000000000
1.809703977463144 -5.020195294828773 -1.380128514209137 76.000000000000000
1.818710367364761 -5.014906713160578 -1.479965965127879 77.000000000000000
1.831551596805749 -5.018678640957678 -1.582866844378739 80.000000000000000
1.842435788122360 -5.016913111262261 -1.685475956722838 76.000000000000000
1.855111048954934 -5.020548109544182 -1.790920343230729 84.000000000000000
1.763839842548500 -4.742825913796503 -1.791618084653883 33.000000000000000
1.766512269148577 -4.719747406387794 -1.883565454886885 11.000000000000000
1.773898158294427 -4.709179631722680 -1.980751503891361 12.000000000000000
1.809458627879195 -4.772837364484256 -2.111979868790544 46.000000000000000
1.772339134525797 -4.645129258558335 -2.158237281559564 39.000000000000000
1.763345603770466 -4.592263203193668 -2.237173876625776 62.000000000000000
1.766966683997212 -4.572032023467336 -2.331852464036495 21.000000000000000
1.937041913259397 -4.980814823945004 -2.656384067834710 51.000000000000000
1.962493421016269 -5.012278311103448 -2.792450841914649 67.000000000000000
1.977328049325347 -5.018069919203719 -2.917288479279002 71.000000000000000
1.985595394030529 -5.004866960083273 -3.033334410029921 74.000000000000000
1.917941485456599 -5.470864540968761 -1.179066424225200 3.000000000000000
1.778029844614524 -5.041719903513278 -1.185852556677309 25.000000000000000
1.780102246450426 -5.018105921009836 -1.279228266459186 76.000000000000000
1.791097412583033 -5.018171317790324 -1.379834295828624 77.000000000000000
1.802579455757845 -5.020218636893074 -1.481690974350315 78.000000000000000
1.813960164548818 -5.020437172629499 -1.583471855484001 79.000000000000000
1.816882483190630 -4.997232320917881 -1.678804090133432 68.000000000000000
1.834611650263447 -5.015328166948998 -1.788884420672736 83.000000000000000
1.639912964687091 -4.454381615295462 -1.682398850917636 9.000000000000000
1.757138429536067 -4.742547798036370 -1.892275065308398 7.000000000000000
1.764408388219042 -4.731887227722754 -1.989796548317579 9.000000000000000
1.794400910403721 -4.781691108390970 -2.115263462710268 45.000000000000000
1.754977857031286 -4.646995571667764 -2.158365325478999 38.000000000000000
1.746022260525465 -4.594146904779914 -2.237235008453669 63.000000000000000
1.749567895446127 -4.573971848645493 -2.331859709978870 22.000000000000000
1.915468280629094 -4.976629408843105 -2.652937427257145 50.000000000000000
1.943214249590381 -5.014903488199338 -2.792536729254425 39.000000000000000
1.955303266235532 -5.014235939045195 -2.913524855675032 68.000000000000000
1.966002529074101 -5.007664259901139 -3.033332938499005 73.000000000000000
1.895824227836479 -5.461590026207306 -1.177660767276003 3.000000000000000
1.760956522410469 -5.043181847573297 -1.186647790410962 25.000000000000000
1.762960223378813 -5.019606751800167 -1.279962229156119 79.000000000000000
1.773810309003668 -5.019738445627437 -1.380515456328600 74.000000000000000
1.782558999957500 -5.014592366178904 -1.480176615384385 78.000000000000000
1.797666175063115 -5.025753283699125 -1.585189027977863 85.000000000000000
1.661022433770918 -4.614999000499907 -1.550330513114736 7.000000000000000
1.748312893562274 -4.828180029687795 -1.721956917907027 40.000000000000000
1.657329045080752 -4.547777419151096 -1.717404140611962 3.000000000000000
1.663794787243694 -4.536746904366092 -1.809782979162249 4.000000000000000
1.759936667847331 -4.768552632790174 -2.004700654331298 6.000000000000000
1.775442333534898 -4.780115616897009 -2.113929802379793 42.000000000000000
1.737623137005821 -4.648809513062995 -2.158467035883812 38.000000000000000
1.726142586826683 -4.589164422184457 -2.233952926115428 63.000000000000000
1.730897287608593 -4.572482153817902 -2.330119639152894 22.000000000000000
1.892672493998448 -4.969025358171509 -2.647674039663911 48.000000000000000
1.922668834034060 -5.014156870399817 -2.790748901935897 45.000000000000000
1.934596405503550 -5.013609318656412 -2.911632248017309 53.000000000000000
1.946413817421247 -5.010402927715787 -3.033301790671136 73.000000000000000
1.877602399491993 -5.463358120199684 -1.178619225988651 6.000000000000000
1.741338197394236 -5.037211956987647 -1.185679966380671 25.000000000000000
1.745824637035313 -5.021056060148139 -1.280670284487841 78.000000000000000
1.755251172767352 -5.017599142524367 -1.380165267436322 75.000000000000000
1.766428843964716 -5.019803317060067 -1.481850126444044 79.000000000000000
1.778795545845256 -5.023795654363044 -1.584602041297458 81.000000000000000
1.631830659687018 -4.580366892166246 -1.538625305671511 22.000000000000000
1.647915917356263 -4.597738460320036 -1.639596956516389 8.000000000000000
1.658791589454065 -4.598774478804976 -1.736383527867179 6.000000000000000
1.611470077522979 -4.439583696369755 -1.770648692478534 13.000000000000000
1.767999939566314 -4.840189641047973 -2.034291142483151 7.000000000000000
1.756513891846589 -4.778479254887461 -2.112566912161628 43.000000000000000
1.719002777983566 -4.647131358244041 -2.156945893737179 38.000000000000000
1.710126028576590 -4.594346715647076 -2.235618756140629 64.000000000000000
1.714790132604918 -4.577694039525031 -2.331795034221021 23.000000000000000
1.866165278679150 -4.951291376118240 -2.637021968325163 44.000000000000000
1.902151948465860 -5.013344849808703 -2.788929432926561 73.000000000000000
1.915172085670654 -5.016201835921452 -2.911614504629031 64.000000000000000
1.926829477752745 -5.013083003318647 -3.033241000234037 73.000000000000000
1.858123543815540 -5.461361612173286 -1.178749437751038 7.000000000000000
1.723036844704819 -5.034869983081554 -1.185551468833812 25.000000000000000
1.726164647202302 -5.015100372458782 -1.279476402640055 77.000000000000000
1.737988660270404 -5.019058684222784 -1.380793011678198 74.000000000000000
1.749014419814252 -5.021330815773830 -1.482425511734718 77.000000000000000
1.759954776253318 -5.021777699624514 -1.583986086143766 80.000000000000000
1.616831021908276 -4.585168269387368 -1.540158884011090 40.000000000000000
1.626385419323570 -4.584734523446694 -1.634779439963601 26.000000000000000
1.632054185933516 -4.571739132652342 -1.725892359665604 13.000000000000000
1.609193733206029 -4.479612712517072 -1.786231081037914 9.000000000000000
1.676951193113215 -4.639041332549318 -1.949242471016682 19.000000000000000
1.737615821809000 -4.776782167802414 -2.111174880762817 42.000000000000000
1.701673655704814 -4.648836886607391 -2.156993827343675 37.000000000000000
1.691577337748257 -4.592655291477450 -2.233939006347465 65.000000000000000
1.697411551792163 -4.579476499868194 -2.331723184899413 23.000000000000000
1.846059899623279 -4.950223939952978 -2.635253648383643 40.000000000000000
1.882910806325985 -5.015789281900047 -2.788925379962224 74.000000000000000
1.894510245749230 -5.015447435507101 -2.909659421722144 71.000000000000000
1.906012058304049 -5.012449689694798 -3.031182300997102 73.000000000000000
1.838673204325122 -5.459303413147586 -1.178849901765240 8.000000000000000
1.706018026037682 -5.036167158553517 -1.186265925474340 25.000000000000000
1.712827446229795 -5.027480733925549 -1.282948015100122 78.000000000000000
1.719477828495751 -5.016804497308899 -1.380387131602129 73.000000000000000
1.731606697356177 -5.022806040071102 -1.482974622000149 79.000000000000000
1.693407104749143 -4.882074322875435 -1.539930739840429 49.000000000000000
1.601815856055563 -4.589927976684248 -1.541670241050348 41.000000000000000
1.608724772820799 -4.582382525577886 -1.633753651745300 35.000000000000000
1.615556228616893 -4.573019556587872 -1.726086384640706 23.000000000000000
1.624223937490051 -4.569070814347066 -1.821507204039049 18.000000000000000
1.636145833623941 -4.573992079976167 -1.921405543718015 18.000000000000000
1.721250176240417 -4.781975046958618 -2.112824763452341 39.000000000000000
1.685600284356375 -4.653937580382703 -2.158614527718948 37.000000000000000
1.675551216519868 -4.597740990987527 -2.235554942427455 65.000000000000000
1.678797466655447 -4.577818134476272 -2.329900468606208 24.000000000000000
1.825983970205331 -4.949092467351808 -2.633454440493467 35.000000000000000
1.863674856437689 -5.018176159490965 -2.788892264286748 75.000000000000000
1.875107622083809 -5.017920014647864 -2.909581779603313 71.000000000000000
1.886449024852418 -5.015008925040181 -3.031061127460264 74.000000000000000
1.819251619241733 -5.457183661996434 -1.178920703493466 10.000000000000000
