# This PCD file was generated using the MATLAB® pcwrite function
# from Computer Vision Toolbox®.
# .PCD v.7 - Point Cloud Data file format
VERSION .7
FIELDS x y z intensity
SIZE 8 8 8 8
TYPE F F F F
COUNT 1 1 1 1
WIDTH 631
HEIGHT 1
VIEWPOINT 0 0 0 1 0 0 0
POINTS 631
DATA ascii
-4.517600800595722 -5.579209816280453 -0.874942759485860 5.000000000000000
-4.568629418865348 -5.573816215155777 -1.000186998888005 13.000000000000000
-4.640596878252413 -5.594224027427696 -1.131483161388002 45.000000000000000
-4.701593004964114 -5.599773401161516 -1.262521711225794 12.000000000000000
-4.743903094627106 -5.581798195732901 -1.389549686373357 4.000000000000000
-4.802329495685891 -5.582819895139613 -1.523204987287857 13.000000000000000
-4.867459555529916 -5.590003197825050 -1.660999013722235 24.000000000000000
-4.931339376429680 -5.594734430405695 -1.800117387202065 24.000000000000000
-4.994123462635350 -5.596607633010434 -1.941189800633739 10.000000000000000
-5.050520494523536 -5.590199136030202 -2.081291030568502 4.000000000000000
-5.100651356468530 -5.575192272407692 -2.220802302196507 51.000000000000000
-4.734006121762055 -5.109651468446366 -2.170774956121268 44.000000000000000
-4.762846311270209 -5.074887332374760 -2.293555662922081 53.000000000000000
-4.797456229976227 -5.046689494517909 -2.421099516208464 14.000000000000000
-4.839277907341181 -5.023854395066306 -2.552931717201327 64.000000000000000
-4.879113704403100 -4.999073869458656 -2.685845473440629 64.000000000000000
-4.914416848568930 -4.969438560201644 -2.818596004198334 59.000000000000000
-4.515658755067681 -5.680239535790009 -0.632740724016317 1.000000000000000
-4.514706900575570 -5.610261029445219 -0.748326655534601 1.000000000000000
-4.544445934573871 -5.579028948599477 -0.869454506241719 3.000000000000000
-4.608294542953441 -5.588713755597862 -0.997619147458980 3.000000000000000
-4.652751818923232 -5.575356963811324 -1.122675036503051 14.000000000000000
-4.719015672729161 -5.586828086972390 -1.254847802385998 41.000000000000000
-4.779337544912485 -5.589668899524910 -1.387007651555639 23.000000000000000
-4.840587126942504 -5.593337793456588 -1.521838557393229 8.000000000000000
-4.895713050751977 -5.588408301232734 -1.656571876922288 4.000000000000000
-4.949513710398125 -5.581238003383911 -1.792116173735444 11.000000000000000
-5.015091726065814 -5.585841872660176 -1.934096572765292 22.000000000000000
-5.079459494995516 -5.587832602348311 -2.077364206592862 15.000000000000000
-5.134970272223542 -5.578240455503936 -2.219304783926651 45.000000000000000
-4.764379472978324 -5.110742318885938 -2.169068276336909 37.000000000000000
-4.788100951295562 -5.070236277292240 -2.289627343615603 40.000000000000000
-4.833273965364608 -5.052792849471186 -2.422549730358811 48.000000000000000
-4.867393521414405 -5.021537779627137 -2.550642004568739 65.000000000000000
-4.904739372268457 -4.993869747207032 -2.682314791006082 65.000000000000000
-4.509263054200258 -5.708345670142111 -0.504579446860806 1.000000000000000
-4.517474968955813 -5.649032567256204 -0.623258340446746 1.000000000000000
-4.516404991997583 -5.579194923434852 -0.738461884309588 6.000000000000000
-4.576354191919548 -5.584888385034954 -0.864863016206628 17.000000000000000
-4.637960172744204 -5.591236026039333 -0.992788566190418 48.000000000000000
-4.700412674581210 -5.598861170833752 -1.122359246572329 9.000000000000000
-4.746604383338879 -5.585851893745517 -1.249840569515867 4.000000000000000
-4.802036819870017 -5.582488438349728 -1.380698814479196 18.000000000000000
-4.868654181409440 -5.591870076664033 -1.517174844094693 29.000000000000000
-4.929157495263879 -5.592564666634505 -1.653820678427746 23.000000000000000
-4.996128942565792 -5.599620980461395 -1.794323400179850 10.000000000000000
-5.049015304125919 -5.589385287383092 -1.931940104632561 4.000000000000000
-5.108424035239389 -5.585356235342348 -2.073379753086939 5.000000000000000
-5.171961751846289 -5.583967308786421 -2.218852120318878 33.000000000000000
-4.797415111286676 -5.114499759859441 -2.168478834666356 28.000000000000000
-4.823840552754019 -5.076516664682862 -2.290625433108388 17.000000000000000
-4.856066713854430 -5.045125972517079 -2.417391981460317 63.000000000000000
-4.900787087865104 -5.024496309475991 -2.551028568142039 65.000000000000000
-4.935627221647435 -4.993887678287570 -2.681590159882828 10.000000000000000
-4.514139141193827 -5.611649484030392 -0.613124687419518 1.000000000000000
-4.543074562138631 -5.579021577212060 -0.732677121146234 3.000000000000000
-4.610854101444005 -5.593681109300442 -0.860671890241794 3.000000000000000
-4.654974530077826 -5.578422984186181 -0.985207152750145 19.000000000000000
-4.717632859237748 -5.585895485678150 -1.114687323208049 55.000000000000000
-4.781908408931842 -5.593762832080552 -1.246781996590066 20.000000000000000
-4.845311150714608 -5.599017060423670 -1.380214407201054 7.000000000000000
-4.894165225510626 -5.587346424316984 -1.511656932003662 4.000000000000000
-4.952300028177109 -5.584894632949609 -1.647547380128312 12.000000000000000
-5.014308344894784 -5.585942528773370 -1.786228957205510 25.000000000000000
-5.083002164894544 -5.592790937304239 -1.929709440119144 19.000000000000000
-5.150479272932457 -5.596968141384592 -2.074600415361730 12.000000000000000
-5.211653512018701 -5.592351141836566 -2.219431543675630 24.000000000000000
-4.851507842546558 -5.140362703003725 -2.177236536363806 28.000000000000000
-4.849152107029678 -5.071652059881413 -2.286584620430709 61.000000000000000
-4.886744071015488 -5.045531437752977 -2.416097865369145 63.000000000000000
-4.926342813366351 -5.019266604967442 -2.547255235238962 39.000000000000000
-5.543884370228751 -5.574271229398642 -2.992422154481539 5.000000000000000
-4.513118536420940 -5.577428206360309 -0.603370267008693 7.000000000000000
-4.569772011874898 -5.578744879880657 -0.726837894368620 25.000000000000000
-4.640365554644676 -5.596211676528437 -0.855466183290720 68.000000000000000
-4.702527737664198 -5.601996925036441 -0.984003723763832 7.000000000000000
-4.739927268631575 -5.578908435069476 -1.108190489579059 4.000000000000000
-4.799291436469507 -5.580590475784572 -1.238994612342199 22.000000000000000
-4.868063940253955 -5.591622823602449 -1.373793169355316 35.000000000000000
-4.932643901145494 -5.597436172752980 -1.510058421534958 26.000000000000000
-4.996237653752138 -5.600467829753786 -1.648097507771383 9.000000000000000
-5.050699723354141 -5.592432541154645 -1.784563413595889 4.000000000000000
-5.106587343737766 -5.584614588952400 -1.923462917146384 7.000000000000000
-5.171672868651442 -5.585738294912962 -2.067334380403277 8.000000000000000
-5.238303007754485 -5.586551584266184 -2.214363790185191 20.000000000000000
-4.921616864588868 -5.182613482501376 -2.192893278112139 49.000000000000000
-4.877110187774593 -5.069436352059109 -2.283731001831629 63.000000000000000
-4.917467733792452 -5.045815250045872 -2.414738816003638 58.000000000000000
-5.491249455472457 -5.560043009598092 -2.820454777016081 5.000000000000000
-5.600737746796689 -5.596273652657012 -3.003411709403772 7.000000000000000
-4.539605073296349 -5.577264706122086 -0.597294045129351 2.000000000000000
-4.606621315580263 -5.590651786185915 -0.722532117250025 3.000000000000000
-4.652108078540654 -5.577266659263428 -0.846953975753901 27.000000000000000
-4.719559309970921 -5.589001950656507 -0.976328384932319 80.000000000000000
-4.785341310432799 -5.598906273748151 -1.107005456377205 19.000000000000000
-4.842439043363358 -5.597204129268735 -1.237782713810139 5.000000000000000
-4.895989112280236 -5.590068297305783 -1.368781591010851 5.000000000000000
-4.947810638237612 -5.580952846334441 -1.501265870901694 14.000000000000000
-5.014210831786696 -5.586764374456815 -1.640002914233116 30.000000000000000
-5.081935876298693 -5.593007535644984 -1.780980195119153 20.000000000000000
-5.151163147596574 -5.599187540479671 -1.925024964352452 14.000000000000000
-5.219153500118476 -5.602694515511491 -2.070476975978852 7.000000000000000
-5.286059183004378 -5.603022587012376 -2.218101035391367 8.000000000000000
-4.997339467895594 -5.230058971867286 -2.210696133213127 67.000000000000000
-4.907742615562145 -5.069847911457164 -2.282051834224780 59.000000000000000
-4.961488979529143 -5.059490731340244 -2.419777809116581 6.000000000000000
-5.542618494010578 -5.577192099773275 -2.827904615095510 9.000000000000000
-5.620629574353716 -5.581110097934335 -2.994454418193029 7.000000000000000
-4.573695269302542 -5.586252094699240 -0.592144507724162 17.000000000000000
-4.633409662929337 -5.590139743699968 -0.716567192508205 77.000000000000000
-4.702078468044311 -5.603961209199245 -0.845324107159021 6.000000000000000
-4.739110776185075 -5.578980342907189 -0.969156016594692 5.000000000000000
-4.799960064207818 -5.582700858963966 -1.098622092137727 25.000000000000000
-4.867590114947087 -5.592790527819131 -1.231875231022205 42.000000000000000
-4.934344330800616 -5.600214952901210 -1.366595224050453 28.000000000000000
-4.994237598013391 -5.599558168639389 -1.501879865572922 8.000000000000000
-5.045231783525569 -5.587514877639936 -1.636132556566173 4.000000000000000
-5.100077345643308 -5.579087105215589 -1.772764547500050 8.000000000000000
-5.169527020589727 -5.585097987763858 -1.916709380805762 12.000000000000000
-5.237734322266322 -5.588439544699719 -2.062063681021940 14.000000000000000
-5.315439702027527 -5.599760509464954 -2.214002486617012 16.000000000000000
-5.070773968598255 -5.274378800881019 -2.227124519240716 76.000000000000000
-4.935764067481117 -5.067410254307569 -2.279081039520265 29.000000000000000
-5.484404195211418 -5.558165960120045 -2.656615475244808 7.000000000000000
-5.596820958982001 -5.596775105033139 -2.836576735570731 6.000000000000000
-5.672438573064206 -5.597439191259421 -3.002394233768511 8.000000000000000
-4.907300166022731 -4.585090964926350 -3.040021368988055 34.000000000000000
-4.605331984394500 -5.592016624905514 -0.586593027825399 3.000000000000000
-4.650026952907749 -5.577292768727508 -0.708992742650682 41.000000000000000
-4.716354469286663 -5.587907154325006 -0.837194215629286 115.000000000000000
-4.784397216717382 -5.599046871800883 -0.967161517040310 16.000000000000000
-4.840396776336144 -5.596387570762056 -1.096086312958355 4.000000000000000
-4.887548499953453 -5.582345589262881 -1.224617239238452 5.000000000000000
-4.951915546787969 -5.586636889437026 -1.358589225285189 22.000000000000000
-5.011999666502820 -5.585835610062952 -1.493788432251452 34.000000000000000
-5.084182207609438 -5.596823846867286 -1.634732426718599 19.000000000000000
-5.155084319694589 -5.605254583638121 -1.777252573339762 14.000000000000000
-5.219569482963032 -5.605028899759892 -1.920042042606728 7.000000000000000
-5.280119185697038 -5.599429921726416 -2.062946905887046 4.000000000000000
-5.336873073321889 -5.588042264033164 -2.206550578307892 5.000000000000000
-5.357466547166729 -5.538451712002753 -2.336195374921190 65.000000000000000
-5.043787243978303 -5.146468530705079 -2.312724778252707 5.000000000000000
-5.530386481888564 -5.570152000938397 -2.660672104447715 10.000000000000000
-5.619148186183394 -5.584249688000261 -2.828970322181001 8.000000000000000
-5.695005564272255 -5.584697046079360 -2.994740477306929 8.000000000000000
-4.952071820992763 -4.728536368851059 -2.827789328818936 39.000000000000000
-4.935359233434881 -4.646705298670237 -2.928107768552759 9.000000000000000
-4.913734713523922 -4.561952391416195 -3.025646632302262 57.000000000000000
-4.637031008083985 -5.597649563494923 -0.580970562397703 114.000000000000000
-4.699857204658462 -5.604056674184084 -0.706395815639331 5.000000000000000
-4.735709544040814 -5.577878616230234 -0.829952563151793 7.000000000000000
-4.796224986962742 -5.579804353350088 -0.958336711584002 34.000000000000000
-4.862767147400022 -5.588997482948290 -1.089379091852205 50.000000000000000
-4.933566184839006 -5.601458207187648 -1.223800087000830 27.000000000000000
-4.998253246443526 -5.605324242321957 -1.358391925349429 7.000000000000000
-5.040228675808228 -5.583713050209905 -1.488780530661266 4.000000000000000
-5.099487586272850 -5.579985727607455 -1.625672057072461 11.000000000000000
-5.170608162019415 -5.588269180784832 -1.768025677966418 15.000000000000000
-5.240595697250134 -5.593579542266490 -1.912596309287762 19.000000000000000
-5.314639724641245 -5.601825648426286 -2.060635339379252 13.000000000000000
-5.382264559033931 -5.601223980638633 -2.208912432688537 16.000000000000000
-5.357550907564845 -5.504646775940827 -2.319501701869461 42.000000000000000
-5.042713616688059 -5.113756171871326 -2.296113497786371 7.000000000000000
-5.579179543634469 -5.584618734523694 -2.665898199462548 5.000000000000000
-5.670932997765750 -5.600782769163599 -2.836080271693958 8.000000000000000
-5.747048566005917 -5.600644842354923 -3.002471337044291 8.000000000000000
-4.903123135305708 -4.714720810585966 -2.671639047150182 2.000000000000000
-4.923677552930151 -4.671877277164127 -2.794022559302137 2.000000000000000
-4.917617261820033 -4.600762343579544 -2.899698316058085 19.000000000000000
-4.925409470190700 -4.543769237439905 -3.014565751124123 56.000000000000000
-4.650923187044019 -5.581706034494967 -0.573075259192696 83.000000000000000
-4.713931039339020 -5.587978705959992 -0.698343853766786 177.000000000000000
-4.780849794304339 -5.598014552155274 -0.827147095840840 11.000000000000000
-4.841699116881897 -5.599552485561659 -0.956168198083001 3.000000000000000
-4.887732301588063 -5.584507848171333 -1.083210525117546 6.000000000000000
-4.948319024107435 -5.584903220689456 -1.215152192603454 29.000000000000000
-5.015826720562735 -5.591566207007007 -1.350293916873700 42.000000000000000
-5.081673702142751 -5.596009415473716 -1.487577563315707 20.000000000000000
-5.151786885575526 -5.603423015868161 -1.628311515297663 13.000000000000000
-5.220582681996913 -5.608330751174777 -1.770491074775944 6.000000000000000
-5.280227710718091 -5.601837476275015 -1.911867205735157 4.000000000000000
-5.335872881593438 -5.590098670645456 -2.053113110357941 5.000000000000000
-5.395687736011515 -5.581002687727540 -2.198087089956376 10.000000000000000
-5.349411691257077 -5.462679421588684 -2.299387765122185 12.000000000000000
-5.022668396225243 -5.062155973254906 -2.271042730553483 21.000000000000000
-5.582431030166594 -5.553415849839285 -2.649320703913919 8.000000000000000
-5.693288971358610 -5.588035653407278 -2.828358927868867 9.000000000000000
-5.769642865139082 -5.587679718209134 -2.994702084592720 9.000000000000000
-4.928161167155500 -4.709173820585367 -2.668203410172091 5.000000000000000
-4.935306462316903 -4.653496272495107 -2.783154067759661 5.000000000000000
-4.918430731103395 -4.572477516376198 -2.882421292172931 60.000000000000000
-4.936999085610594 -4.525566111214147 -3.003479882021887 58.000000000000000
-4.698051845466757 -5.605462889121124 -0.569201770896982 4.000000000000000
-4.730515900156732 -5.574903678829793 -0.690654971845115 14.000000000000000
-4.802827144127639 -5.590805337332283 -0.820245758104007 50.000000000000000
-4.866494856209046 -5.595144935153125 -0.949819440273377 62.000000000000000
-4.931014848543989 -5.600724287249595 -1.081008798137738 22.000000000000000
-4.994531861004182 -5.603685919380839 -1.214154687981323 4.000000000000000
-5.035988143023333 -5.580681109397444 -1.342876680318377 6.000000000000000
-5.099405023723578 -5.582040152138915 -1.479362073304470 13.000000000000000
-5.161769536641124 -5.580665021164067 -1.617497193864505 18.000000000000000
-5.238751317041635 -5.594021099491285 -1.762075076902467 22.000000000000000
-5.314611593598356 -5.604290929744256 -1.909126183356201 14.000000000000000
-5.378499992083748 -5.600617061051598 -2.053740580164118 15.000000000000000
-5.347279686930333 -5.497284085190339 -2.162288518319252 10.000000000000000
-5.515841059262854 -5.598222697496301 -2.353936285923491 7.000000000000000
-5.029251073701356 -5.037692859769537 -2.258164805389716 34.000000000000000
-5.631365257290555 -5.567574903688673 -2.654381101273320 5.000000000000000
-5.745305958860554 -5.604186526215698 -2.835259568093162 7.000000000000000
-5.824618037136767 -5.605844265301199 -3.003616286187483 7.000000000000000
-4.945099724821307 -4.695836356819439 -2.660358927202302 5.000000000000000
-4.917131042436027 -4.607249551366682 -2.755625860479519 34.000000000000000
-4.927189080299669 -4.551717578047338 -2.869893875506649 60.000000000000000
-4.951203224482256 -4.509802300853134 -2.994021682803298 58.000000000000000
-4.714501412446980 -5.592410349957765 -0.561532643504088 255.000000000000000
-4.778079673218180 -5.598132575195085 -0.687408398929549 7.000000000000000
-4.832591181076666 -5.592544313330861 -0.814620512883559 3.000000000000000
-4.883457714931468 -5.581686077572419 -0.941911502164906 11.000000000000000
-4.950805147082464 -5.590071273687331 -1.073576988723903 38.000000000000000
-5.011895023315659 -5.589913927643447 -1.206062418285865 46.000000000000000
-5.082589452440295 -5.598892102049686 -1.342420086093878 18.000000000000000
-5.148967663692410 -5.602711726814419 -1.480289601553058 11.000000000000000
-5.211632483476152 -5.600872725055981 -1.619108265342437 5.000000000000000
-5.272911219019051 -5.596687779726000 -1.758987541914004 5.000000000000000
-5.335647470844609 -5.592552312290768 -1.901532198297128 5.000000000000000
-5.397050351862055 -5.585914045542497 -2.045100431586846 13.000000000000000
-5.371083593171784 -5.488191745267810 -2.155873002367056 14.000000000000000
-5.545606648068960 -5.594075362167608 -2.349673966166947 15.000000000000000
-5.038413011387614 -5.015929555417634 -2.246504177999201 36.000000000000000
-5.485596772826471 -5.390059904791101 -2.568101685821493 9.000000000000000
-5.767688421894079 -5.591216823606406 -2.827422978503512 10.000000000000000
-5.844535793669689 -5.590055169137629 -2.994338084203501 10.000000000000000
-4.983681504893263 -4.702920020868890 -2.664088199571364 4.000000000000000
-4.917643966245762 -4.578813154244819 -2.738755907298287 61.000000000000000
-4.938554420092652 -4.533441176369027 -2.858939548186557 60.000000000000000
-4.962631714397418 -4.491552823421028 -2.982922007306851 61.000000000000000
-4.733483046753169 -5.582352759423233 -0.554144309237350 39.000000000000000
-4.794676987304788 -5.584876425217741 -0.679626296178256 68.000000000000000
-4.865005573509557 -5.597164324183856 -0.809365367312203 72.000000000000000
-4.931834667896344 -5.603929286661002 -0.939978382006137 18.000000000000000
-4.989002828494530 -5.600051629597251 -1.070069401075808 3.000000000000000
-5.034499198469362 -5.581958592159300 -1.199208112059918 9.000000000000000
-5.100121757626512 -5.584895752649651 -1.334202941617400 19.000000000000000
-5.169372982579613 -5.591436852279671 -1.472736532426880 24.000000000000000
-5.237589287059527 -5.595135272856518 -1.613178148412657 28.000000000000000
-5.312495285837753 -5.604875984464372 -1.757600363201544 17.000000000000000
-5.383553131087476 -5.608776207337669 -1.903418277930808 16.000000000000000
-5.385880375203691 -5.540638506540845 -2.025280603726945 6.000000000000000
-5.516499124648536 -5.602542074275767 -2.197875272557953 6.000000000000000
-5.583514760921811 -5.597959185906704 -2.348769862607016 5.000000000000000
-5.063743206772902 -5.010262385544921 -2.242052533696524 19.000000000000000
-5.414681005303520 -5.287636816627119 -2.517677998921763 2.000000000000000
-5.819934155850404 -5.606983435980312 -2.834113471653570 6.000000000000000
-5.886156387254506 -5.594892437109960 -2.996110412176551 5.000000000000000
-5.006037792443387 -4.694529508006850 -2.659055907475714 6.000000000000000
-4.928878748733184 -4.560483856238591 -2.727937916682416 61.000000000000000
-4.949834663492086 -4.515145876786026 -2.847980778627961 62.000000000000000
-4.976693029616266 -4.475728635101175 -2.973441721961982 60.000000000000000
-5.002550993338446 -4.433493716935289 -3.099361389212918 47.000000000000000
-4.775731115765949 -5.599548627294081 -0.549406480189198 5.000000000000000
-4.826846947090400 -5.589662160231355 -0.674004068119646 3.000000000000000
-4.881773725119492 -5.583685898137032 -0.801459348737410 23.000000000000000
-4.946176763882445 -5.587314192559134 -0.931480291824068 74.000000000000000
-5.014079816628185 -5.595119135368216 -1.063667924456831 53.000000000000000
-5.078326541653964 -5.597331934956274 -1.197321488261003 12.000000000000000
-5.149588171126021 -5.605666890447735 -1.334250494149051 7.000000000000000
-5.211146063958692 -5.603107107031079 -1.471193884987853 4.000000000000000
-5.263548911301659 -5.589302277967295 -1.607199086561689 5.000000000000000
-5.330635428150400 -5.590307358382788 -1.749053907390802 7.000000000000000
-5.399212221976558 -5.591238033594064 -1.893822756688206 16.000000000000000
-5.328449756207300 -5.448431335350929 -1.988364951295523 13.000000000000000
-5.540683856675209 -5.592953050032320 -2.191182918086236 15.000000000000000
-5.616062599618943 -5.596270362783630 -2.345511224400960 12.000000000000000
-5.503860341496848 -5.341666412760100 -2.541755550026169 3.000000000000000
-5.839613324079006 -5.591178794617649 -2.824841926879600 12.000000000000000
-5.916949417230332 -5.589242428751811 -2.992267144921752 9.000000000000000
-5.042030946781412 -4.698781012787582 -2.661188630211212 7.000000000000000
-4.934569908667975 -4.537117188876966 -2.714113378410290 66.000000000000000
-4.958300965746272 -4.494358464128333 -2.835457199288608 63.000000000000000
-4.987960257949227 -4.457433860945401 -2.962328786683958 58.000000000000000
-5.016609086414247 -4.417622724199149 -3.089779723660782 49.000000000000000
-4.794732902754243 -5.589303517966554 -0.541921189189509 98.000000000000000
-4.861688079107098 -5.597321388818800 -0.668669044998723 89.000000000000000
-4.930011312632742 -5.605999505459445 -0.798637591214960 13.000000000000000
-4.981570787034461 -5.594382507298386 -0.926898514293058 3.000000000000000
-5.028552090880138 -5.578324988018259 -1.054992984505624 12.000000000000000
-5.098311221802683 -5.586241617947601 -1.189732436958409 23.000000000000000
-5.169801917042857 -5.594376077009412 -1.326622948514298 30.000000000000000
-5.239610113090940 -5.600249213728575 -1.465796236496608 31.000000000000000
-5.308363575021335 -5.603273653759296 -1.606877878518979 17.000000000000000
-5.381139088015304 -5.609478701376700 -1.751032499479943 13.000000000000000
-5.376876844142745 -5.534626797965558 -1.871016197194209 6.000000000000000
-5.430657108409367 -5.519408551263973 -2.010992942582581 6.000000000000000
-5.578456454475731 -5.596931597349205 -2.189790008222730 5.000000000000000
-5.656825301330851 -5.602553079064878 -2.345575943448385 5.000000000000000
-5.734265872280882 -5.604462687297712 -2.503635934532510 6.000000000000000
-5.355617743946229 -5.165840879352303 -2.456489892090120 1.000000000000000
-5.883865147381449 -5.598754310134916 -2.827380607943609 5.000000000000000
-5.304238760756103 -4.979370760807694 -2.665036959463410 4.000000000000000
-5.078102890173697 -4.702880535321689 -2.663238950470261 7.000000000000000
-4.948354791040516 -4.521268161231222 -2.704792612423956 40.000000000000000
-4.974877802879133 -4.480965877073699 -2.827606700890634 67.000000000000000
-5.001878511620464 -4.441550243894690 -2.952826914322693 58.000000000000000
-5.027865994828363 -4.399325997440092 -3.078511053463403 36.000000000000000
-4.821522846271657 -5.588058589249504 -0.535274365157982 4.000000000000000
-4.875634675046859 -5.580828023675663 -0.660412814561533 46.000000000000000
-4.946788525353316 -5.592337601990197 -0.790637357325910 98.000000000000000
-5.017040641858647 -5.601299992965072 -0.922235103836355 64.000000000000000
-5.080212665615766 -5.602583904513804 -1.054034565372516 8.000000000000000
-5.142317521006323 -5.601288327598665 -1.187668128838326 4.000000000000000
-5.200716382583751 -5.594567267117128 -1.321692173551227 4.000000000000000
-5.265401331783528 -5.594419756116079 -1.459594603864496 7.000000000000000
-5.326284256963577 -5.588691122280948 -1.598337747086038 8.000000000000000
-5.380309000948379 -5.575057001376255 -1.736264520664825 20.000000000000000
-5.335188938252712 -5.458720007621918 -1.841748862232325 22.000000000000000
-5.538826518833943 -5.595378026091438 -2.035330326849910 16.000000000000000
-5.610841288924092 -5.595306765653203 -2.186184399528121 12.000000000000000
-5.686737294207900 -5.597892037994465 -2.341042433964664 13.000000000000000
-5.767165727641809 -5.602148369836215 -2.500426586055902 16.000000000000000
-5.461303896057315 -5.235416846987721 -2.487944170030018 1.000000000000000
-5.911748863677016 -5.590559847380399 -2.821951446370320 11.000000000000000
-5.338410892807594 -4.980360308045427 -2.664838520736088 5.000000000000000
-5.108756650187633 -4.701769272827790 -2.662342426183394 6.000000000000000
-5.017023891550628 -4.555280052212929 -2.725309325108102 7.000000000000000
-4.983164766586373 -4.460149487710809 -2.815079298407982 63.000000000000000
-5.010239014383339 -4.420788877486363 -2.940090257023399 58.000000000000000
-5.039037539188134 -4.381010717919660 -3.067238133586282 41.000000000000000
-4.864025458475901 -5.604788673269899 -0.530283195362410 80.000000000000000
-4.928967248384091 -5.609199175564235 -0.657405866422311 8.000000000000000
-4.979382401567364 -5.596460110707341 -0.785117270363349 3.000000000000000
-5.023349180458045 -5.575615571536782 -0.912180908388260 32.000000000000000
-5.097343917827246 -5.588545475248932 -1.045820469518673 24.000000000000000
-5.170362367792609 -5.598714537850974 -1.181817460257788 34.000000000000000
-5.239747039471938 -5.603272413881394 -1.318728637051929 32.000000000000000
-5.304706162677824 -5.602765907024376 -1.457055496106188 15.000000000000000
-5.373977229665491 -5.605165519650438 -1.598647000547227 10.000000000000000
-5.311309008552160 -5.470658407858144 -1.699775632312591 41.000000000000000
-5.385764301813927 -5.477383060591911 -1.844401716776346 7.000000000000000
-5.573736573512262 -5.596692891730040 -2.032443181186190 5.000000000000000
-5.651480179142525 -5.601699498650249 -2.185689481966894 5.000000000000000
-5.727643868000809 -5.603857323632730 -2.340936312188040 5.000000000000000
-5.805597684046480 -5.605012046950117 -2.499515850027398 6.000000000000000
-5.396889598373352 -5.141894896766700 -2.441891793993768 1.000000000000000
-5.958913646670282 -5.600388442514842 -2.825615232913502 6.000000000000000
-5.367126736003033 -4.976098053203026 -2.661830716741862 5.000000000000000
-5.147723002723584 -4.708100220604507 -2.665663932301723 4.000000000000000
-5.251387598533644 -4.738196693301545 -2.834928638529256 3.000000000000000
-4.994104581673200 -4.441781493066499 -2.804104241137030 65.000000000000000
-5.026759312869449 -4.407269131612584 -2.932178304949260 59.000000000000000
-5.052875826588901 -4.365054656273157 -3.057626486152546 48.000000000000000
-4.875169048235385 -5.585253707030446 -0.521815848006127 107.000000000000000
-4.942912904809704 -5.592530455855282 -0.649060178871570 206.000000000000000
-5.012033072501239 -5.600446622145238 -0.779524286123135 75.000000000000000
-5.072204303672128 -5.597024628935765 -0.909792726337378 5.000000000000000
-5.138536152299246 -5.600738686125988 -1.042476081857707 3.000000000000000
-5.193046041921405 -5.590238813883835 -1.174692645005948 4.000000000000000
-5.257257013661880 -5.588832935790216 -1.310286651130005 10.000000000000000
-5.325123090121823 -5.591015041659076 -1.449258734316741 10.000000000000000
-5.394611562500812 -5.593218845488377 -1.590815211206569 22.000000000000000
-5.350820635966860 -5.478433405796612 -1.698181951371212 35.000000000000000
-5.370839275325936 -5.429434242803966 -1.824618667471122 9.000000000000000
-5.611443114428706 -5.600602184354323 -2.030472197823998 12.000000000000000
-5.689460164050557 -5.605210856149453 -2.184045397830854 15.000000000000000
-5.763132407532490 -5.604293085043574 -2.338501201663481 15.000000000000000
-5.838583873852352 -5.602422945443126 -2.496160950011761 17.000000000000000
-5.431279164883932 -5.142895382900994 -2.440749416395169 1.000000000000000
-5.989617637846686 -5.594520829881330 -2.821354503854450 11.000000000000000
-5.398628238247954 -4.974273443445473 -2.660127977189236 1.000000000000000
-5.250408689171616 -4.772091342142434 -2.701632250866209 2.000000000000000
-5.370974091022949 -4.815736078657207 -2.881518234243797 2.000000000000000
-5.004959284997973 -4.423396048238151 -2.793125481596502 67.000000000000000
-5.037703643941314 -4.388886927636622 -2.921040487949589 58.000000000000000
-5.063885636655185 -4.346695723125178 -3.046341174169862 52.000000000000000
-4.920453014711657 -5.604684738526113 -0.516940143292683 5.000000000000000
-4.964734770255024 -5.584764376536559 -0.641728540419538 5.000000000000000
-5.028767102904292 -5.586552337312224 -0.771408067898510 66.000000000000000
-5.094465633568266 -5.588854881853914 -0.902539205779753 37.000000000000000
-5.163709570414590 -5.595273415336930 -1.035796736832365 41.000000000000000
-5.234611169100454 -5.601907178377009 -1.171758453426693 30.000000000000000
-5.309951562386593 -5.611581839067648 -1.310518854711498 14.000000000000000
-5.375428904116801 -5.610430550656488 -1.449499614710526 6.000000000000000
-5.437045781291785 -5.603710626814353 -1.589334572412332 4.000000000000000
-5.332933180824759 -5.427527489787150 -1.678401929355154 48.000000000000000
-5.366623967142161 -5.392647505683828 -1.808618277784819 9.000000000000000
-5.481367798665628 -5.437833236347989 -1.968146526410236 6.000000000000000
-5.716480471394454 -5.597761941889079 -2.178113004897599 5.000000000000000
-5.795910294699616 -5.601914062606367 -2.334876161805597 5.000000000000000
-5.866069164590441 -5.594425775621867 -2.490388081664961 6.000000000000000
-5.460183573819464 -5.138540345630129 -2.437058566494354 17.000000000000000
-6.036973653445965 -5.603981736619295 -2.824818897422742 6.000000000000000
-6.126627193023609 -5.610060900047207 -2.999313243971892 6.000000000000000
-5.384132828611489 -4.863143442543439 -2.752916551789171 2.000000000000000
-5.505050853310765 -4.905033363718722 -2.935159076314022 37.000000000000000
-5.012954690757957 -4.402557052243099 -2.780604371382656 44.000000000000000
-5.048562679838542 -4.370487255281972 -2.909898970610378 61.000000000000000
-5.077580140366636 -4.330681700258996 -3.036708733019383 54.000000000000000
-4.989739950755531 -4.194704791645419 -3.094770255573287 29.000000000000000
-4.942107614282642 -5.596984850714670 -0.509498684708811 255.000000000000000
-5.007795208446814 -5.600690923621407 -0.637062264085637 78.000000000000000
-5.074831256987517 -5.605060329265179 -0.767715063288595 3.000000000000000
-5.124764995246783 -5.589390673439975 -0.896655810863596 3.000000000000000
-5.188884748087374 -5.589714408696810 -1.029069434136243 5.000000000000000
-5.257324833056407 -5.593220469325084 -1.164524100760183 13.000000000000000
-5.324753209319204 -5.594087743341291 -1.301310716025799 13.000000000000000
-5.395874077063965 -5.598465824020961 -1.441591953965612 25.000000000000000
-5.463157299712787 -5.597182398481225 -1.582991319220308 25.000000000000000
-5.353211410083744 -5.415667767898928 -1.670714286372707 14.000000000000000
-5.420046843892605 -5.413698306473602 -1.812000788215789 6.000000000000000
-5.477255056744966 -5.401050552238725 -1.951518889358606 8.000000000000000
-5.574734777660253 -5.425954285709554 -2.108305539559057 6.000000000000000
-5.831492994197042 -5.602067726163390 -2.332291287577380 15.000000000000000
-5.910207137134174 -5.602116257990802 -2.491586046702662 12.000000000000000
-5.483547954982676 -5.128874712093177 -2.430845534594176 13.000000000000000
-6.067758506016705 -5.597835661090336 -2.820411073600306 9.000000000000000
-6.146549105936311 -5.593427224141038 -2.989603648738644 9.000000000000000
-5.487934699284192 -4.926022424263124 -2.788248879144291 48.000000000000000
-5.525698307823637 -4.892593128533819 -2.927932835557988 44.000000000000000
-5.029196534267923 -4.389002853925259 -2.772691863143731 55.000000000000000
-5.059336421105874 -4.352070404010820 -2.898753900662267 60.000000000000000
-5.088428102048491 -4.312280168815748 -3.025411574632719 55.000000000000000
-5.008624219606548 -4.183587108614112 -3.088637617366031 29.000000000000000
-5.024326721645972 -5.586784417892388 -0.628952193850251 133.000000000000000
-5.096920560518989 -5.596873820099510 -0.760307991305828 49.000000000000000
-5.165874958593716 -5.601485576254329 -0.892568905569250 41.000000000000000
-5.233001818368082 -5.604346180447931 -1.026007728360280 27.000000000000000
-5.304478708048308 -5.610321413598048 -1.162610541834779 12.000000000000000
-5.372224686769607 -5.610752833683284 -1.300011751553889 4.000000000000000
-5.432712955565486 -5.603380877768153 -1.438001627639248 4.000000000000000
-5.453552312987998 -5.554182582516279 -1.566340642892232 6.000000000000000
-5.376210029293359 -5.406513744780067 -1.663848204743964 59.000000000000000
-5.446019162815282 -5.407069047688929 -1.806082941554198 7.000000000000000
-5.517259224709592 -5.407773089111881 -1.950606281142929 6.000000000000000
-5.581771550346970 -5.399972006028200 -2.095248122263555 7.000000000000000
-5.675262927357862 -5.418880273366828 -2.253446979246089 7.000000000000000
-5.932168707046833 -5.588625323384901 -2.483352859735259 6.000000000000000
-5.375844222757505 -4.997305371666585 -2.366892882020024 26.000000000000000
-6.112511260515418 -5.604367950421332 -2.822386572807203 5.000000000000000
-6.199923699574488 -5.607044659694429 -2.996063467893631 6.000000000000000
-5.508440911981503 -4.913632035945430 -2.780978772759537 58.000000000000000
-5.537931462129376 -4.872714760730726 -2.916263016484366 44.000000000000000
-5.037012735612084 -4.368137903975573 -2.760168464629206 62.000000000000000
-5.072815196875590 -4.336021713607416 -2.889194641673189 59.000000000000000
-5.060159107485498 -4.260994307736238 -2.991039504314670 20.000000000000000
-5.019126197722311 -4.165477285425408 -3.077355227454663 19.000000000000000
-5.062201080599781 -5.596481676239477 -0.623455745895562 3.000000000000000
-5.118993874010811 -5.588609509830054 -0.752862181595580 5.000000000000000
-5.180070216314524 -5.584267509656814 -0.883771992451938 13.000000000000000
-5.250097262338382 -5.589876106267933 -1.017575477574940 25.000000000000000
-5.321785356628415 -5.595674675434658 -1.154075190217085 15.000000000000000
-5.395202793002448 -5.601624055221077 -1.292691288106779 30.000000000000000
-5.464128293041806 -5.602506108005360 -1.432886355208494 25.000000000000000
-5.344486997174563 -5.410823680447976 -1.521506436442330 6.000000000000000
-5.413013870124090 -5.411097124666222 -1.661184140687948 10.000000000000000
-5.480307360990945 -5.408550727085295 -1.802851702612720 9.000000000000000
-5.565688446387292 -5.422444483117070 -1.952524505675736 33.000000000000000
-5.613742524008973 -5.398096968106782 -2.091540101707287 6.000000000000000
-5.685220141458061 -5.395440263247002 -2.241115862442788 5.000000000000000
-5.766889332284388 -5.399780520685113 -2.397267977847727 9.000000000000000
-5.163778796283618 -4.770746703494035 -2.258056782756472 25.000000000000000
-6.104164200467226 -5.562229043981677 -2.799854902672812 7.000000000000000
-6.225435641635885 -5.595241872053219 -2.988940190949291 8.000000000000000
-5.523306422990752 -4.896207349106279 -2.770865524038797 60.000000000000000
-5.555677779974110 -4.857714807400956 -2.907520465114465 45.000000000000000
-5.053129147823525 -4.354513169017491 -2.752227620722810 27.000000000000000
-5.089025760188868 -4.322318861311655 -2.881208162088197 57.000000000000000
-5.014774425192284 -4.195861350980838 -2.946925344792883 9.000000000000000
-5.046299519697692 -4.161168110266589 -3.076284303441282 17.000000000000000
-5.092115581232490 -5.597165779406351 -0.616893949728617 50.000000000000000
-5.162629258659543 -5.603689285226578 -0.748506200554968 44.000000000000000
-5.234860341704008 -5.610598955222983 -0.881812092514824 20.000000000000000
-5.299821491436536 -5.609950633297302 -1.015382711530286 7.000000000000000
-5.360920130594978 -5.603851058466254 -1.150212444684970 3.000000000000000
-5.415416409440609 -5.589580303673385 -1.284679392357454 6.000000000000000
-5.484553924347531 -5.590268155117506 -1.424840413801912 9.000000000000000
-5.383869751168621 -5.418390097016817 -1.519190330077703 22.000000000000000
-5.566375134444264 -5.531275719699166 -1.693883341705407 5.000000000000000
-5.481276953809185 -5.377152826960273 -1.788654922323880 5.000000000000000
-5.594746182960070 -5.418000259005331 -1.947529805079216 82.000000000000000
-5.645747547780016 -5.396093903765595 -2.087764643938516 6.000000000000000
-5.723052963834018 -5.398391299634764 -2.239740196803707 5.000000000000000
-5.799381654554167 -5.397093881650867 -2.393893493342452 9.000000000000000
-5.160659529319513 -4.738644140667521 -2.241334631544576 37.000000000000000
-6.098386866049301 -5.522729851043437 -2.778666699046702 6.000000000000000
-6.276218200500796 -5.605945921121372 -2.993840247769610 7.000000000000000
-5.538099820946528 -4.878747089209298 -2.760738526692416 59.000000000000000
-5.570559057293448 -4.840221762034769 -2.897293406531509 45.000000000000000
-5.057956185352396 -4.331217188720181 -2.738181310868636 5.000000000000000
-5.034983232006223 -4.249320665891377 -2.833690479188687 4.000000000000000
-5.022258848210331 -4.175333203278081 -2.934128269721117 13.000000000000000
-5.084700486296946 -4.165933870916019 -3.081950023573754 26.000000000000000
-5.111299635328129 -5.585961811760618 -0.608984955024816 11.000000000000000
-5.179327360579372 -5.589368971792338 -0.740174701755568 31.000000000000000
-5.246328124346575 -5.590303246542988 -0.872471674830237 50.000000000000000
-5.322381565524406 -5.601042600523056 -1.007889010800243 17.000000000000000
-5.394654587829852 -5.606153870138084 -1.145092425240036 32.000000000000000
-5.463143576111311 -5.605740181035709 -1.283106889357018 23.000000000000000
-5.535356690853841 -5.608781711730245 -1.424590472795588 19.000000000000000
-5.476048806233347 -5.478516628069868 -1.531522454197881 6.000000000000000
-5.484052172683209 -5.417045785524495 -1.654763646210501 8.000000000000000
-5.470925692251831 -5.334913681938634 -1.770876640571775 5.000000000000000
-5.612633769522985 -5.402675812421945 -1.938612966809280 83.000000000000000
-5.686193412438588 -5.401949689807064 -2.087007432936776 6.000000000000000
-5.758146865802376 -5.398550715693943 -2.237188155236546 5.000000000000000
-5.826282295434729 -5.389075853707181 -2.388145736108676 10.000000000000000
-5.168624888796204 -4.716877531983095 -2.229510956956593 36.000000000000000
-6.219196060079224 -5.597442152446335 -2.814929078380480 10.000000000000000
-6.301759231813340 -5.593899094632881 -2.986590615287068 8.000000000000000
-5.550000892399560 -4.858782587643946 -2.749200949434596 56.000000000000000
-5.582548436856321 -4.820258620091995 -2.885595222061104 44.000000000000000
-5.071119125360747 -4.315131739360266 -2.728700219585524 4.000000000000000
-5.031153610066623 -4.219177952641973 -2.814740974912874 1.000000000000000
-5.077488836271397 -4.194330061050589 -2.949128423196707 15.000000000000000
-5.142865392173760 -4.186546990566667 -3.099380559685859 37.000000000000000
-5.160152276652705 -5.606970025444991 -0.604525942799239 28.000000000000000
-5.228550123276242 -5.609953633707412 -0.736410100447428 11.000000000000000
-5.295906559508179 -5.610456033879195 -0.869397955407520 4.000000000000000
-5.350405439491860 -5.597790627806088 -1.001381905319968 3.000000000000000
-5.409171400916599 -5.588408257702881 -1.135851178959740 9.000000000000000
-5.480608531620733 -5.590670490156031 -1.274345947388130 14.000000000000000
-5.553031613446301 -5.593534135620287 -1.415725882265554 15.000000000000000
-5.382195240922157 -5.352745058870318 -1.491908416537108 55.000000000000000
-5.378705762579666 -5.281389011401600 -1.609260211972794 41.000000000000000
-5.443549919099212 -5.276500033396239 -1.747773347961475 5.000000000000000
-5.627660320449817 -5.384615685532727 -1.928711807593236 39.000000000000000
-5.721102786176284 -5.402321573279138 -2.084107609719032 7.000000000000000
-5.790474397256562 -5.395941137658784 -2.233472966847346 5.000000000000000
-5.867282939750379 -5.393924872881239 -2.388088225051003 18.000000000000000
-5.196254200772687 -4.713039810766449 -2.226162173580972 18.000000000000000
-6.267087565386375 -5.605804280616374 -2.817799818156464 5.000000000000000
-6.352730084683841 -5.604221210939861 -2.991284187435994 7.000000000000000
-5.567469914407907 -4.843720750363370 -2.740443767834347 52.000000000000000
-5.600104234239716 -4.805129029482204 -2.876798146495129 40.000000000000000
-5.002211222050486 -4.229676641455301 -2.675349397502984 0.000000000000000
-5.032802580959078 -4.193805650534280 -2.798976303336341 2.000000000000000
-5.158326895300198 -4.233925476893972 -2.978657868458676 67.000000000000000
-5.173053344779629 -4.184085274579420 -3.099766040705642 39.000000000000000
-5.173945298373224 -5.589705755245639 -0.595885575606074 53.000000000000000
-5.245248147429064 -5.595447064892042 -0.727983527205799 72.000000000000000
-5.318269648490259 -5.601549601938278 -0.861762149883842 26.000000000000000
-5.392194311891823 -5.608729622995950 -0.997360776714813 28.000000000000000
-5.462277843470233 -5.610337360169457 -1.134627456842549 17.000000000000000
-5.536834869812052 -5.614914023572998 -1.274497599965031 16.000000000000000
-5.590129006076452 -5.597740057763160 -1.411757748743169 8.000000000000000
-5.379709346259081 -5.318617446087811 -1.477937688789028 64.000000000000000
-5.376129732183782 -5.247480163830210 -1.594860819299914 64.000000000000000
-5.390568280056618 -5.193935489152532 -1.716743356640494 7.000000000000000
-5.608842107470290 -5.334400837608655 -1.907312747608090 8.000000000000000
-5.753241857225813 -5.399902259801825 -2.080111467410342 10.000000000000000
-5.828484013405069 -5.398435714885797 -2.231853475864178 7.000000000000000
-5.874411662536653 -5.367571298312083 -2.374211864301433 25.000000000000000
-5.427873546522905 -4.892962718052801 -2.309545540296231 15.000000000000000
-6.295245055826268 -5.596310089298325 -2.811690429530375 10.000000000000000
-6.386809721984857 -5.599392018813589 -2.987889990412359 6.000000000000000
-5.519613781039255 -4.772176772867019 -2.699739349765101 48.000000000000000
-5.611930778160190 -4.785110627868946 -2.865081712655684 0.000000000000000
-5.006473858069214 -4.206601986052382 -2.661450589323369 1.000000000000000
-5.125022498948836 -4.243571841042239 -2.833384268887932 15.000000000000000
-5.168715071218717 -4.215379614038758 -2.967315153822215 52.000000000000000
-5.183483570252106 -4.165593398508135 -3.088293009938001 39.000000000000000
-5.222996323772992 -5.610356341537247 -0.591231868919975 5.000000000000000
-5.278285731801919 -5.598278432037543 -0.721777203047811 3.000000000000000
-5.343360016353492 -5.595439617120793 -0.854526317201476 4.000000000000000
-5.409260354627486 -5.593809897479413 -0.988700787254005 17.000000000000000
-5.479543842619901 -5.595244993050694 -1.125867107853971 19.000000000000000
-5.548750155062346 -5.594028894627026 -1.264362464949640 23.000000000000000
-5.618919770220035 -5.593451978228047 -1.405610039480072 14.000000000000000
-5.377046647785086 -5.284548324773204 -1.464007633409027 46.000000000000000
-5.376185664637563 -5.216355441451709 -1.581328431345841 62.000000000000000
-5.370888364938331 -5.144076313704959 -1.696591008507836 16.000000000000000
-5.581269089568092 -5.276328840798367 -1.883149838327029 5.000000000000000
-5.757121964737772 -5.370960963040681 -2.065895693549658 6.000000000000000
-5.866559983278715 -5.400769756651202 -2.230147976757274 26.000000000000000
-5.861541930520205 -5.323181774434598 -2.352373693332073 8.000000000000000
-5.726145704949919 -5.130223364404034 -2.419847845837949 8.000000000000000
-6.331927269061574 -5.594252495675409 -2.809315232212984 6.000000000000000
-6.440838055745533 -5.611787084017109 -2.993685832434470 9.000000000000000
-4.978823387693817 -4.277803857076922 -2.419861118851842 6.000000000000000
-5.003242199778183 -4.239371329221947 -2.538566962545937 0.000000000000000
-5.036224920358707 -4.204924857921671 -2.661098549620128 1.000000000000000
-5.149425149025507 -4.236732384633591 -2.830027444315796 70.000000000000000
-5.176176753242357 -4.194516028974063 -2.954348236392092 34.000000000000000
-5.199501452715916 -4.151615624417468 -3.080177973802459 39.000000000000000
-5.239488405112742 -5.595840769279626 -0.582813295624864 96.000000000000000
-5.314114548071544 -5.603861017697603 -0.715866093835669 22.000000000000000
-5.387730049603991 -5.609309719190844 -0.850285473700033 25.000000000000000
-5.459477410571862 -5.612979836155946 -0.986016106543047 10.000000000000000
-5.527323500212993 -5.611134880374403 -1.123297056988463 7.000000000000000
-5.594055758751780 -5.606680385751329 -1.261774631226735 5.000000000000000
-5.460120484982378 -5.403396503289970 -1.352919257646046 7.000000000000000
-5.486579911273973 -5.360324851879848 -1.480439920943828 6.000000000000000
-5.378900315421904 -5.187992364510055 -1.568649936263504 61.000000000000000
-5.379178197943358 -5.121266811234147 -1.685385464195792 17.000000000000000
-5.536367267791838 -5.202487119839073 -1.853419877963888 6.000000000000000
-5.726802551171525 -5.310466662113159 -2.039573575647621 6.000000000000000
-5.879115446911401 -5.379531000273602 -2.218700470767299 21.000000000000000
-5.845572817772085 -5.276339868030285 -2.329476342261980 8.000000000000000
-5.766706976750218 -5.134918830824840 -2.420364279430022 9.000000000000000
-6.188892643382982 -5.434205553554460 -2.727635212120178 7.000000000000000
-4.964760638061517 -4.298914447052283 -2.292688898145618 1.000000000000000
-4.997057724720845 -4.266722713171239 -2.413398306271969 0.000000000000000
-5.015828145287703 -4.223400272646728 -2.529257233645333 1.000000000000000
-5.145929082485079 -4.269428856026727 -2.702653348352427 2.000000000000000
-5.162421369798317 -4.220474120722407 -2.820390717074865 74.000000000000000
-5.180685757272520 -4.171358029570330 -2.939770615801987 41.000000000000000
-5.209777991998870 -4.133077222021280 -3.068690592238497 39.000000000000000
-5.266866297676767 -5.592893314364608 -0.575569089277987 6.000000000000000
-5.333515058239009 -5.591994400863724 -0.707683364398570 7.000000000000000
-5.401824851840767 -5.591517513625099 -0.841201619624723 33.000000000000000
-5.476538813589221 -5.597870183875173 -0.977259447502094 25.000000000000000
-5.547362864295001 -5.598672257154813 -1.115004129501675 28.000000000000000
-5.625486012978175 -5.605184554919219 -1.255951122887330 16.000000000000000
-5.625985033149880 -5.534800373814369 -1.380732135063807 20.000000000000000
-5.647360857108176 -5.484807389339220 -1.510118952749184 6.000000000000000
-5.375821061961940 -5.154238586209134 -1.554360481419696 64.000000000000000
-5.373192178593198 -5.085045677147129 -1.669782103518954 6.000000000000000
-5.238203909807363 -4.892788235898158 -1.739890536193422 9.000000000000000
-5.713207312101341 -5.265927620510618 -2.019418853159284 6.000000000000000
-5.865912463956617 -5.334928922310818 -2.197632444038336 12.000000000000000
-5.829334833424435 -5.229632185956282 -2.306663954596471 5.000000000000000
-5.801633465139029 -5.134377860625534 -2.418402183363479 10.000000000000000
-6.393973107252400 -5.579698455013521 -2.799315819062365 7.000000000000000
-4.971425978390501 -4.278020015323317 -2.280921850892121 16.000000000000000
-4.998075200105840 -4.240999584495897 -2.398659379401877 0.000000000000000
-5.054119085116238 -4.228964407393345 -2.532852209360831 1.000000000000000
-5.167412802744472 -4.260210928670274 -2.697563302180483 2.000000000000000
-5.172488743995673 -4.201861657107303 -2.809188994669019 42.000000000000000
-5.196507893263113 -4.157362965789816 -2.931658726034374 42.000000000000000
-5.219968934498917 -4.114523590323541 -3.057200671780855 40.000000000000000
-5.313461568135544 -5.610111768012890 -0.570329829440701 21.000000000000000
-5.385972741525749 -5.614562691820577 -0.703795003646716 14.000000000000000
-5.449108399013546 -5.607921550014584 -0.837215351437169 5.000000000000000
