# This PCD file was generated using the MATLAB® pcwrite function
# from Computer Vision Toolbox®.
# .PCD v.7 - Point Cloud Data file format
VERSION .7
FIELDS x y z intensity
SIZE 8 8 8 8
TYPE F F F F
COUNT 1 1 1 1
WIDTH 629
HEIGHT 1
VIEWPOINT 0 0 0 1 0 0 0
POINTS 629
DATA ascii
-0.931092045390912 -5.150827139335171 -2.799668441744134 15.000000000000000
-0.942841537790864 -5.138047785153290 -2.910655388756550 19.000000000000000
-0.954501928844503 -5.126314117240633 -3.024336892479325 21.000000000000000
-0.790184378929239 -5.519092302200346 -1.105931646662260 8.000000000000000
-0.802889912901489 -5.520421407148592 -1.208957929481669 22.000000000000000
-0.813738557971382 -5.508449282520837 -1.308898797144507 8.000000000000000
-0.825773823456371 -5.506036543947074 -1.412513776645592 21.000000000000000
-0.836715117587119 -5.494121611000058 -1.513980031421584 13.000000000000000
-0.851588524150584 -5.510968453732568 -1.623849650521716 4.000000000000000
-0.865257711292189 -5.518007474115128 -1.732635740327143 14.000000000000000
-0.877846063272151 -5.515471996203336 -1.839389830431378 9.000000000000000
-0.887938128622429 -5.499754863592180 -1.942746077111640 9.000000000000000
-0.900432378787633 -5.496905649487965 -2.051669030779121 11.000000000000000
-0.915143174186283 -5.506830078407031 -2.166443966109410 6.000000000000000
-0.929185944187329 -5.510700056211861 -2.280810025318042 7.000000000000000
-0.941881046168925 -5.505196183912412 -2.392373522572078 6.000000000000000
-0.953350991099905 -5.490165424596217 -2.501373522354680 5.000000000000000
-0.963847190521132 -5.469593405539006 -2.608647651832026 7.000000000000000
-0.930371331132828 -5.199419034902404 -2.592664051839474 9.000000000000000
-0.937409681766825 -5.162806416700745 -2.688774626517336 18.000000000000000
-0.949471708124993 -5.148678262879950 -2.797447340133090 19.000000000000000
-0.961986800376057 -5.139320249218998 -2.910365058179097 19.000000000000000
-0.973779220526693 -5.127538096984493 -3.024091779963543 21.000000000000000
-0.807745542897518 -5.520932141291464 -1.104626375379492 15.000000000000000
-0.818884347367631 -5.510626416666974 -1.205165931134961 8.000000000000000
-0.830410254083168 -5.502524506872076 -1.305870920568244 25.000000000000000
-0.843167638100206 -5.503946262132946 -1.410382883338172 10.000000000000000
-0.858965999136342 -5.522529152799127 -1.520234576903008 5.000000000000000
-0.871093528264545 -5.520223621912121 -1.625031454802968 15.000000000000000
-0.881933299279521 -5.508315253484229 -1.728078911350670 7.000000000000000
-0.893437162152713 -5.498306080657258 -1.832183473534226 13.000000000000000
-0.906684743362462 -5.501307640382000 -1.941842687250536 8.000000000000000
-0.921188377073125 -5.509525302583974 -2.054956669648377 5.000000000000000
-0.934861553302494 -5.511971620643693 -2.167076078354287 11.000000000000000
-0.947202776106770 -5.504817054880901 -2.277020002816837 6.000000000000000
-0.957507523368601 -5.484833268349325 -2.382208924737919 6.000000000000000
-0.955698676442752 -5.394460950240648 -2.456511163454040 7.000000000000000
-0.934151038231948 -5.196448388393738 -2.477198010763430 16.000000000000000
-0.946012018859063 -5.183104492609091 -2.583391778044839 20.000000000000000
-0.956961288144678 -5.167623311768960 -2.690187800257537 20.000000000000000
-0.968494293158436 -5.149945642407666 -2.797083960907473 20.000000000000000
-0.980492070355066 -5.137103791452040 -2.908101775354489 21.000000000000000
-0.993729943716462 -5.132105434761312 -3.025821310893074 21.000000000000000
-0.822421914882487 -5.503316009807617 -1.099417614064916 11.000000000000000
-0.835408576372019 -5.504654718655780 -1.202200041134883 22.000000000000000
-0.849421623522772 -5.511950655694767 -1.306471153404452 5.000000000000000
-0.862949569707642 -5.517132396747199 -1.412150189216397 8.000000000000000
-0.875348673257939 -5.512739445705933 -1.515956629981015 14.000000000000000
-0.886997271505956 -5.506665143275737 -1.619487215192821 7.000000000000000
-0.899167064352364 -5.502350029694346 -1.724685113609606 16.000000000000000
-0.912029397650892 -5.499846695366629 -1.831205260282236 7.000000000000000
-0.926699745839120 -5.510257699156407 -1.943538955089212 6.000000000000000
-0.940139297090138 -5.510978042738167 -2.054067943015681 12.000000000000000
-0.951439820539424 -5.498677197472251 -2.160455356143844 6.000000000000000
-0.960702051113654 -5.473342346103732 -2.262647814250752 9.000000000000000
-0.934312818343632 -5.247158968576916 -2.277717786724601 8.000000000000000
-0.941166289585722 -5.208972281105703 -2.370825550313620 19.000000000000000
-0.952198143308353 -5.194236323120283 -2.474964992774239 19.000000000000000
-0.964830510769876 -5.184408888212667 -2.582903514517921 20.000000000000000
-0.975231576285884 -5.165383598361957 -2.687927018054661 19.000000000000000
-0.988196737019615 -5.154624746477287 -2.798573731733318 20.000000000000000
-0.998987828324336 -5.134835254988926 -2.905812489301855 21.000000000000000
-1.011709147611683 -5.126422580612148 -3.021511563047332 21.000000000000000
-0.839953450253018 -5.505061760481849 -1.098066124916226 14.000000000000000
-0.855491795956336 -5.521822584357505 -1.204269543719683 5.000000000000000
-0.869101471615034 -5.525166803877879 -1.307948936832967 15.000000000000000
-0.881596423961070 -5.522597774506154 -1.411922648829857 13.000000000000000
-0.892291028477807 -5.506717215562692 -1.512706920828845 8.000000000000000
-0.903441660148345 -5.496856880870732 -1.615041051469740 16.000000000000000
-0.916995527549767 -5.500107419629948 -1.722449875899246 5.000000000000000
-0.933172497084720 -5.516323659724232 -1.835185650513682 9.000000000000000
-0.944862358998758 -5.507975092616788 -1.941262862587235 11.000000000000000
-0.955243051202716 -5.490178643354629 -2.044882680542246 6.000000000000000
-0.956913085020529 -5.422881368983401 -2.129293546143699 8.000000000000000
-0.938742282370825 -5.244883331775992 -2.166902342826640 18.000000000000000
-0.947616960670978 -5.219574819931414 -2.264483339525077 18.000000000000000
-0.959758056528810 -5.210313443221551 -2.370213976904371 19.000000000000000
-0.971566707371407 -5.199095513040451 -2.476098539923264 20.000000000000000
-0.982994616357061 -5.182129002265071 -2.580628719536431 20.000000000000000
-0.993492292168259 -5.163092463329312 -2.685640571728525 19.000000000000000
-1.007262090519423 -5.155781022020014 -2.798151020581396 20.000000000000000
-1.018154021344976 -5.135945487528170 -2.905438063004973 20.000000000000000
-1.030336688359800 -5.124086017245578 -3.019179490604709 21.000000000000000
-0.860519153988289 -5.526146741777932 -1.100549396418183 6.000000000000000
-0.873243169254778 -5.523476606470969 -1.202934971275595 23.000000000000000
-0.885782089406899 -5.519091669192592 -1.304843759664307 9.000000000000000
-0.896541533168129 -5.505038314188670 -1.405798861366488 13.000000000000000
-0.909199702320821 -5.500648685406593 -1.509435636598810 15.000000000000000
-0.922368829746406 -5.502162566975075 -1.615025333699289 4.000000000000000
-0.937377339889838 -5.512887456440599 -1.724905683010222 12.000000000000000
-0.949258879028980 -5.502766862733543 -1.829163862256818 9.000000000000000
-0.958457377203958 -5.479583560627405 -1.929784303538921 7.000000000000000
-0.936758369837343 -5.280745423743094 -1.965491166644113 10.000000000000000
-0.945367862585981 -5.255285508485676 -2.062142048620820 19.000000000000000
-0.955816902950763 -5.238960079608722 -2.163149401289654 19.000000000000000
-0.966094679875327 -5.220907205519484 -2.263796152676147 17.000000000000000
-0.977691160637013 -5.208011706814356 -2.367942156408571 19.000000000000000
-0.990297277138258 -5.200338146960497 -2.475506101822419 20.000000000000000
-1.001830999603317 -5.183326461909321 -2.580084773317424 20.000000000000000
-1.013114181386468 -5.167742815366640 -2.686964430300503 19.000000000000000
-1.026342337179160 -5.156882364247129 -2.797699356298057 20.000000000000000
-1.038027518142955 -5.140429754032898 -2.906973824345735 20.000000000000000
-1.050344546939694 -5.128485222563734 -3.020819699131255 21.000000000000000
-0.877523968250773 -5.523906611460849 -1.098365801090208 25.000000000000000
-0.889141217138017 -5.513496243434436 -1.199054239649182 6.000000000000000
-0.901170565304634 -5.505282071705570 -1.299901889830823 24.000000000000000
-0.914558183182228 -5.506575840247268 -1.404543287043701 12.000000000000000
-0.928641622642841 -5.509764843473443 -1.510317882539742 4.000000000000000
-0.943277279633602 -5.518775440673831 -1.618310727005914 15.000000000000000
-0.954582440359980 -5.506771478382401 -1.721436681795325 7.000000000000000
-0.958677676066541 -5.451725813117871 -1.810690136935623 6.000000000000000
-0.941354685172151 -5.280000689872894 -1.858068909283563 19.000000000000000
-0.951637889217061 -5.263653775070972 -1.957741112605956 21.000000000000000
-0.962987220493745 -5.252971771961522 -2.059883291873879 21.000000000000000
-0.974212162042531 -5.240278414619598 -2.162382205023044 19.000000000000000
-0.984587393304947 -5.222186221820049 -2.263080804915681 18.000000000000000
-0.996300662598664 -5.209247125039002 -2.367275518392052 21.000000000000000
-1.009042739518164 -5.201526719663637 -2.474885155810452 20.000000000000000
-1.020682219764589 -5.184469572015564 -2.579512175412472 20.000000000000000
-1.031379929013635 -5.165345661647322 -2.684623556055674 19.000000000000000
-1.044735639664593 -5.154466994970726 -2.795341381830145 20.000000000000000
-1.057235499863550 -5.141427874217958 -2.906539611297751 23.000000000000000
-1.068269210279386 -5.122648101845000 -3.016434537501663 23.000000000000000
-0.892636126842472 -5.509994148157825 -1.093850644431037 7.000000000000000
-0.904981804148208 -5.503474069791667 -1.195155679102684 29.000000000000000
-0.917759919764912 -5.499119258631278 -1.296757536713660 8.000000000000000
-0.934532223787165 -5.519536309881325 -1.406183646116345 5.000000000000000
-0.948146546448998 -5.518821897265981 -1.511166103614811 15.000000000000000
-0.959020950951624 -5.505033162780983 -1.612682452411960 7.000000000000000
-0.940492165981440 -5.323655323655191 -1.662679909256521 10.000000000000000
-0.948319199166905 -5.292139390748559 -1.756213929274818 22.000000000000000
-0.958752004681432 -5.277663603099215 -1.855811813207672 21.000000000000000
-0.970492808941919 -5.268694327345266 -1.958218525290738 21.000000000000000
-0.980596805426522 -5.250608433192212 -2.057599812032975 21.000000000000000
-0.992622242300373 -5.241543563916102 -2.161586952139622 20.000000000000000
-1.002400721442100 -5.219796969796958 -2.260771635471139 18.000000000000000
-1.015623422198422 -5.214014753484217 -2.368209284402643 20.000000000000000
-1.028505426912431 -5.206217309509432 -2.475926879569760 19.000000000000000
-1.039548077198700 -5.185558251706116 -2.578910896745967 21.000000000000000
-1.051055896097601 -5.169883415017926 -2.685886627987314 20.000000000000000
-1.063118739889193 -5.151999844630343 -2.792957598286329 24.000000000000000
-1.075740732590289 -5.138944630017702 -2.904140142255247 24.000000000000000
-1.089038046783077 -5.130325151423523 -3.020010591592372 24.000000000000000
-0.910225752421346 -5.511536393373476 -1.092391717356319 25.000000000000000
-0.924644428868717 -5.516556702472454 -1.196258679620879 5.000000000000000
-0.938889035755756 -5.519799617393768 -1.299924444864873 8.000000000000000
-0.951294484618668 -5.513317644296166 -1.402922434287320 16.000000000000000
-0.958390082703603 -5.474557708816921 -1.497411881283372 5.000000000000000
-0.945797220157976 -5.328519243687858 -1.559414726103875 17.000000000000000
-0.954346125106987 -5.302471042155772 -1.654545351627683 21.000000000000000
-0.965605102831719 -5.289765594436092 -1.753944908286895 22.000000000000000
-0.975451582823514 -5.271559932635256 -1.852224091788487 20.000000000000000
-0.987308411385139 -5.262599732875285 -1.954550115077418 21.000000000000000
-0.999591546930151 -5.255530519717484 -2.058164156626935 20.000000000000000
-1.010344832142294 -5.239114644468542 -2.159263083155598 19.000000000000000
-1.020910505219439 -5.220970693850536 -2.260001494310665 18.000000000000000
-1.032142049340721 -5.204387993428957 -2.362602887460197 20.000000000000000
-1.045862671842415 -5.200186889825796 -2.471868035015333 20.000000000000000
-1.059147412888588 -5.190115920958657 -2.580032458087085 25.000000000000000
-1.070048417546226 -5.170871531865477 -2.685304449229174 26.000000000000000
-1.082944097730690 -5.156397634604066 -2.794296246828503 26.000000000000000
-1.094965004025213 -5.139833558126504 -2.903649192777376 24.000000000000000
-1.107673969065034 -5.127772256459568 -3.017567574080033 25.000000000000000
-0.927829432025887 -5.513027566639327 -1.090905859614559 4.000000000000000
-0.943075807942894 -5.521865706427863 -1.195655109406042 13.000000000000000
-0.956160138055791 -5.517374213623550 -1.297629984716383 14.000000000000000
-0.947197657472667 -5.388580963748912 -1.369529771418326 7.000000000000000
-0.950725920191868 -5.331410779369172 -1.456654841169154 21.000000000000000
-0.960852401276945 -5.314770848267003 -1.553825438513469 21.000000000000000
-0.971515834848750 -5.300063194558142 -1.652266054946448 22.000000000000000
-0.983576159549949 -5.291082406929583 -1.752890441940175 23.000000000000000
-0.994217120743689 -5.276558394851681 -1.852529034196328 22.000000000000000
-1.005499637838467 -5.263841944851641 -1.953600383376087 21.000000000000000
-1.017205648145393 -5.253064605311612 -2.055828037994297 20.000000000000000
-1.028057233817629 -5.236635823792224 -2.156914363847387 19.000000000000000
-1.040153535072929 -5.225702245897144 -2.260765503253453 18.000000000000000
-1.052216904845343 -5.212630440042924 -2.365105384691263 21.000000000000000
-1.064639281489724 -5.201214521098877 -2.471163026961034 27.000000000000000
-1.077322903376926 -5.187571999178791 -2.577622182399060 28.000000000000000
-1.089055113210622 -5.171804753756323 -2.684693380893486 26.000000000000000
-1.102808218018419 -5.160736787045450 -2.795602591411527 25.000000000000000
-1.114203286819073 -5.140666960816645 -2.903129041846010 24.000000000000000
-1.127788011413701 -5.131941729275837 -3.019084014834442 25.000000000000000
-0.948100863747310 -5.529946798065063 -1.092450988709134 20.000000000000000
-0.960203922826704 -5.519410986033472 -1.193354429262832 9.000000000000000
-0.946325181168698 -5.361388687940304 -1.259255330864945 19.000000000000000
-0.956679268647332 -5.344125047076090 -1.356579617329694 24.000000000000000
-0.968384435873718 -5.332780495139349 -1.455413266058429 23.000000000000000
-0.978608790012438 -5.316108778756702 -1.552639136611059 21.000000000000000
-0.988675481597342 -5.297606997966053 -1.649962692665921 21.000000000000000
-1.000854195788181 -5.288609542824770 -1.750571330256485 23.000000000000000
-1.012309052405367 -5.277786819959257 -1.851500112201592 21.000000000000000
-1.024422537034042 -5.268720991182853 -1.953991193093228 20.000000000000000
-1.035531568907926 -5.254213116761855 -2.054900214960026 20.000000000000000
-1.047212725288382 -5.241381771420004 -2.157535314709862 19.000000000000000
-1.058704259591303 -5.226766978753298 -2.259937220485856 23.000000000000000
-1.070148739984132 -5.210069494723385 -2.362701321467271 28.000000000000000
-1.083429994129088 -5.202187805282528 -2.470429413359384 29.000000000000000
-1.096231470903251 -5.188496908059352 -2.576934690142503 28.000000000000000
-1.107328595938774 -5.169195015840369 -2.682243514080582 26.000000000000000
-1.120457944698595 -5.154652536124371 -2.791264091050575 25.000000000000000
-1.134209505568208 -5.144865547788103 -2.904510852563945 24.000000000000000
-1.146426937733117 -5.129280401148399 -3.016585460886992 25.000000000000000
-0.963078200294428 -5.515856389208938 -1.087853240901812 6.000000000000000
-0.975956838864180 -5.509202850623863 -1.189366301587589 17.000000000000000
-0.963095659280434 -5.358936258890090 -1.256977694403636 25.000000000000000
-0.973540296183763 -5.341660192954788 -1.354290099907935 24.000000000000000
-0.985354696217229 -5.330299672659408 -1.453108916182699 23.000000000000000
-0.997087431141057 -5.321174361058025 -1.552528284405550 20.000000000000000
-1.006538753265802 -5.298860533737301 -1.648804652521146 21.000000000000000
-1.019560971656629 -5.293559523085887 -1.750699003433003 22.000000000000000
-1.030415091137163 -5.278962731280357 -1.850443520270160 21.000000000000000
-1.041195127197083 -5.262480258584976 -1.950250813383873 21.000000000000000
-1.053871561979397 -5.255308472984550 -2.053944396673848 21.000000000000000
-1.065667835585073 -5.242435168996530 -2.156629213162928 30.000000000000000
-1.077268993496255 -5.227777941985102 -2.259080632679049 30.000000000000000
-1.088817717038539 -5.211037059470272 -2.361894312599615 28.000000000000000
-1.101482744356710 -5.199557477638672 -2.467982536529823 29.000000000000000
-1.116665946319576 -5.196403498647744 -2.579711581470243 28.000000000000000
-1.127110219346932 -5.173506197207100 -2.683384463863397 26.000000000000000
-1.139598668999403 -5.155426187667590 -2.790641449044648 26.000000000000000
-1.152721069847056 -5.142166876271404 -2.902001025449137 24.000000000000000
-1.165054772880284 -5.126566582886063 -3.014060790266974 24.000000000000000
-0.979348387469238 -5.509461308528073 -1.084763949342684 23.000000000000000
-0.992346009279087 -5.502804437746200 -1.186190843746741 9.000000000000000
-0.979855954178501 -5.356436596783902 -1.254676569357629 23.000000000000000
-0.991806944136898 -5.346780656894562 -1.353909743158674 23.000000000000000
-1.003029063095816 -5.331568467955038 -1.451814853930308 24.000000000000000
-1.014163658234046 -5.318629787759731 -1.550184909961461 21.000000000000000
-1.025141972461737 -5.303818391200764 -1.648786950899901 21.000000000000000
-1.036842625424787 -5.290985734865546 -1.748328150992122 23.000000000000000
-1.048535043270024 -5.280086050481347 -1.849359230259773 21.000000000000000
-1.059416391085345 -5.263565818037939 -1.949219276911222 23.000000000000000
-1.070732081229791 -5.249029773006418 -2.050101278551261 35.000000000000000
-1.083385484860054 -5.239801313804723 -2.154201031251457 34.000000000000000
-1.095847538667855 -5.228735057216539 -2.258195711941363 30.000000000000000
-1.108260587615097 -5.215527671568099 -2.362679321669889 29.000000000000000
-1.120288747214761 -5.200423662127268 -2.467193315743781 29.000000000000000
-1.133321555320690 -5.186666019415854 -2.573728395787404 28.000000000000000
-1.145386401227189 -5.170789902707842 -2.680880037215103 26.000000000000000
-1.159528486574970 -5.159595654392993 -2.791857154653532 25.000000000000000
-1.173557636113248 -5.149667563539269 -2.905248777600949 24.000000000000000
-1.186015236635713 -5.133946440483563 -3.017473414085712 24.000000000000000
-0.996283482994127 -5.506886559642772 -1.082413802914061 6.000000000000000
-1.012938992468965 -5.519455492264725 -1.187965347324876 6.000000000000000
-0.996605900445546 -5.353889726292399 -1.252351978438100 24.000000000000000
-1.008671409618359 -5.344217192058630 -1.351569676902931 23.000000000000000
-1.019990633683068 -5.328990242762524 -1.449461313640563 24.000000000000000
-1.032694163815670 -5.323588305463705 -1.550016231512151 21.000000000000000
-1.043045061521968 -5.304966156068994 -1.647572481743125 21.000000000000000
-1.054857526602278 -5.292095354228446 -1.747165235552783 23.000000000000000
-1.066668714756176 -5.281156699783230 -1.848247214334466 34.000000000000000
-1.077651368205921 -5.264598430632967 -1.948159873516750 40.000000000000000
-1.090592980881973 -5.257339406641225 -2.051948662473861 36.000000000000000
-1.101855811476345 -5.240749397337817 -2.153240238575136 33.000000000000000
-1.113671647195118 -5.226034085200727 -2.255726757068309 29.000000000000000
-1.125424354857098 -5.209234399550800 -2.358576051780205 29.000000000000000
-1.139108259358458 -5.201235299692661 -2.466375423712365 30.000000000000000
-1.153039375901943 -5.190942833922560 -2.574699340227453 28.000000000000000
-1.165219595026188 -5.174987120227278 -2.681959656827224 26.000000000000000
-1.177920380395421 -5.156807155584429 -2.789308792077768 26.000000000000000
-1.191292444619755 -5.143443754883401 -2.900755875930071 25.000000000000000
-1.204657179786926 -5.131122141202965 -3.014891482498915 24.000000000000000
-1.167018192691113 -4.834739297043232 -3.076112557686062 7.000000000000000
-1.016052041808921 -5.519714671892276 -1.083071645475525 7.000000000000000
-1.030767365297109 -5.520651423382072 -1.186392220198679 19.000000000000000
-1.014796077695166 -5.358956797351809 -1.251793499268692 24.000000000000000
-1.025525292152921 -5.341606221449934 -1.349206007295409 24.000000000000000
-1.037680122752067 -5.330157944982784 -1.448114720725589 23.000000000000000
-1.049773376454462 -5.320943810530397 -1.547621666708518 21.000000000000000
-1.060961685560663 -5.306061808435661 -1.646330582487234 22.000000000000000
-1.072885961128063 -5.293152552786912 -1.745974732732325 42.000000000000000
-1.084054636847607 -5.278467812768731 -1.845811229214325 42.000000000000000
-1.095899863146901 -5.265578019072233 -1.947072575693555 39.000000000000000
-1.107431629797988 -5.250961512057135 -2.048056245374529 35.000000000000000
-1.120339597046169 -5.241643811666833 -2.152251225787831 33.000000000000000
-1.132264934230525 -5.226885168939393 -2.254786807978386 28.000000000000000
-1.144121747800169 -5.210041234097685 -2.357685255756707 29.000000000000000
-1.157941079724784 -5.201992313291067 -2.465528833403989 28.000000000000000
-1.170416142176138 -5.184623049673822 -2.570413563402677 28.000000000000000
-1.184294126205234 -5.175644693754499 -2.681203727180514 26.000000000000000
-1.197901160265784 -5.160861787882744 -2.790462760297229 25.000000000000000
-1.211401032022057 -5.147411766746242 -2.902013722086481 24.000000000000000
-1.224093312214773 -5.131623620645947 -3.014267834652331 24.000000000000000
-1.184907942930620 -4.831979152893484 -3.073609381945385 7.000000000000000
-1.033013188865998 -5.517037044227165 -1.080667388355035 14.000000000000000
-1.045687756163169 -5.506414342213495 -1.181491518579779 9.000000000000000
-1.031548780397564 -5.356311804703275 -1.249418650595803 24.000000000000000
-1.043856460268080 -5.346569395064455 -1.348741411137332 24.000000000000000
-1.055382931857743 -5.331274085039090 -1.446740991792921 24.000000000000000
-1.067598326283489 -5.322023010279874 -1.546299095184454 28.000000000000000
-1.079654119645311 -5.310855876261813 -1.646223813309807 45.000000000000000
-1.090159476397088 -5.290428974202490 -1.743527913438849 45.000000000000000
-1.102976437716246 -5.283139680355543 -1.845939894930359 42.000000000000000
-1.114940269695191 -5.270184803268558 -1.947317214633804 40.000000000000000
-1.125801455278624 -5.251847325250133 -2.046991635438590 34.000000000000000
-1.138836643497015 -5.242484480059938 -2.151233965834293 32.000000000000000
-1.150871443720944 -5.227682207566360 -2.253818461349929 29.000000000000000
-1.164426331366619 -5.217936705704889 -2.359996579251268 30.000000000000000
-1.175985926545057 -5.199152969119070 -2.462975741713325 23.000000000000000
-1.190172535426582 -5.188787995585895 -2.571325042226278 28.000000000000000
-1.202572890531408 -5.172768246396505 -2.678617388137205 26.000000000000000
-1.217106901478606 -5.161411367410165 -2.789721757943302 25.000000000000000
-1.229915768080879 -5.144496984531338 -2.899393381308235 23.000000000000000
-1.244360245358970 -5.135445118085114 -3.015597290572124 24.000000000000000
-1.176827384656561 -4.659149377754456 -3.080368221900211 8.000000000000000
-1.049963341981111 -5.514311630259503 -1.078239409816132 9.000000000000000
-1.063494138691143 -5.507513930040878 -1.179870555347185 16.000000000000000
-1.048290623311186 -5.353619613000546 -1.247020372076467 23.000000000000000
-1.061468738718907 -5.347668508572105 -1.347286769455073 24.000000000000000
-1.073098870349941 -5.332338587339574 -1.445340099915267 40.000000000000000
-1.085436414231724 -5.323050234410252 -1.544949187709659 47.000000000000000
-1.097609368902433 -5.311845126030861 -1.644925235492421 45.000000000000000
-1.108202231200062 -5.291383055622133 -1.742283895763884 44.000000000000000
-1.121150099219782 -5.284051858854161 -1.844744537316581 41.000000000000000
-1.134018238364795 -5.274734490024112 -1.947530409212158 39.000000000000000
-1.144980062999482 -5.256332433264665 -2.047321666554544 33.000000000000000
-1.156546374269680 -5.239645274260591 -2.148701441355293 33.000000000000000
-1.168686095932213 -5.224826759427245 -2.251271228250321 28.000000000000000
-1.182365151570207 -5.215061355113657 -2.357431591956059 28.000000000000000
-1.195645839004285 -5.203342163294601 -2.463749451415949 22.000000000000000
-1.209148795031095 -5.189385226384657 -2.570466137426346 28.000000000000000
-1.220839839225883 -5.169840301239991 -2.676005483296651 26.000000000000000
-1.236325305392680 -5.161905188215701 -2.788951517527246 25.000000000000000
-1.250074259238379 -5.148349044960102 -2.900588984611235 24.000000000000000
-1.263833789220947 -5.135831872455308 -3.014912789965180 24.000000000000000
-1.173769490504583 -4.510026221086877 -3.097925865521874 30.000000000000000
-1.065409118560270 -5.503824617200291 -1.074282082689972 11.000000000000000
-1.083575263205993 -5.520085725118434 -1.180687188171261 5.000000000000000
-1.065782714568345 -5.354705038127413 -1.245488321896365 26.000000000000000
-1.078325894355997 -5.344909281349991 -1.344847217976844 45.000000000000000
-1.090053011594909 -5.329563485237074 -1.442886512772413 48.000000000000000
-1.104068260133130 -5.327793295475560 -1.544664325234540 48.000000000000000
-1.115577566450673 -5.312782001356484 -1.643599129743803 45.000000000000000
-1.127050526572260 -5.296008860594082 -1.742237429015391 44.000000000000000
-1.139336700139986 -5.284911061912909 -1.843521345519138 41.000000000000000
-1.150724495160921 -5.268197874890602 -1.943643045220696 38.000000000000000
-1.164196039435673 -5.260759998558210 -2.047620037832247 35.000000000000000
-1.175057098955865 -5.240380222241082 -2.147629376903270 33.000000000000000
-1.188123331684794 -5.229113845587475 -2.251796469175576 29.000000000000000
-1.201935301797330 -5.219270484741526 -2.358065125775647 29.000000000000000
-1.214517373928925 -5.203934848499262 -2.462816607260832 20.000000000000000
-1.228967505305189 -5.193433991801403 -2.571314497237880 28.000000000000000
-1.241594646995193 -5.177284950842008 -2.678761518003749 25.000000000000000
-1.256393203834661 -5.165784737719425 -2.790010781503026 25.000000000000000
-1.268589391242040 -5.145325962517249 -2.897913334776268 23.000000000000000
-1.282476964366152 -5.132789702383104 -3.012219564869095 24.000000000000000
-1.251215260190511 -4.872884099913222 -3.097406160237838 4.000000000000000
-1.183122623983491 -4.478256265666488 -3.075555506837304 8.000000000000000
-1.087622264641385 -5.527992280494326 -1.077067851275625 4.000000000000000
-1.102208270898155 -5.524914742809156 -1.179826263588729 23.000000000000000
-1.082514293435289 -5.351916536707671 -1.243041507200484 51.000000000000000
-1.095951815119373 -5.345907469092054 -1.343340221553106 51.000000000000000
-1.107782593646666 -5.330526493751026 -1.441432976115044 49.000000000000000
-1.121151235194564 -5.324948455534220 -1.542167258673788 46.000000000000000
-1.132759675318675 -5.309921771756437 -1.641088143823761 45.000000000000000
-1.144326424160391 -5.293133299714051 -1.739712880456579 42.000000000000000
-1.156726012345173 -5.282018322165101 -1.840981090798110 41.000000000000000
-1.169025099796092 -5.268964604956467 -1.942443900801942 37.000000000000000
-1.181808899974220 -5.257832365409501 -2.045048298010112 35.000000000000000
-1.194405361827937 -5.244683250837197 -2.148012437120525 32.000000000000000
-1.205938916014829 -5.226153965741046 -2.249195869018549 28.000000000000000
-1.220708726041552 -5.219855474860964 -2.357056432869189 29.000000000000000
-1.234239317669378 -5.208008254490593 -2.463527415694185 19.000000000000000
-1.247981086798638 -5.193918762942086 -2.570395901597853 27.000000000000000
-1.261565334554953 -5.181193281893651 -2.679685258068446 24.000000000000000
-1.274799278488915 -5.162725255463409 -2.787323220612282 25.000000000000000
-1.289649306136653 -5.152467099470951 -2.900963883961785 24.000000000000000
-1.303672307874804 -5.139806092871059 -3.015432281011451 24.000000000000000
-1.302066424786747 -5.068175781832194 -3.095903304351203 23.000000000000000
-1.270960216512480 -4.876486451844835 -3.098966926738059 4.000000000000000
-1.178197668895702 -4.337017062552788 -3.093552852649317 33.000000000000000
-1.105367912685513 -5.528966572151973 -1.075309453892844 20.000000000000000
-1.116988001238014 -5.510500521207186 -1.174843738914083 8.000000000000000
-1.100804844032087 -5.356722427782509 -1.242343562404277 52.000000000000000
-1.112006224109697 -5.339248350455245 -1.339897462383682 50.000000000000000
-1.126323550141199 -5.335221520009468 -1.440974181873216 48.000000000000000
-1.139027582649401 -5.325819303770525 -1.540735184757297 46.000000000000000
-1.151552031019911 -5.314498330075016 -1.640864229448551 45.000000000000000
-1.162407472699169 -5.293929313085016 -1.738385830439360 43.000000000000000
-1.174925734869545 -5.282773409999860 -1.839703947960027 41.000000000000000
-1.188165653016598 -5.273350182241422 -1.942569493337625 37.000000000000000
-1.200242171451144 -5.258501770231660 -2.043869335926527 33.000000000000000
-1.212953463648975 -5.245308179554010 -2.146881924216083 30.000000000000000
-1.225425710627437 -5.230328397203498 -2.249660571095099 30.000000000000000
-1.238648435955209 -5.216822362906123 -2.354410857515800 28.000000000000000
-1.252297741615116 -5.204955365665318 -2.460864483830327 18.000000000000000
-1.267861234105003 -5.197850772841314 -2.571180902683955 27.000000000000000
-1.279857054434572 -5.178100654726963 -2.676987771681123 24.000000000000000
-1.294054435342329 -5.163051354283806 -2.786465113974873 25.000000000000000
-1.308176283366003 -5.149333488532528 -2.898231087321391 24.000000000000000
-1.322327131359613 -5.136652683127269 -3.012681558112586 25.000000000000000
-1.281538150119709 -4.915088866936872 -3.001593143632391 31.000000000000000
-1.281154885971503 -4.843783763237176 -3.077466655083568 11.000000000000000
-1.189466316191025 -4.315165047171199 -3.077522461058397 8.000000000000000
-1.119214912527488 -5.510634451587352 -1.069785922768969 8.000000000000000
-1.133264089744246 -5.503721060906507 -1.171480681287700 22.000000000000000
-1.119131605430582 -5.361472958714350 -1.241615142748011 51.000000000000000
-1.130437084427327 -5.343948336133279 -1.339292417244942 49.000000000000000
-1.143279256003295 -5.332296955450172 -1.438444201799075 49.000000000000000
-1.156099265824754 -5.322876128961524 -1.538188611091322 45.000000000000000
-1.169557909429829 -5.315277635560936 -1.639455383167186 45.000000000000000
-1.180500895590273 -5.294672488739192 -1.737031051103837 43.000000000000000
-1.193972178470006 -5.287170071425335 -1.839684503621153 41.000000000000000
-1.206503315658582 -5.274007936199951 -1.941312452493098 37.000000000000000
-1.216998643734698 -5.251828224856621 -2.039831021861188 33.000000000000000
-1.231513830435405 -5.245878987227503 -2.145723033574290 31.000000000000000
-1.243241457839257 -5.227263926186695 -2.247006569526883 27.000000000000000
-1.258292443330651 -5.220861284945957 -2.354952986878811 29.000000000000000
-1.272068587569390 -5.208914517383315 -2.461513977029698 17.000000000000000
-1.285178073977807 -5.191221676925270 -2.566740894439459 27.000000000000000
-1.299006260572734 -5.178424945125561 -2.676057141148931 24.000000000000000
-1.314195230264031 -5.166756742720521 -2.787431014088653 24.000000000000000
-1.328444238116793 -5.152950237112182 -2.899299874117852 24.000000000000000
-1.341848453103259 -5.136812892725106 -3.011878489255090 24.000000000000000
-1.291616088648723 -4.882024344677476 -2.980614395979497 8.000000000000000
-1.289350333448101 -4.804481943900895 -3.051790452892783 23.000000000000000
-1.186295192713640 -4.181081640902263 -3.095828811135162 40.000000000000000
-1.136925173607441 -5.511515194209732 -1.067981935059276 22.000000000000000
-1.154314126362647 -5.519897238085252 -1.172984816039166 4.000000000000000
-1.135876305194205 -5.358534715782649 -1.239091085857096 50.000000000000000
-1.148088086333068 -5.344793786776546 -1.337705917926248 49.000000000000000
-1.161868805230487 -5.336883925198209 -1.437927275071046 48.000000000000000
-1.175646272524983 -5.331163743787255 -1.538873932077082 45.000000000000000
-1.187575958912853 -5.316004270792269 -1.638018905486309 45.000000000000000
-1.199447624482386 -5.299078797466649 -1.736866515988772 42.000000000000000
-1.211362059936014 -5.284124019144351 -1.837065951469712 42.000000000000000
-1.224853109343873 -5.274612106341854 -1.940027316344435 37.000000000000000
-1.237145426378778 -5.259679087835202 -2.041426728290569 33.000000000000000
-1.250086261908352 -5.246395600556502 -2.144535740026122 31.000000000000000
-1.261910872048208 -5.227737254973345 -2.245869128860870 27.000000000000000
-1.276231777845651 -5.217722802038800 -2.352253644975665 29.000000000000000
-1.291875809232386 -5.212814238748264 -2.462130907531832 16.000000000000000
-1.305094284109473 -5.195040646903410 -2.567465985481833 27.000000000000000
-1.318167193855242 -5.178693430853393 -2.675097306319848 24.000000000000000
-1.333486093399638 -5.166968519383277 -2.786512364661598 24.000000000000000
-1.346970000580135 -5.149707947261211 -2.896511673626030 24.000000000000000
-1.362272736306201 -5.140280343086287 -3.013017588132793 24.000000000000000
-1.317540334348522 -4.908852068038209 -2.996207409623337 6.000000000000000
-1.290994026039664 -4.742140386201672 -3.011500453641830 29.000000000000000
-1.290959129193144 -4.677477894688685 -3.088709936438122 16.000000000000000
-1.196077387602469 -4.156348552601791 -3.077178836556474 7.000000000000000
-1.157064313036926 -5.523884185455640 -1.068382740954509 4.000000000000000
-1.173030312520522 -5.524510770233038 -1.172008803502423 23.000000000000000
-1.154251006395875 -5.363178259673301 -1.238305119589578 48.000000000000000
-1.168234910110696 -5.356977259819365 -1.338939069777585 48.000000000000000
-1.178824634302973 -5.333859523388104 -1.435346322781539 47.000000000000000
-1.192730051939425 -5.328117918292993 -1.536274217698689 44.000000000000000
-1.203911527502701 -5.309205671068185 -1.634254624054510 45.000000000000000
-1.217577323892701 -5.299713919488458 -1.735454358928108 42.000000000000000
-1.230456926361712 -5.288409840903753 -1.836986964298013 40.000000000000000
-1.243214835599273 -5.275162619912823 -1.938714059891336 36.000000000000000
-1.256483948865243 -5.263827122237219 -2.041574910074042 34.000000000000000
-1.267796817375358 -5.243244408285689 -2.141843903003618 30.000000000000000
-1.281470434207226 -5.231741893281104 -2.246242704682687 28.000000000000000
-1.295923969108902 -5.221647713128942 -2.352734627250662 28.000000000000000
-1.309945384603751 -5.209600054508652 -2.459384955922674 15.000000000000000
-1.324155484541795 -5.195303555834552 -2.566431221656008 27.000000000000000
-1.337339647983705 -5.178906039919867 -2.674108243062039 24.000000000000000
-1.352788371424485 -5.167124063529849 -2.785564311630492 24.000000000000000
-1.367285253482189 -5.153207381951582 -2.897517681431793 23.000000000000000
-1.381828898733705 -5.140324676263984 -3.012153236011733 23.000000000000000
-1.342765930186274 -4.932264524138083 -3.009712664135884 6.000000000000000
-1.295819278747498 -4.692981430346644 -2.979604284338422 7.000000000000000
-1.298418049012269 -4.638617506725270 -3.062450358177421 20.000000000000000
-1.175650580664352 -5.528499212132437 -1.067261061612665 27.000000000000000
-1.190130954637516 -5.521409535465602 -1.169379772564553 8.000000000000000
-1.171828432004441 -5.363953658554288 -1.236609588685158 48.000000000000000
-1.184265734841591 -5.350123859400799 -1.335398576586928 47.000000000000000
-1.197461971308809 -5.338338011907560 -1.434771095991294 45.000000000000000
-1.210654703870161 -5.328779238300315 -1.534732229887867 44.000000000000000
-1.223647789913597 -5.317299240842089 -1.635062955845952 44.000000000000000
-1.235718800704751 -5.300295951590069 -1.734014380316015 41.000000000000000
-1.248717036924272 -5.288949636417171 -1.835596226063277 40.000000000000000
-1.261588295593539 -5.275659404730549 -1.937372658447387 37.000000000000000
-1.274096301045677 -5.260640596679212 -2.038871042570450 34.000000000000000
-1.287266515999142 -5.247265953861336 -2.142075845117330 31.000000000000000
-1.299284979187729 -5.228520246267636 -2.243508541821616 28.000000000000000
-1.314757152616070 -5.221958478057952 -2.351582293495927 28.000000000000000
-1.331598458803159 -5.220434687402721 -2.463266777893841 12.000000000000000
-1.344131390709834 -5.199004773582520 -2.567092551657344 26.000000000000000
-1.356523416304434 -5.179062700928486 -2.673089927568672 23.000000000000000
-1.372101856441858 -5.167223304047400 -2.784586831409333 24.000000000000000
-1.386722520427164 -5.153251028876333 -2.896582207486117 23.000000000000000
-1.401396054117416 -5.140312016299013 -3.011259117810375 23.000000000000000
-1.364503051741327 -4.942296408561599 -3.015052508947020 5.000000000000000
-1.323297259410289 -4.725997240318387 -2.999889739263796 3.000000000000000
-1.296377059401422 -4.567271960289846 -3.014765224790793 33.000000000000000
-1.299088717687082 -4.512066137393936 -3.095642691810718 13.000000000000000
-1.190954220748034 -5.517688146908077 -1.063147006557683 8.000000000000000
-1.205544730320583 -5.510606468237892 -1.165108688239418 25.000000000000000
-1.189417419467191 -5.364677461816171 -1.234887012219988 48.000000000000000
-1.201964040363083 -5.350811723031319 -1.333728739416179 46.000000000000000
-1.214417185473341 -5.335213621340508 -1.432139139291185 45.000000000000000
-1.228590945924760 -5.329387996571096 -1.533162701605943 43.000000000000000
-1.240829810700022 -5.314135595449669 -1.632397088349809 43.000000000000000
-1.253871858008872 -5.300824822241317 -1.732546555681456 41.000000000000000
-1.266988707915320 -5.289435943478308 -1.834177476106065 39.000000000000000
-1.279085036641860 -5.272440971844542 -1.934659574047553 36.000000000000000
-1.292589095853524 -5.261040242708082 -2.037550734064468 33.000000000000000
-1.306772061394646 -5.251228641974185 -2.142275549332613 31.000000000000000
-1.319794732647395 -5.235992545655970 -2.245356970619886 28.000000000000000
-1.332694466427810 -5.218661654888619 -2.348802246028360 29.000000000000000
-1.349690749292249 -5.217109677055909 -2.460462862724109 12.000000000000000
-1.362311854340323 -5.195662364686704 -2.564274362017839 27.000000000000000
-1.376637275305553 -5.182623038030193 -2.673827267778906 24.000000000000000
-1.392349036715213 -5.170692739500607 -2.785425776005154 24.000000000000000
-1.407096402423126 -5.156630485026366 -2.897523383026382 23.000000000000000
-1.420973991820569 -5.140242293281694 -3.010335210724491 22.000000000000000
-1.382605225298281 -4.938973742752241 -3.012249186136799 4.000000000000000
-1.381798767238773 -4.867296109742136 -3.088890536575628 3.000000000000000
-1.305023947379784 -4.534925367665186 -2.992842863645211 7.000000000000000
-1.299255054085688 -4.451216826936001 -3.053409416379432 36.000000000000000
-1.224668751964837 -4.027154391638084 -3.093927916721880 81.000000000000000
-1.206198138479346 -5.506838084261419 -1.059016696967982 27.000000000000000
-1.224294573959654 -5.515062459918004 -1.164050196244184 4.000000000000000
-1.206161128646043 -5.361541686104435 -1.232262179857722 49.000000000000000
-1.219673737558943 -5.351447616182559 -1.332031675735604 46.000000000000000
-1.233101501520956 -5.339583208534100 -1.431505447452939 44.000000000000000
-1.246538582998153 -5.329944122355891 -1.531565608670049 43.000000000000000
-1.259765958097503 -5.318382666561838 -1.631996183461613 42.000000000000000
-1.271146762669091 -5.297593257361138 -1.729840335787585 40.000000000000000
-1.285271740905402 -5.289868691075024 -1.832730690312737 40.000000000000000
-1.299270014716899 -5.280150650305133 -1.935946935982450 36.000000000000000
-1.310187743870937 -5.257752167895808 -2.034795866124492 33.000000000000000
-1.326313224931468 -5.255132298521984 -2.142442940757805 31.000000000000000
-1.336704776627031 -5.229084538096496 -2.241033519067184 27.000000000000000
-1.352457342619755 -5.222414752815243 -2.349191198257736 28.000000000000000
-1.368693206160910 -5.217254069294590 -2.459293167525580 10.000000000000000
-1.381406611448285 -5.195758123206136 -2.563152219237951 26.000000000000000
-1.395855258110916 -5.182665311315950 -2.672748467268566 23.000000000000000
-1.411696512462658 -5.170676882066282 -2.784387461896438 23.000000000000000
-1.426567439912532 -5.156558362797184 -2.896526746026668 23.000000000000000
-1.440562500859264 -5.140115437909424 -3.009381492280983 23.000000000000000
-1.400694027907894 -4.935600037653447 -3.009420626715126 4.000000000000000
-1.403574775237370 -4.877065920425690 -3.094404927952979 3.000000000000000
-1.330473147681420 -4.560962083501067 -3.009458767978771 3.000000000000000
-1.306558712382087 -4.416038150122848 -3.028804283501666 35.000000000000000
-1.303106072403275 -4.348180854206145 -3.098589005205567 14.000000000000000
-1.241277090061139 -4.027320687344340 -3.093849263777674 65.000000000000000
-1.225646822456553 -5.515139021895017 -1.058553463823644 3.000000000000000
-1.244800645922596 -5.527106048443275 -1.164571200559434 10.000000000000000
-1.223760781743559 -5.362164348652387 -1.230487320986171 49.000000000000000
-1.238270354973537 -5.355819177010813 -1.331248838931672 43.000000000000000
-1.250938168246745 -5.340127296883347 -1.429831511858946 42.000000000000000
-1.264497419635415 -5.330447545468791 -1.529940927206384 42.000000000000000
-1.276050978994797 -5.311390290637089 -1.628136075250618 43.000000000000000
-1.289310309090052 -5.298017888300814 -1.728318657574088 40.000000000000000
-1.303565937113648 -5.290247808768178 -1.831255844883647 38.000000000000000
-1.316777084371331 -5.276826673450196 -1.933179342026777 35.000000000000000
-1.329608397458328 -5.261676962813346 -2.034825065799914 33.000000000000000
-1.344044828857254 -5.251767734652601 -2.139640894936337 30.000000000000000
-1.357285517572404 -5.236438098699618 -2.242816992595548 28.000000000000000
-1.372255546697725 -5.226108056561511 -2.349547466151769 27.000000000000000
-1.388642245215532 -5.220860955506481 -2.459751938320349 10.000000000000000
-1.400512141272644 -5.195798024511298 -2.562000903714206 26.000000000000000
-1.415083923883308 -5.182651391510458 -2.671640328046000 23.000000000000000
-1.430107469216806 -5.167182501690657 -2.781477596658328 23.000000000000000
-1.446999039968139 -5.159817286650778 -2.897402862342599 22.000000000000000
-1.462066342337771 -5.146637097576067 -3.012322790880293 22.000000000000000
-1.420677511412260 -4.938809052623604 -3.010610660695039 3.000000000000000
-1.423521043661126 -4.880207161116528 -3.095717994721241 3.000000000000000
-1.309767152734325 -4.368048427855729 -2.995429674942365 7.000000000000000
-1.307181912522525 -4.303935837548453 -3.066683510543606 30.000000000000000
-1.258859375110742 -4.030517379574364 -3.096110257507764 66.000000000000000
-1.246882628518560 -5.531050045720033 -1.059524941867376 12.000000000000000
-1.262770257611485 -5.527623073008472 -1.162642868311761 14.000000000000000
-1.241371429885823 -5.362735240078217 -1.228685361631061 47.000000000000000
-1.254238891841704 -5.348777806663197 -1.327616200992945 44.000000000000000
-1.267891071994192 -5.336852648497873 -1.427122993220506 42.000000000000000
-1.282467260033894 -5.330898196288782 -1.528288633650784 42.000000000000000
-1.295021378668819 -5.315529015561125 -1.627677767102103 43.000000000000000
-1.308398538491873 -5.302091758724171 -1.727975765611762 41.000000000000000
-1.321871097409933 -5.290573226692977 -1.829752916333706 39.000000000000000
-1.335195483922577 -5.277107832920221 -1.931725120053267 36.000000000000000
-1.348134502017520 -5.261913896561448 -2.033419659008808 31.000000000000000
-1.363632218085968 -5.255557495574227 -2.139747317911980 29.000000000000000
-1.376047204562648 -5.236578477919141 -2.241503944990811 27.000000000000000
-1.391145057219759 -5.226195805981902 -2.348277842869153 27.000000000000000
-1.407678363635355 -5.220891717193414 -2.458522178442593 11.000000000000000
-1.419628236811772 -5.195781999390282 -2.560820392776234 26.000000000000000
-1.434323064449694 -5.182581209630253 -2.670502827629106 23.000000000000000
-1.450422970684025 -5.170475455187991 -2.782222272466859 24.000000000000000
-1.464578426143551 -5.152857815082323 -2.892543927275765 22.000000000000000
-1.481699683748916 -5.146391085992979 -3.011305503795717 21.000000000000000
-1.438763329242660 -4.935328694581712 -3.007727839892593 3.000000000000000
-1.443502115115930 -4.883288210932372 -3.096998206751941 3.000000000000000
-1.331098824918903 -4.380877918447920 -3.003774389323361 3.000000000000000
-1.308987024409544 -4.253384281771769 -3.030302150199597 30.000000000000000
-1.274530339009843 -4.027507152374422 -3.093615126759681 64.000000000000000
-1.263840719846694 -5.527723438618120 -1.056789582182400 13.000000000000000
-1.278096800920409 -5.516634024380219 -1.158282180009479 21.000000000000000
-1.258992880545903 -5.363254291798803 -1.226856278557697 47.000000000000000
-1.272869246818999 -5.353042776655477 -1.326776888477885 43.000000000000000
-1.285737605935989 -5.337294146994543 -1.425396084300706 41.000000000000000
-1.300447908045304 -5.331296005761104 -1.526608704749286 42.000000000000000
-1.313107110470512 -5.315887316746355 -1.626049123515964 42.000000000000000
-1.326595941635740 -5.302407279659133 -1.726396318419792 39.000000000000000
-1.341118354507644 -5.294521626690015 -1.829492362300107 38.000000000000000
-1.354561382202071 -5.280987046240528 -1.931578442436795 34.000000000000000
-1.367613189370789 -5.265722984504255 -2.033386243369085 32.000000000000000
-1.380414194904249 -5.248488416378095 -2.135427356210419 29.000000000000000
-1.394819482779664 -5.236663833234426 -2.240162161128695 26.000000000000000
-1.410045082573945 -5.226228180064465 -2.346979308602680 26.000000000000000
-1.426724899507749 -5.220866699952535 -2.457263307513326 11.000000000000000
-1.438754690719038 -5.195709979229183 -2.559610664080038 26.000000000000000
-1.453572471292970 -5.182454697293178 -2.669335943863777 23.000000000000000
-1.469801533992556 -5.170289748977245 -2.781095352966874 22.000000000000000
-1.485042497969581 -5.156000420073278 -2.893358679360103 21.000000000000000
-1.501342942737664 -5.146087669202998 -3.010258306054261 21.000000000000000
-1.460748815849980 -4.945045946205501 -3.012891881052061 3.000000000000000
-1.462536845697056 -4.883033892956684 -3.096168919037656 3.000000000000000
-1.390929296847564 -4.518347603513232 -3.097572376070876 12.000000000000000
-1.313372078302244 -4.212329982628345 -3.000704234240077 8.000000000000000
-1.312729359396256 -4.151115390016116 -3.071248385876734 27.000000000000000
-1.293146145509638 -4.033676074378817 -3.098182430609513 77.000000000000000
-1.277232728654468 -5.509024869997649 -1.051106815980773 26.000000000000000
-1.293362736353695 -5.505606160639192 -1.153905384398328 9.000000000000000
-1.278433191480391 -5.371318774932450 -1.226735176384627 46.000000000000000
-1.290622576616430 -5.353470094580223 -1.324970683133471 43.000000000000000
-1.305432110334626 -5.345206270631791 -1.425648248940063 43.000000000000000
-1.318439167177849 -5.331640905398604 -1.524901117558685 40.000000000000000
-1.331203451229571 -5.316192417016481 -1.624392673183103 41.000000000000000
-1.344803935468103 -5.302669290044967 -1.724788907537240 39.000000000000000
-1.359456924173784 -5.294737035746332 -1.827931233283164 38.000000000000000
-1.373013153751363 -5.281157568826191 -1.930065701694008 32.000000000000000
-1.386172617753836 -5.265848686591003 -2.031922017134832 32.000000000000000
-1.400034819009754 -5.252166279772013 -2.135474625273298 29.000000000000000
-1.414565748594371 -5.240263758065773 -2.240317720504400 26.000000000000000
