# This PCD file was generated using the MATLAB® pcwrite function
# from Computer Vision Toolbox®.
# .PCD v.7 - Point Cloud Data file format
VERSION .7
FIELDS x y z intensity
SIZE 8 8 8 8
TYPE F F F F
COUNT 1 1 1 1
WIDTH 635
HEIGHT 1
VIEWPOINT 0 0 0 1 0 0 0
POINTS 635
DATA ascii
0.900478601457395 -4.563477072125599 -2.279520848884979 65.000000000000000
0.903677596636755 -4.565397447092959 -2.381700432760997 21.000000000000000
0.920885738097738 -4.634207532099266 -2.522464272651372 3.000000000000000
0.910001078348455 -4.746971172459550 -2.064872568766089 31.000000000000000
0.895836593768407 -4.656738048196940 -2.123836987092082 36.000000000000000
0.887485569944239 -4.597911680223843 -2.195714358472408 118.000000000000000
0.885155860244116 -4.569886341452492 -2.281774294114441 65.000000000000000
0.886162622096972 -4.561316234724319 -2.378552083524466 20.000000000000000
0.902984977682735 -4.630262082337880 -2.519205267330036 3.000000000000000
0.894469046086188 -4.753458727463713 -2.066919265934867 31.000000000000000
0.879115126285527 -4.655994488471324 -2.122671881865078 33.000000000000000
0.871503246601028 -4.600744209925376 -2.196182780645087 120.000000000000000
0.867787834265910 -4.565670329013411 -2.278722168555583 62.000000000000000
0.870688413997628 -4.567673544352676 -2.380847764547529 20.000000000000000
0.887113754837303 -4.636657791769635 -2.521574450219625 4.000000000000000
0.877567980960369 -4.752671458178666 -2.065798743684152 28.000000000000000
0.863074764847855 -4.658791066597773 -2.123118401802313 34.000000000000000
0.854850770878895 -4.599971802128509 -2.194929060163533 130.000000000000000
0.852435526354231 -4.571992463617716 -2.280929325084840 68.000000000000000
0.855180870936332 -4.573990137644683 -2.383120621939594 20.000000000000000
0.869907705649111 -4.636076644517861 -2.520150378411635 3.000000000000000
0.861338656857686 -4.755453729231987 -2.066226402729430 28.000000000000000
0.847678594634761 -4.665134218539733 -2.125177574511766 32.000000000000000
0.839513248211232 -4.606275478393527 -2.197049777139406 90.000000000000000
0.836404231139068 -4.574741554604638 -2.281352158415310 57.000000000000000
0.838356279518855 -4.573262418584196 -2.381723241553632 19.000000000000000
0.853994299492869 -4.642384350326994 -2.522472057381948 3.000000000000000
0.845744180825549 -4.761811865359898 -2.068203215237180 28.000000000000000
0.830969086755238 -4.664249935108847 -2.123941364467080 35.000000000000000
0.822232097881582 -4.601845045534621 -2.194049350881086 140.000000000000000
0.819731244856297 -4.573911206312159 -2.279989684840348 65.000000000000000
0.822177724062243 -4.575989189509974 -2.382125674170799 19.000000000000000
0.838047651070135 -4.648650048442702 -2.524770259181911 3.000000000000000
0.828855258717855 -4.760882390426960 -2.067010842888408 28.000000000000000
0.814904086970379 -4.666912171616644 -2.124317799072303 34.000000000000000
0.806865990833056 -4.608061566591672 -2.196123828780540 135.000000000000000
0.803074995943758 -4.573031991827749 -2.278603289870763 63.000000000000000
0.804756766482199 -4.571659066576529 -2.378856011991845 18.000000000000000
0.820840938161210 -4.647926035070702 -2.523273216825832 3.000000000000000
0.813219923471487 -4.767153939110914 -2.068940955389574 30.000000000000000
0.798215759055890 -4.665932094033192 -2.123033983681339 37.000000000000000
0.790243006002779 -4.607100239316844 -2.194775472878802 136.000000000000000
0.788261750054116 -4.582720329182069 -2.282480623773837 62.000000000000000
0.789191690501619 -4.577799372181969 -2.381035359605890 18.000000000000000
0.804251951711156 -4.650627481109530 -2.523637618620715 3.000000000000000
0.795733886893578 -4.762502507671083 -2.066127161061459 35.000000000000000
0.782750558697312 -4.672102117761019 -2.125000556252173 35.000000000000000
0.774236829131731 -4.609660871355998 -2.195103638442956 122.000000000000000
0.772198585820425 -4.585290333749757 -2.282810088307384 60.000000000000000
0.773001682714511 -4.580388639567218 -2.381366899292105 18.000000000000000
0.788243660532048 -4.656760416930980 -2.525864278011756 3.000000000000000
0.781851675064901 -4.779572690774063 -2.072731736574946 23.000000000000000
0.766662347551439 -4.674629776174926 -2.125306872088284 25.000000000000000
0.758810423482842 -4.615749387762714 -2.197109084816211 53.000000000000000
0.757295615501839 -4.594900931542048 -2.286642250124777 34.000000000000000
0.757383974142608 -4.586444542531108 -2.383499942101649 9.000000000000000
0.771050185873962 -4.655891447210494 -2.524294048373904 1.000000000000000
0.799832936798037 -4.996320347860218 -2.165886944134197 2.000000000000000
0.801452595855195 -4.994204899298309 -2.269697592284428 1.000000000000000
0.764048383048029 -4.750478154516572 -2.260319307492310 2.000000000000000
0.741192636553587 -4.597385069533088 -2.286925446522685 0.000000000000000
0.738896418919219 -4.574890356435546 -2.376483601605826 0.000000000000000
0.725611181416793 -4.613498250887110 -2.194247548127720 0.000000000000000
0.720050980463533 -4.567905657247335 -2.271314265358562 0.000000000000000
0.367364246316603 -4.766426449615699 -2.046026004461357 0.000000000000000
0.365531371293150 -4.763195322003824 -2.143374241946897 0.000000000000000
0.351667404693797 -4.775114825216590 -2.048871016553426 1.000000000000000
0.351298435231653 -4.793678762301922 -2.156167278589326 3.000000000000000
0.350527278911265 -4.809889874211450 -2.264878368632018 1.000000000000000
0.349650233998205 -4.823882479346788 -2.374541332408445 0.000000000000000
0.337534233848043 -4.781634576925268 -1.952694910561637 1.000000000000000
0.334886901735925 -4.769087685324987 -2.045398106170839 52.000000000000000
0.334065516524432 -4.784083134096158 -2.150926497285752 51.000000000000000
0.332854131608344 -4.796784805607237 -2.257743930512671 38.000000000000000
0.331548858723033 -4.807330506256336 -2.365390614231961 4.000000000000000
0.322897597838654 -4.778747028608554 -1.854133214705715 0.000000000000000
0.321139622325474 -4.779192532249798 -1.950838815140916 35.000000000000000
0.318888595219621 -4.774019654594614 -2.046622193122896 60.000000000000000
0.316421037253067 -4.767151936002491 -2.142390288031432 47.000000000000000
0.315039807872943 -4.780012300014725 -2.248887798704800 44.000000000000000
0.314742148254823 -4.808637543364066 -2.365029884940470 56.000000000000000
0.311658732606708 -4.802687274598923 -2.466480848657768 1.000000000000000
0.307139109496303 -4.783666355125859 -1.855209360221831 28.000000000000000
0.303587602855324 -4.758217747140749 -1.941417636210035 56.000000000000000
0.301466665963117 -4.756885429242478 -2.038385356691343 59.000000000000000
0.299815544262689 -4.764736434164332 -2.140378787122837 60.000000000000000
0.298701296375915 -4.784867588415991 -2.250207923030555 46.000000000000000
0.297710377166392 -4.806313428858647 -2.362882932965678 55.000000000000000
0.294066921775589 -4.793296163519940 -2.460620355581587 26.000000000000000
0.295110970772767 -4.816360730229926 -1.770643620616134 1.000000000000000
0.289993613491362 -4.766201142946341 -1.847601247323462 57.000000000000000
0.287299630182955 -4.755677206416809 -1.939517783075049 55.000000000000000
0.284827280540324 -4.750710708147654 -2.034845740529543 55.000000000000000
0.283232263539460 -4.762273302504656 -2.138344330818052 55.000000000000000
0.282334894994463 -4.789678332958689 -2.251503602896193 44.000000000000000
0.281957642861594 -4.825450650142547 -2.371282756372764 53.000000000000000
0.277369219768543 -4.798068736873959 -2.462032232152482 38.000000000000000
0.279127611055833 -4.817465473077428 -1.770229982926833 43.000000000000000
0.273398354418571 -4.756131411050021 -1.842859555317374 58.000000000000000
0.270612186965758 -4.745692175081330 -1.934579753754663 52.000000000000000
0.268858117427923 -4.755503800403757 -2.036000716364939 50.000000000000000
0.267283931029716 -4.770696239238513 -2.141194221253364 41.000000000000000
0.266742995730175 -4.808907295804316 -2.259570488962211 15.000000000000000
0.265092146673602 -4.826620049787802 -2.370848170752059 48.000000000000000
0.260257866926843 -4.795685757203164 -2.459772339234142 29.000000000000000
0.262117935378986 -4.799776356624934 -1.762907006718432 48.000000000000000
0.256472211370227 -4.738561498948851 -1.835211411656565 52.000000000000000
0.255187836669449 -4.757855627652873 -1.938665776875389 51.000000000000000
0.252861490960378 -4.760253281129736 -2.037131749760650 50.000000000000000
0.252049737393979 -4.793658198273707 -2.150560858939572 18.000000000000000
0.249895117698479 -4.806398829034686 -2.257418597957513 1.000000000000000
0.248592918516147 -4.834915713428899 -2.373911456836997 5.000000000000000
0.244251368365774 -4.814588719083187 -2.468427178413082 7.000000000000000
0.245422757810200 -4.785785211265794 -1.756941541878514 51.000000000000000
0.240046807924276 -4.728391262088660 -1.830428802933609 55.000000000000000
0.239128444955440 -4.758877429226072 -1.938205149207856 55.000000000000000
0.237933180269361 -4.787002021775661 -2.047667806369633 37.000000000000000
0.236662995169231 -4.816583868675306 -2.159899641820043 8.000000000000000
0.234122955211266 -4.825546242354998 -2.265432829447100 9.000000000000000
0.232728686911654 -4.857517484656795 -2.383991871744092 1.000000000000000
0.226438545632682 -4.797886092941410 -2.458827083023766 0.000000000000000
0.229184823514882 -4.779246185814881 -1.753709272383640 53.000000000000000
0.224224208113464 -4.729352593434810 -1.829951789383348 56.000000000000000
0.223587308470809 -4.770958136965882 -1.942241789996761 42.000000000000000
0.220446271040825 -4.762271761176657 -2.036179538813701 29.000000000000000
0.219624126780188 -4.806650263144582 -2.154498199290999 46.000000000000000
0.215126773532254 -4.775910514198586 -2.241160242302414 39.000000000000000
0.214640285808913 -4.833433291106008 -2.371159245629869 5.000000000000000
0.213408429529589 -4.887849940325062 -2.503876155697403 0.000000000000000
0.210968798279646 -4.993907493022623 -2.781147266378559 2.000000000000000
0.212994739254394 -4.772659829198541 -1.750455768022862 53.000000000000000
0.208235457262762 -4.726542074066741 -1.828010398333508 56.000000000000000
0.205554761795004 -4.727468064734071 -1.923657177571640 46.000000000000000
0.203605253138985 -4.748511669763499 -2.029385577709193 37.000000000000000
0.202041913549755 -4.782075375221726 -2.142538254236581 46.000000000000000
0.197532525776786 -4.751539506827956 -2.228756876896488 44.000000000000000
0.195257225812415 -4.773401150654132 -2.340708454870415 3.000000000000000
0.195751454212873 -4.878175613035331 -2.497867101460950 3.000000000000000
0.195279498186150 -4.947037701559922 -2.642579780618346 2.000000000000000
0.191023361156238 -4.942552557698147 -2.751414961412414 3.000000000000000
0.189440736636981 -4.994586984885394 -2.894890163325006 3.000000000000000
0.196697667998131 -4.762273564749841 -1.745805407795763 54.000000000000000
0.192421630119845 -4.727414120881076 -1.827488343589698 55.000000000000000
0.189156498178615 -4.717240669886808 -1.918613114091182 49.000000000000000
0.187587889392642 -4.753080714077215 -2.030423234013155 47.000000000000000
0.184916346191027 -4.764741285430710 -2.133828115810518 50.000000000000000
0.180387696567905 -4.734351560063123 -2.219729619718311 48.000000000000000
0.177507015133297 -4.745605608496164 -2.326083117214047 3.000000000000000
0.176995630905342 -4.836419626650512 -2.475442130527420 3.000000000000000
0.176041302836070 -4.902162694980242 -2.617519889444936 2.000000000000000
0.172309169484125 -4.915582327609465 -2.735277669744921 3.000000000000000
0.170288226832656 -4.964449734654234 -2.876254639612721 3.000000000000000
0.169996336328886 -5.054266930779774 -3.046752867900636 5.000000000000000
0.180758780160029 -4.759345922881851 -1.743885503622001 56.000000000000000
0.176327630479448 -4.720784096295203 -1.824061973425185 55.000000000000000
0.173103526862451 -4.714371391882420 -1.916559821239192 49.000000000000000
0.171146142208991 -4.746575820160667 -2.026727160096560 51.000000000000000
0.168301534620996 -4.758301669035294 -2.129999018755676 56.000000000000000
0.163742650213733 -4.727971540992971 -2.215772879169149 52.000000000000000
0.160320923771449 -4.728523968717907 -2.316717997223944 4.000000000000000
0.158774444576295 -4.801718650596026 -2.456645004120001 3.000000000000000
0.157469667948349 -4.867803505119269 -2.598093981984638 2.000000000000000
0.153903646827107 -4.892046252965355 -2.721065439555054 3.000000000000000
0.151677747361711 -4.944630642863435 -2.863612694938202 3.000000000000000
0.150604610996959 -5.024412073905508 -3.027544477417136 4.000000000000000
0.176768093675770 -4.829433061023393 -1.486090626493705 0.000000000000000
0.164843337811459 -4.756372817882475 -1.741943825525926 55.000000000000000
0.160535679539269 -4.721566345919723 -1.823495417233929 54.000000000000000
0.157321046494829 -4.718864255571076 -1.917494778564836 46.000000000000000
0.154873002646252 -4.743700432863996 -2.024579105961846 53.000000000000000
0.151618768833343 -4.748164137172572 -2.124515256571648 58.000000000000000
0.147146224755074 -4.721543125777959 -2.211794407253807 53.000000000000000
0.143367894651011 -4.714980677346237 -2.309092215359740 7.000000000000000
0.141328314357700 -4.784757938360509 -2.446935589437715 4.000000000000000
0.139045673032043 -4.829855031791315 -2.576769813679753 2.000000000000000
0.136061575767669 -4.882431853574148 -2.714606867081149 3.000000000000000
0.133871236005779 -4.948979539677520 -2.864974695878406 5.000000000000000
0.131977300482361 -5.015047784565768 -3.020697553658653 4.000000000000000
0.161664689465563 -4.845444348054467 -1.490207233268927 39.000000000000000
0.158938794311393 -4.860473941506430 -1.588706242072393 1.000000000000000
0.153666544033787 -4.805623543641913 -1.664365629914070 0.000000000000000
0.148833844722227 -4.749599722335776 -1.738606040554650 54.000000000000000
0.144742429011040 -4.722304372884491 -1.822906206879552 53.000000000000000
0.141734241886781 -4.730722866441135 -1.921415250696149 51.000000000000000
0.138623553781600 -4.740778639547046 -2.022408811578762 52.000000000000000
0.134801782143122 -4.730676917230573 -2.115745822236893 52.000000000000000
0.130598588238483 -4.715066516991977 -2.207794317659884 54.000000000000000
0.126513832173295 -4.701386430876666 -2.301446475118981 10.000000000000000
0.123913614285335 -4.764183295017363 -2.435386406234595 4.000000000000000
0.121341298762010 -4.809488184547955 -2.564839895960053 3.000000000000000
0.118632712110610 -4.886746897497116 -2.715896728415788 5.000000000000000
0.115794925278438 -4.942895249413227 -2.860301048597492 5.000000000000000
0.113501187840127 -5.009054734602285 -3.015889942640034 4.000000000000000
0.144964488099667 -4.811731941243930 -1.479025700521438 43.000000000000000
0.142756756454947 -4.849765039282321 -1.584365984310894 15.000000000000000
0.138082252222211 -4.813872271815709 -1.666368219291614 8.000000000000000
0.133083425036299 -4.750290606431100 -1.737995384468286 54.000000000000000
0.128948034767764 -4.722998169905480 -1.822294348177323 53.000000000000000
0.125775820461046 -4.731424862875771 -1.920797545278608 51.000000000000000
0.122492987255890 -4.741488962203236 -2.021784827665399 48.000000000000000
0.118383339957534 -4.724090833691914 -2.111853967453369 52.000000000000000
0.114187676893897 -4.712163873029759 -2.205467934058159 56.000000000000000
0.109927123231736 -4.694925921534910 -2.297296371580640 14.000000000000000
0.106648225802811 -4.743554810350125 -2.423818870529996 4.000000000000000
0.104321564125396 -4.813770720376369 -2.566060105084370 2.000000000000000
0.101249822450207 -4.894510074939379 -2.719102719606363 5.000000000000000
0.098247349685514 -4.960992322243150 -2.869621340338179 4.000000000000000
0.095464512227918 -5.023568476239883 -3.023432203875916 4.000000000000000
0.090293566061279 -4.926275910897625 -3.082693095596400 40.000000000000000
0.079445967375223 -4.600619231045953 -2.991009031948575 4.000000000000000
0.074580538253504 -4.561375450671576 -3.079335600632788 8.000000000000000
0.128691269245272 -4.785611316528371 -1.470179201436220 55.000000000000000
0.126548591884731 -4.835207446171744 -1.578764835679241 20.000000000000000
0.121871517927025 -4.799404428456483 -1.660501269264936 53.000000000000000
0.117239271138038 -4.747181695097114 -1.735988740469797 51.000000000000000
0.113242030776431 -4.727378889479692 -1.823098756997924 54.000000000000000
0.109816397444093 -4.732082163195162 -1.920156962235792 52.000000000000000
0.106196376346225 -4.734796225971669 -2.018001741370746 48.000000000000000
0.101935028777574 -4.713805927692397 -2.106309313932815 46.000000000000000
0.097800812121842 -4.709214476845935 -2.203119155246258 54.000000000000000
0.093317989820208 -4.684824699503732 -2.291367558401682 17.000000000000000
0.089667370732062 -4.729996598323096 -2.415871673429270 4.000000000000000
0.087915046212285 -4.853303158935450 -2.586062526722175 3.000000000000000
0.083995028077120 -4.912716012209075 -2.728106709541048 5.000000000000000
0.080405265001306 -4.968657013853233 -2.872904883919263 5.000000000000000
0.074696398790938 -4.866673368071855 -2.927850880169244 2.000000000000000
0.067813490220452 -4.632018139669877 -2.897430807510911 4.000000000000000
0.062143868508211 -4.587913394589139 -2.981605745794771 5.000000000000000
0.057318573269716 -4.552139634252907 -3.071938041598843 7.000000000000000
0.118398025703522 -4.857219181474155 -1.398763643589954 3.000000000000000
0.112771076897473 -4.767086225191878 -1.463665127616710 80.000000000000000
0.109741958549257 -4.790187895024684 -1.563219956657656 14.000000000000000
0.106009962370742 -4.796227058541714 -1.658536671524161 60.000000000000000
0.101579796251191 -4.751540027112870 -1.736706341249948 55.000000000000000
0.097356438683000 -4.724253047162735 -1.821002710107971 53.000000000000000
0.093782632987717 -4.728988656948892 -1.917990380632448 50.000000000000000
0.090228968266418 -4.742774066366762 -2.020467492607706 51.000000000000000
0.085693887429848 -4.710776251180273 -2.104006575316028 34.000000000000000
0.081312771111870 -4.698972517329069 -2.197359668930011 52.000000000000000
0.076842267986011 -4.678267800204484 -2.287175038212130 22.000000000000000
0.073335743536776 -4.752009987360174 -2.426091290275177 3.000000000000000
0.069946796908411 -4.804544349644185 -2.559022672409212 3.000000000000000
0.064535182937602 -4.777006236523439 -2.651667895189627 4.000000000000000
0.059684492751593 -4.751180948242670 -2.746062883180367 4.000000000000000
0.054357279083970 -4.647983643815360 -2.795186815408851 4.000000000000000
0.050367479303726 -4.598764631461435 -2.875517863176643 4.000000000000000
0.044973630507908 -4.578509968559005 -2.974361081033160 4.000000000000000
0.040188997680689 -4.549484830862982 -3.068992769332155 7.000000000000000
0.102343740766959 -4.834708185376780 -1.391454821751894 33.000000000000000
0.097129944446727 -4.756160003814052 -1.459480658320387 98.000000000000000
0.093680290036336 -4.767926726378504 -1.555106020547881 19.000000000000000
0.089959246446778 -4.781664695264232 -1.652631258339968 62.000000000000000
0.085759050729844 -4.748341951722691 -1.734655612716328 55.000000000000000
0.081623971662011 -4.728546195673437 -1.821760797314615 53.000000000000000
0.077834178124939 -4.729556101311506 -1.917304598978138 50.000000000000000
0.073923384660095 -4.732309233557144 -2.015073361242757 54.000000000000000
0.069584904605456 -4.715004794481700 -2.104942690209314 31.000000000000000
0.064999566286731 -4.695929019070471 -2.194967358352826 56.000000000000000
0.060462490096878 -4.675256876207635 -2.284717362993619 22.000000000000000
0.056513415905429 -4.745480679744121 -2.421735607368811 4.000000000000000
0.051979425729460 -4.723949253858704 -2.515055781939765 3.000000000000000
0.046573231297739 -4.693675147100540 -2.604355687615887 4.000000000000000
0.041842564752633 -4.679061364799660 -2.703303524248446 5.000000000000000
0.037218604993780 -4.628020420879626 -2.782093053685210 5.000000000000000
0.033343227349019 -4.589197396572402 -2.868431537353303 5.000000000000000
0.027857053853434 -4.565701373335922 -2.964916685856295 4.000000000000000
0.023066743042542 -4.543464834768961 -3.063787724465139 6.000000000000000
0.086505784002309 -4.815992361111698 -1.385235838060764 56.000000000000000
0.081693897115915 -4.752835574168634 -1.457622760556085 109.000000000000000
0.077766821067405 -4.745616977338549 -1.546976349508035 49.000000000000000
0.074242174418575 -4.782176433101986 -1.651931191733348 58.000000000000000
0.070018090628413 -4.748855937791123 -1.733955232723944 57.000000000000000
0.065814083284214 -4.729063417035877 -1.821057853033344 50.000000000000000
0.061933694016697 -4.733785824795008 -1.918098011707242 52.000000000000000
0.057872229280645 -4.736517851362028 -2.015924961105179 54.000000000000000
0.053574432712125 -4.730146750189184 -2.110744300438657 35.000000000000000
0.048786125933347 -4.700086764385891 -2.195939052241880 55.000000000000000
0.044039398547177 -4.665011371180346 -2.278726275385807 23.000000000000000
0.039680960182966 -4.731776666214807 -2.413723058361097 4.000000000000000
0.035062032707720 -4.706845671819757 -2.504914863929315 3.000000000000000
0.029633753943346 -4.676737078070547 -2.593907504755593 5.000000000000000
0.024858290280788 -4.669225063806419 -2.696550271907844 5.000000000000000
0.020259676197026 -4.614861857875710 -2.773102157917077 6.000000000000000
0.016405542225559 -4.582972476015862 -2.863443755736320 6.000000000000000
0.010879679139400 -4.569617153645562 -2.966341973153137 5.000000000000000
0.006020016046910 -4.557296175439707 -3.071975151059888 6.000000000000000
0.070960813473361 -4.808761286223548 -1.382315251695082 66.000000000000000
0.066228852417503 -4.745643299780787 -1.454571899341241 116.000000000000000
0.062201394202305 -4.738471052914296 -1.543787248053492 107.000000000000000
0.058524748649622 -4.782644136008141 -1.651208624645121 59.000000000000000
0.054319711553067 -4.753083200144961 -1.734603545896446 54.000000000000000
0.050003830407262 -4.729536343623300 -1.820332274968211 51.000000000000000
0.045971839841052 -4.734264280192785 -1.917365983643265 51.000000000000000
0.041665862992061 -4.725959508843555 -2.010489163520239 56.000000000000000
0.037376818840314 -4.734287399599401 -2.111630126562822 46.000000000000000
0.032522148607824 -4.700575541938918 -2.195193814763417 55.000000000000000
0.027733961059969 -4.661906628885004 -2.276225254881858 20.000000000000000
0.022948493976508 -4.718022815943247 -2.405691184433940 6.000000000000000
0.018255945038361 -4.686159896355021 -2.492877082060937 4.000000000000000
0.012867408096206 -4.677239648046646 -2.593138581824999 5.000000000000000
0.007948806716237 -4.659339077990750 -2.689776230986529 5.000000000000000
0.003410626137478 -4.615368743116814 -2.772330379426248 7.000000000000000
-0.000483266642972 -4.583483975519915 -2.862671900970404 6.000000000000000
-0.006105096216066 -4.560064277531660 -2.959032360853773 6.000000000000000
-0.011134847222158 -4.574399908605236 -3.082368811698195 7.000000000000000
0.055553734567952 -4.809174180335732 -1.381583687572957 68.000000000000000
0.050895064492069 -4.746055423361561 -1.453844424548465 136.000000000000000
0.046797927789616 -4.742690299538832 -1.544293584981457 117.000000000000000
0.042807124264562 -4.783067799366658 -1.650463564206733 58.000000000000000
0.038565734160326 -4.753509314948625 -1.733857513420676 54.000000000000000
0.034193369071976 -4.729964970768111 -1.819584070280381 52.000000000000000
0.029986271494500 -4.730990338772125 -1.915110241726745 49.000000000000000
0.025534379450184 -4.715353985701403 -2.005033861309075 53.000000000000000
0.021137612625150 -4.734729925500312 -2.110862793718323 56.000000000000000
0.016232878732404 -4.693769683777711 -2.191041453121630 55.000000000000000
0.011471066262236 -4.665945013266122 -2.277210914214099 16.000000000000000
0.006320969262737 -4.707783348555037 -2.399456602736440 7.000000000000000
0.001608659587437 -4.690145311541312 -2.493968397723071 6.000000000000000
-0.003896246140850 -4.674196589605216 -2.590406736593497 6.000000000000000
-0.008872474837521 -4.642474651696422 -2.678983088327815 5.000000000000000
-0.013438656239675 -4.615828418501280 -2.771534487152279 7.000000000000000
-0.017385179276561 -4.587341157862233 -2.863994213842742 6.000000000000000
-0.023405606491348 -4.627645069202265 -3.001767694388217 6.000000000000000
0.040114529856324 -4.805699341255117 -1.379726301102703 76.000000000000000
0.035446617107451 -4.731125869337554 -1.448411386941086 255.000000000000000
0.031369634528864 -4.746866875813459 -1.544776621176827 110.000000000000000
0.027110870980038 -4.787228800355040 -1.651000125295559 58.000000000000000
0.022811707994624 -4.753891284276431 -1.733088942685561 53.000000000000000
0.018382855321219 -4.730349294239935 -1.818813246354331 52.000000000000000
0.014014645634182 -4.723963082384994 -1.911332620443499 50.000000000000000
0.009470521836403 -4.701020293126230 -1.997994622823472 54.000000000000000
0.004898344559358 -4.735126946497481 -2.110072227857141 57.000000000000000
-0.000006312922869 -4.701416380974066 -2.193633518313588 56.000000000000000
-0.004820691060426 -4.673533441176184 -2.279925861765160 14.000000000000000
-0.010254617757899 -4.708187817798816 -2.398649268889775 5.000000000000000
-0.015086450647749 -4.701148773689856 -2.498789428231443 5.000000000000000
-0.020696706020159 -4.685101760191856 -2.595405390879640 5.000000000000000
-0.025702572072536 -4.649813813073743 -2.682162351823147 6.000000000000000
-0.030355511335628 -4.626529677886413 -2.776889929861785 6.000000000000000
-0.034413612816224 -4.604724881215048 -2.873762076368189 4.000000000000000
0.024700074511501 -4.802180802754518 -1.377848120793836 71.000000000000000
0.020227525309109 -4.746750762143003 -1.452323672366012 119.000000000000000
0.015929410611441 -4.754804517486975 -1.546473489705864 101.000000000000000
0.011407858730547 -4.798909577683203 -1.654119924908589 59.000000000000000
0.007057788541847 -4.754229104358496 -1.732297841276585 54.000000000000000
0.002568384511410 -4.723221765951659 -1.815150008412938 52.000000000000000
-0.001911378037428 -4.728014791079733 -1.912033598545084 54.000000000000000
-0.006508403871879 -4.697684214096051 -1.995629390771696 53.000000000000000
-0.011332074445407 -4.731824540108688 -2.107630922555933 59.000000000000000
-0.016270476085253 -4.701768434157445 -2.192818474741718 55.000000000000000
-0.021097517682833 -4.666696131077249 -2.275602363097792 10.000000000000000
-0.026850412037018 -4.712110215549329 -2.399633382808529 6.000000000000000
-0.031785093693863 -4.701510231600958 -2.497952611634254 5.000000000000000
-0.037572302201224 -4.695961601953787 -2.600376310283363 5.000000000000000
-0.042646055385709 -4.664037217770236 -2.689311091193081 4.000000000000000
-0.047312353999780 -4.633755476112731 -2.780159658860310 5.000000000000000
-0.051869858930171 -4.649212662124294 -2.900436370630754 6.000000000000000
0.009347821709564 -4.817843900198372 -1.381461824137975 52.000000000000000
0.004890133072110 -4.743208802092171 -1.450360764207957 107.000000000000000
0.000439529945793 -4.758895659537865 -1.546909146797280 94.000000000000000
-0.004372870043531 -4.814329529195961 -1.658516223110095 47.000000000000000
-0.008688994508677 -4.750764255835485 -1.730115454774720 50.000000000000000
-0.013227257183719 -4.727251009892406 -1.815769514321304 51.000000000000000
-0.017806148328596 -4.717188412510291 -1.906714562266818 53.000000000000000
-0.022462039881054 -4.694302866865497 -1.993242597102208 51.000000000000000
-0.027601016685528 -4.739438613230825 -2.110048296910427 55.000000000000000
-0.032584548817431 -4.709325598764448 -2.195360255630095 53.000000000000000
-0.037525498771159 -4.684980904224061 -2.283525730969080 9.000000000000000
-0.043471034487356 -4.715986630090057 -2.400592504773023 7.000000000000000
-0.048556323420200 -4.708889990750712 -2.500844125183271 5.000000000000000
-0.054522867500086 -4.706775795009460 -2.605319341737713 5.000000000000000
-0.059822157734235 -4.688611408293970 -2.702422685565614 5.000000000000000
-0.064509153024383 -4.654655320461313 -2.791631497328626 5.000000000000000
-0.006112240967983 -4.841155897203225 -1.387252038918948 24.000000000000000
-0.010447367795194 -4.751099562882373 -1.451884222686189 98.000000000000000
-0.015098798801824 -4.770552310541563 -1.549793108341014 83.000000000000000
-0.020189132840333 -4.814578561910309 -1.657675984657079 1.000000000000000
-0.024429780929916 -4.751013570616686 -1.729279976643401 53.000000000000000
-0.029001587684084 -4.723767998969310 -1.813497945911510 50.000000000000000
-0.033678503771157 -4.713733530199568 -1.904373378478087 54.000000000000000
-0.038480630264873 -4.701922373385274 -1.995522296481149 52.000000000000000
-0.043852038359164 -4.739699298793988 -2.109187415983586 58.000000000000000
-0.048910735530221 -4.713212434562494 -2.196186760418016 54.000000000000000
-0.053871789676087 -4.685243372522365 -2.282659933172778 7.000000000000000
-0.060070915464884 -4.716252136409950 -2.399712747585384 7.000000000000000
-0.065524219268561 -4.726822007367013 -2.509335427430964 5.000000000000000
-0.071707465223352 -4.728043005120401 -2.616043459341471 5.000000000000000
-0.077059759283024 -4.706210037351034 -2.711507491753551 3.000000000000000
-0.082696505354822 -4.723534494241867 -2.831862844438152 4.000000000000000
-0.021667996745617 -4.852890339634246 -1.389708548366041 0.000000000000000
-0.025896021685114 -4.770424576544132 -1.456888038101976 73.000000000000000
-0.030735337860323 -4.785970896623227 -1.553886069080382 35.000000000000000
-0.035948248108676 -4.807218792879048 -1.654210144101536 0.000000000000000
-0.040201774705203 -4.754977637967635 -1.729789432196381 52.000000000000000
-0.044821199202464 -4.727709114705463 -1.814070998288915 53.000000000000000
-0.049525290434269 -4.710233752959145 -1.902010840687245 56.000000000000000
-0.054506063689077 -4.705815636669649 -1.996214488149144 49.000000000000000
-0.060102480348567 -4.739914431352896 -2.108303316723781 61.000000000000000
-0.065361743954035 -4.724305372163963 -2.200366013410041 50.000000000000000
-0.070486943899033 -4.703439529695115 -2.290526616575581 5.000000000000000
-0.076844056915708 -4.727166057610996 -2.404248750584524 7.000000000000000
-0.083047585371179 -4.769439234312784 -2.530919297164945 5.000000000000000
-0.088713846054410 -4.731765784422469 -2.617056823014557 2.000000000000000
-0.041467500043422 -4.789707816443340 -1.461863016681698 41.000000000000000
-0.046470278765011 -4.801346925689786 -1.557951286902368 4.000000000000000
-0.055953712491606 -4.755138832083078 -1.728908288392992 54.000000000000000
-0.060569276512138 -4.724137247355748 -1.811755676378259 54.000000000000000
-0.065500836230525 -4.717816108621701 -1.904117854987631 56.000000000000000
-0.070776457364771 -4.724393563853994 -2.003127591267678 39.000000000000000
-0.076469918864063 -4.747393313346782 -2.110645654746240 61.000000000000000
-0.081699137386377 -4.724475864719912 -2.199453808250893 50.000000000000000
-0.087093929226421 -4.714399109953468 -2.294862017543069 6.000000000000000
-0.093903210164160 -4.748729564608580 -2.414194215330089 6.000000000000000
-0.100500946913482 -4.794347304663160 -2.543092110392108 0.000000000000000
-0.057070691607856 -4.801297291722951 -1.464475077511823 2.000000000000000
-0.061712905637839 -4.771024244924734 -1.547182979358974 0.000000000000000
-0.071874817011080 -4.766533151275497 -1.732102689932471 54.000000000000000
-0.076472589636254 -4.731724676136056 -1.813713740445126 53.000000000000000
-0.081397504150038 -4.717936203697068 -1.903206878971029 56.000000000000000
-0.087238788586661 -4.746609997970062 -2.011571256738517 37.000000000000000
-0.092957965173840 -4.758481768926478 -2.114586028400140 56.000000000000000
-0.098487055867311 -4.746356198010188 -2.208641922412245 50.000000000000000
-0.104012196531289 -4.736101652574118 -2.304418928809917 7.000000000000000
-0.110696767300470 -4.752421536019608 -2.415048606071159 0.000000000000000
-0.072284350162028 -4.782237411928696 -1.457731219625616 0.000000000000000
-0.153943746554605 -9.507946558417602 -3.081439528073139 4.000000000000000
-0.087731317175179 -4.770365347082454 -1.732539659384916 57.000000000000000
-0.092351934001026 -4.735533440003718 -1.814215576741866 55.000000000000000
-0.097599083121100 -4.732848242817266 -1.908255205530813 56.000000000000000
-0.103770042161808 -4.765099677124335 -2.018423356340119 35.000000000000000
-0.109687958971598 -4.776834575998005 -2.121745504344617 46.000000000000000
-0.115512124311978 -4.771817455029197 -2.219484427747942 48.000000000000000
-0.121445979028187 -4.772143576268615 -2.320939585955669 5.000000000000000
-0.184976226937253 -9.511804334243831 -3.080805430813236 4.000000000000000
-0.103693102698533 -4.777912495949438 -1.734317134062559 58.000000000000000
-0.108255031745240 -4.739297929130525 -1.814693358956535 56.000000000000000
-0.113632476184926 -4.736588445887664 -1.908790599997693 51.000000000000000
-0.121166858910101 -4.813004233890521 -2.037717555711234 33.000000000000000
-0.126638438866860 -4.798796736097120 -2.130496794511785 32.000000000000000
-0.132711461036473 -4.797233051911832 -2.230292965902519 21.000000000000000
-0.139233414698701 -4.811735908813287 -2.339169852761468 1.000000000000000
-0.216030815362874 -9.515575267249767 -3.080125650053614 3.000000000000000
-0.213777148460288 -8.945648121060664 -3.069410207997623 12.000000000000000
-0.119891392815974 -4.792933619822115 -1.738796529185494 54.000000000000000
-0.124181723676004 -4.743018038276724 -1.815147043103251 55.000000000000000
-0.130095412069844 -4.755120484882910 -1.915277619042551 40.000000000000000
-0.138256296331571 -4.838768289462732 -2.047618772480508 30.000000000000000
-0.143301929154618 -4.806093572679354 -2.132728095128575 1.000000000000000
-0.149746344373737 -4.811724199918803 -2.236012132405023 0.000000000000000
-0.231107455801959 -8.902904337850995 -2.880014530336033 20.000000000000000
-0.239548843671679 -8.813147826598348 -3.022158456802090 48.000000000000000
-0.136081269282027 -4.804150877118545 -1.741884105798003 51.000000000000000
-0.140462609799031 -4.757897502914191 -1.819861974714388 57.000000000000000
-0.147137650214197 -4.788443705844780 -1.927706769154727 57.000000000000000
-0.154930685895469 -4.846073716401390 -2.049698030874690 28.000000000000000
-0.160621448600989 -4.831618004332809 -2.143038079562835 0.000000000000000
-0.173274269519728 -5.011093043022709 -2.327596730899022 1.000000000000000
-0.250377650778805 -8.932924725833278 -2.715836312185795 15.000000000000000
-0.259865551710581 -8.895100987806771 -2.875682929627881 36.000000000000000
-0.272975088857403 -8.960467374112048 -3.070844352671891 26.000000000000000
-0.152700925748189 -4.826600233419145 -1.749030764175947 47.000000000000000
-0.156718872201106 -4.768997357835331 -1.823120236313459 55.000000000000000
-0.163011959661956 -4.780921377165174 -1.923682376685981 47.000000000000000
-0.170220772645124 -4.812826904015179 -2.034626766890614 45.000000000000000
-0.178784666981419 -4.875368620735730 -2.161414549501720 7.000000000000000
-0.191283419995594 -5.029111843346081 -2.334898010695750 22.000000000000000
-0.267397410140862 -8.890595651949738 -2.532056788182759 15.000000000000000
-0.279088047584323 -8.928823295650249 -2.712769879062545 19.000000000000000
-0.265371593670355 -7.863331055264649 -2.693224578935705 14.000000000000000
-0.169205341506735 -4.841485735499313 -1.753422203966364 33.000000000000000
-0.172912928555575 -4.776317533524320 -1.824924091047759 47.000000000000000
-0.179112361916435 -4.780772075857083 -1.922621418926218 47.000000000000000
-0.186425793502412 -4.808993842363049 -2.031994007774450 44.000000000000000
-0.194462184823521 -4.849632942728553 -2.148978543279493 25.000000000000000
-0.207460140840241 -4.999945816448723 -2.320292680361566 22.000000000000000
-0.279560541241925 -8.740543624158351 -2.321862842194891 0.000000000000000
-0.295846878302164 -8.890241339550972 -2.530135875627596 32.000000000000000
-0.325183608133369 -9.429593141057900 -2.862975517728917 3.000000000000000
-0.281885214436941 -7.890132280200675 -2.547541820425555 13.000000000000000
-0.290760796652400 -7.851667307752337 -2.687600165110733 40.000000000000000
-0.184800604469414 -4.830013839470515 -1.748260577577334 0.000000000000000
-0.189745513330829 -4.798529491778104 -1.832405893001492 46.000000000000000
-0.195665085078684 -4.791703857548669 -1.926009687419656 48.000000000000000
-0.202448511871777 -4.801433142874156 -2.027784597670697 46.000000000000000
-0.210916721165070 -4.845779115162320 -2.146242042219298 24.000000000000000
-0.223760172050662 -4.977984693371008 -2.309039579125444 40.000000000000000
-0.330784508426352 -9.758266111856480 -2.406233591981153 4.000000000000000
-0.304166358320408 -8.651250932048219 -2.296361499677459 20.000000000000000
-0.296660288780609 -8.132327966223617 -2.312754747663031 0.000000000000000
-0.300501871915281 -7.967902710376947 -2.417529528866842 17.000000000000000
-0.307116692175747 -7.878331663849238 -2.542090779609878 51.000000000000000
-0.319273914466124 -7.919352721924739 -2.709112886773956 7.000000000000000
-0.341886183903295 -8.223770552621991 -2.974931215185224 4.000000000000000
-0.207045799037101 -4.828162632573693 -1.842704976527755 24.000000000000000
-0.212454494746468 -4.806297924611521 -1.930859743103315 43.000000000000000
-0.219090040333049 -4.808554944752667 -2.029772129457279 46.000000000000000
-0.228030309498708 -4.856496044038804 -2.149954500026775 34.000000000000000
-0.240785045957705 -4.974104528472123 -2.306176641429763 33.000000000000000
-0.335599606562836 -9.758949190681115 -2.042268248242458 3.000000000000000
-0.337790699858158 -9.459731913897700 -2.155141192654145 2.000000000000000
-0.339191456232252 -9.156101029075343 -2.255849973155233 3.000000000000000
-0.319317889631917 -8.330070483206001 -2.209374986321055 21.000000000000000
-0.321000075978504 -8.089564472807844 -2.298904432878181 33.000000000000000
-0.325583532789205 -7.952140240451029 -2.411082113777120 42.000000000000000
-0.334680249441509 -7.923518804984965 -2.555007412451758 10.000000000000000
-0.350373538047701 -8.036119980357979 -2.747364927549157 4.000000000000000
-0.351391098550288 -7.828658019228947 -2.830346606658260 4.000000000000000
-0.222126898713975 -4.805473296867175 -1.833027559521199 0.000000000000000
-0.230047122021159 -4.835678328112694 -1.941635761071321 28.000000000000000
-0.236139743532757 -4.822993464204967 -2.034839567572945 42.000000000000000
-0.245400695790969 -4.870819107605588 -2.155254908239300 29.000000000000000
-0.258158436004574 -4.977426987021504 -2.306650994578439 4.000000000000000
-0.343190080976763 -9.155759651178641 -1.914127941953804 4.000000000000000
-0.347921231569479 -8.960241224577979 -2.039471503600013 4.000000000000000
-0.350985065912244 -8.732459290131795 -2.149642814445574 3.000000000000000
-0.346061511207518 -8.337245624636541 -2.209525022474195 13.000000000000000
-0.347043610730875 -8.092868744102292 -2.298137555278853 22.000000000000000
-0.354786119934939 -8.031925854964774 -2.433576353733306 3.000000000000000
-0.357864545790218 -7.865929549432837 -2.534772039104439 3.000000000000000
-0.358126960903236 -7.638521669070619 -2.609814512760016 4.000000000000000
-0.359366677949577 -7.456071601585656 -2.694057880374400 3.000000000000000
-0.361598230493287 -7.295454729127477 -2.781266440842313 3.000000000000000
-0.246325786490403 -4.835344543162197 -1.940469725561687 1.000000000000000
-0.254057974694736 -4.852109796479123 -2.046086280782250 27.000000000000000
-0.263655073992373 -4.899708542467767 -2.166988278885343 23.000000000000000
-0.274952576690381 -4.969825821894691 -2.302061767329469 0.000000000000000
-0.354669964907575 -8.740370496525300 -1.825439344229917 4.000000000000000
-0.354608587083424 -8.452947224790917 -1.922215379416744 3.000000000000000
-0.359440367182532 -8.293276685283647 -2.039771664616003 3.000000000000000
-0.360766673994916 -8.073926856204222 -2.138025380485189 3.000000000000000
-0.363540594928043 -7.888507511076794 -2.238426117504073 3.000000000000000
-0.362386047387495 -7.645046139220443 -2.314727172227748 3.000000000000000
-0.364356131438752 -7.473581930859633 -2.406744218277339 4.000000000000000
-0.366305747090719 -7.301409147761488 -2.493074518868855 4.000000000000000
-0.367392116804677 -7.132321716364570 -2.575553138023777 3.000000000000000
-0.367182158659437 -6.940221207968864 -2.644353011006925 2.000000000000000
-0.368327182863875 -6.781557614306283 -2.720049155844067 3.000000000000000
-0.269915648224396 -4.840683116449281 -2.040228543317265 0.000000000000000
-0.279806556830078 -4.888358219547755 -2.160917908698706 0.000000000000000
-0.371808396997518 -6.325054681071981 -2.928453823670705 3.000000000000000
-0.373021329615314 -6.183164334761177 -2.993949548170343 3.000000000000000
-0.375413842343516 -6.055121858351836 -3.062707907634466 5.000000000000000
-0.373126062454454 -5.869978894467267 -3.098391311636745 7.000000000000000
-0.363238917079934 -8.317145711277675 -1.735269635098240 3.000000000000000
-0.364630379588176 -8.089841748814557 -1.837912175654328 2.000000000000000
-0.367117365310457 -7.896775499623029 -1.940557020198318 2.000000000000000
-0.366591199892571 -7.659928902030220 -2.026752108177868 2.000000000000000
-0.370772402653521 -7.522661174121505 -2.132998050818471 3.000000000000000
-0.371362002475828 -7.334641738037586 -2.219167600194747 2.000000000000000
-0.372843855214365 -7.168699218792356 -2.307019499292271 3.000000000000000
-0.371463703109612 -6.949161152113517 -2.371303017167656 2.000000000000000
-0.372656685836595 -6.797286281692622 -2.453104604213726 4.000000000000000
-0.374804205107559 -6.663373982345261 -2.537433541836699 2.000000000000000
-0.375540162269408 -6.510316052362944 -2.609852579144662 3.000000000000000
-0.376281843225297 -6.360425774328468 -2.679391711511604 2.000000000000000
-0.375446308260513 -6.188445635805364 -2.734292720667466 2.000000000000000
-0.377412613676011 -6.063532647205013 -2.806064068284473 3.000000000000000
-0.378736573041901 -5.934580470402159 -2.872303822467561 3.000000000000000
-0.371481091483029 -5.669697031476383 -2.866536825149550 6.000000000000000
-0.367633459808434 -5.477434565192678 -2.890012495346996 7.000000000000000
-0.376282315507381 -5.461074326431175 -3.003766771943304 8.000000000000000
-0.369739556616968 -7.905657002534358 -1.647706290135525 2.000000000000000
-0.369758479033859 -7.672177827807614 -1.741362123649133 2.000000000000000
-0.374226581559304 -7.539075408889533 -1.851021459824697 3.000000000000000
-0.374717577270767 -7.342496900003821 -1.941170268348091 2.000000000000000
-0.377883090352192 -7.199092263668035 -2.039690895508659 2.000000000000000
-0.376069890499761 -6.982165302350151 -2.111008083385075 2.000000000000000
-0.377036083046896 -6.821976722162480 -2.193958384827275 3.000000000000000
-0.380531014579682 -6.706546701721602 -2.287060008956928 3.000000000000000
-0.379417506287721 -6.526119987772353 -2.353827576761005 2.000000000000000
-0.380800909433550 -6.390247838626379 -2.432041781776264 3.000000000000000
-0.379342911564325 -6.213113387211645 -2.489364777025927 2.000000000000000
-0.380603324302577 -6.083768952786883 -2.561530877939248 2.000000000000000
-0.381883513582652 -5.957708104924057 -2.631055894232572 2.000000000000000
-0.376448167597982 -5.729521600937169 -2.650253761719150 2.000000000000000
-0.368688223634137 -5.477523797631179 -2.649909062616603 7.000000000000000
-0.377139708672304 -5.462452866293825 -2.760579345655715 11.000000000000000
-0.385559935879683 -5.455686880148703 -2.877364106542266 9.000000000000000
-0.395315490874973 -5.453512718055997 -2.998436375292256 7.000000000000000
-0.376231598076073 -7.545025539364979 -1.570890000903731 2.000000000000000
-0.378280340915455 -7.371409516827010 -1.671481294812802 2.000000000000000
-0.380315237856591 -7.204656211453894 -1.767335054428816 3.000000000000000
-0.380202666353387 -7.013475105410648 -1.852649151426921 3.000000000000000
-0.381211861637182 -6.844776394190456 -1.937805364343954 3.000000000000000
-0.384834483919353 -6.740572437006108 -2.036489538755371 3.000000000000000
-0.384313665070824 -6.566515180952694 -2.110366173240473 3.000000000000000
-0.385510737620008 -6.422338243927316 -2.188736839313549 2.000000000000000
-0.382999044894696 -6.232407271036195 -2.246532292121557 2.000000000000000
-0.383330868535425 -6.090991554640125 -2.316821815878500 4.000000000000000
-0.385921716822419 -5.990046840555562 -2.398686990091700 3.000000000000000
-0.381833119884068 -5.788710712449446 -2.436041000503198 2.000000000000000
-0.370462308939591 -5.485902700436903 -2.421506398710158 7.000000000000000
-0.377938752358708 -5.464372908532090 -2.526423364356436 11.000000000000000
-0.386751990510590 -5.462544629404337 -2.641482362159915 11.000000000000000
-0.396336966718142 -5.461843951913429 -2.759094353906614 9.000000000000000
-0.404642767382577 -5.451543397306753 -2.874006753312545 9.000000000000000
-0.415359153397979 -5.459888599563581 -3.000771443153268 8.000000000000000
-0.382151377510065 -7.215690816418376 -1.500721948437709 2.000000000000000
-0.382806260902438 -7.031682781186753 -1.592889397094353 1.000000000000000
-0.383433339497386 -6.854726665276229 -1.679977743457605 3.000000000000000
-0.387811999455278 -6.757831428026079 -1.783624468171906 3.000000000000000
-0.388838481056365 -6.601915858765868 -1.867590862428254 3.000000000000000
-0.389273719479757 -6.453095434127309 -1.948211818403661 3.000000000000000
-0.387345927544669 -6.269228813012688 -2.013442132892347 3.000000000000000
-0.386711925121677 -6.107895614320984 -2.080231009173542 3.000000000000000
-0.388773571542411 -6.002558200930255 -2.162363094976213 3.000000000000000
-0.384606298654394 -5.802939787844660 -2.205984545205321 2.000000000000000
-0.371399362560389 -5.477883413578861 -2.192395908755382 8.000000000000000
-0.379529017775207 -5.471585802328885 -2.301393172063295 13.000000000000000
-0.388204835684818 -5.470647214535845 -2.413582412026185 12.000000000000000
-0.396544214830116 -5.460099048749858 -2.523262781306309 11.000000000000000
-0.405512606783440 -5.458295394705093 -2.638246938760825 11.000000000000000
-0.415801367734083 -5.464743564838567 -2.759380907585239 9.000000000000000
-0.424520399410964 -5.457937558433953 -2.876205145451203 7.000000000000000
-0.434334494521608 -5.452218966017292 -2.995389439366772 7.000000000000000
-0.384720436655173 -6.862904432143708 -1.425809573849921 2.000000000000000
-0.389474815317045 -6.765980368072145 -1.531183538017595 2.000000000000000
-0.390998283669332 -6.617302898884787 -1.620308207279910 3.000000000000000
-0.391696030924520 -6.467435934961344 -1.705534123531003 3.000000000000000
-0.392526214546644 -6.320629052006744 -1.786608954926063 3.000000000000000
-0.390158836123193 -6.138869858140274 -1.851979737311349 3.000000000000000
-0.392648502901520 -6.036578357209427 -1.937383000451884 3.000000000000000
-0.391891778941386 -5.884171350928320 -2.002731221735093 2.000000000000000
-0.373082539535268 -5.479753495807158 -1.972817032540818 8.000000000000000
-0.380842909881728 -5.470126819798637 -2.078260631709238 19.000000000000000
-0.389565496877959 -5.473488700484381 -2.189434668884190 17.000000000000000
-0.398096755655184 -5.470892622882336 -2.299903667988823 14.000000000000000
-0.406386647747622 -5.462645743531032 -2.408860181333640 11.000000000000000
-0.415120627114222 -5.455773153463576 -2.520077412082891 10.000000000000000
-0.424523604045876 -5.457586559485725 -2.636722331859889 10.000000000000000
-0.435003125824522 -5.464026415470637 -2.757840389065692 9.000000000000000
-0.444443965332576 -5.464275592489277 -2.878372076540038 7.000000000000000
-0.454420050107038 -5.458483515698189 -2.997665112535397 7.000000000000000
-0.392973616252155 -6.643083626750179 -1.378632534409877 2.000000000000000
-0.393778454435721 -6.488599304811914 -1.466940213647635 2.000000000000000
