# This PCD file was generated using the MATLAB® pcwrite function
# from Computer Vision Toolbox®.
# .PCD v.7 - Point Cloud Data file format
VERSION .7
FIELDS x y z intensity
SIZE 8 8 8 8
TYPE F F F F
COUNT 1 1 1 1
WIDTH 636
HEIGHT 1
VIEWPOINT 0 0 0 1 0 0 0
POINTS 636
DATA ascii
5.667112631568545 -5.487537718047073 -2.338963063865474 94.000000000000000
3.022430617238525 -2.895532072723922 -1.317327286518522 27.000000000000000
2.980301353354408 -2.824723964768605 -1.367597296741923 84.000000000000000
2.978489006779219 -2.792688056410846 -1.435646424463753 82.000000000000000
3.003344046684988 -2.785367967803939 -1.516929075854766 14.000000000000000
3.029703611198733 -2.779324203778449 -1.600623940399695 49.000000000000000
2.984136835664515 -2.706658845063047 -1.645852132626790 121.000000000000000
3.000335911638114 -2.691034022281693 -1.725043856908310 99.000000000000000
3.108762180446151 -2.756164968316257 -1.860068916157122 44.000000000000000
3.150605370176503 -2.759989851747775 -1.958958350671161 6.000000000000000
5.342926614417494 -5.767987841493826 -0.953861338627697 75.000000000000000
5.343465961583546 -5.711254492270574 -1.084324509506821 86.000000000000000
5.339305153523163 -5.650510039635321 -1.212015168857813 79.000000000000000
5.344752272309070 -5.599080087547363 -1.341887223606230 82.000000000000000
5.345422435366402 -5.543627273768584 -1.469780812573971 86.000000000000000
5.369403647779918 -5.511776375169061 -1.602942811623643 93.000000000000000
5.419072646507479 -5.505788315254218 -1.745378663638505 91.000000000000000
5.458653017700715 -5.489503569212383 -1.886128785621854 18.000000000000000
5.497137150395380 -5.470491585528801 -2.027673781060835 54.000000000000000
5.577711725324062 -5.492591802314491 -2.187453131459070 97.000000000000000
5.629195340360491 -5.485016272549549 -2.338109559009239 96.000000000000000
3.012446962286116 -2.904188116580557 -1.321135376456716 44.000000000000000
2.970444022001627 -2.833271063931902 -1.371357499137619 85.000000000000000
2.965880470709763 -2.798652762299300 -1.438079187505657 85.000000000000000
2.987901148346110 -2.788887600335685 -1.517943569572290 10.000000000000000
3.014165143307418 -2.782993478716511 -1.601552929594259 61.000000000000000
2.974212411928169 -2.715264118719511 -1.649637928251768 123.000000000000000
2.982156852197886 -2.692308309244191 -1.724123103744009 96.000000000000000
3.071166599470629 -2.740856070992980 -1.847643828338388 30.000000000000000
3.129219142498598 -2.759531218031365 -1.956179699038579 48.000000000000000
3.148484372541485 -2.742304383411893 -2.042233293378102 0.000000000000000
5.346941731685377 -5.806420765043349 -0.964363011129520 77.000000000000000
5.342124864320604 -5.743750605926561 -1.094271863352898 86.000000000000000
5.337996516868315 -5.682893012708436 -1.222368271844198 79.000000000000000
5.346155751991024 -5.634228373906144 -1.353345966899901 80.000000000000000
5.346839442575333 -5.578642125668945 -1.481716575135945 87.000000000000000
5.348968163268245 -5.524215291456416 -1.608825970073153 91.000000000000000
5.387534642988575 -5.507260395907905 -1.747728068740183 90.000000000000000
5.437867641579234 -5.502288926751684 -1.892011648804332 96.000000000000000
5.487136010106298 -5.494384864066062 -2.037610701806536 91.000000000000000
5.545539344253191 -5.494969839322182 -2.189055468981872 98.000000000000000
5.599560807392893 -5.490384183928903 -2.340610236065110 91.000000000000000
3.002433740721759 -2.912816874596980 -1.324927729213416 46.000000000000000
2.957821306177164 -2.839164798131530 -1.373831274129091 85.000000000000000
2.955995507187896 -2.807171574467635 -1.441823259968387 83.000000000000000
2.986125569044665 -2.805180957021463 -1.525908871545682 8.000000000000000
3.001361987134138 -2.789139291680117 -1.603910294808397 69.000000000000000
2.961534092549417 -2.721338736969062 -1.651888403415656 124.000000000000000
2.972160878464464 -2.700921326324672 -1.727908476028148 90.000000000000000
3.009301341213880 -2.703421943047441 -1.820360193922606 52.000000000000000
3.102460361387781 -2.754174306924725 -1.949953741270110 42.000000000000000
3.145995394627388 -2.758539197348695 -2.051529788639221 5.000000000000000
3.165710365619017 -2.743064380199383 -2.140441937332960 0.000000000000000
5.345402064975737 -5.839070573380583 -0.973913549979706 73.000000000000000
5.348692767728894 -5.785015762228642 -1.105899772678691 83.000000000000000
5.341922137090777 -5.721095835312644 -1.233979871970289 80.000000000000000
5.347381826454697 -5.669436163381628 -1.364824234633391 79.000000000000000
5.342659990734253 -5.608029137347280 -1.492158643734436 85.000000000000000
5.344785476890126 -5.553513160885899 -1.619609760989201 84.000000000000000
5.361472260742315 -5.514198439383523 -1.751791873594295 91.000000000000000
5.408880942692942 -5.506695286464924 -1.894998145064552 96.000000000000000
5.455227548849924 -5.496311898254362 -2.039390082200162 95.000000000000000
5.505223706353322 -5.489063054503069 -2.187344217697531 99.000000000000000
5.545395209750646 -5.471416660371538 -2.332727094257563 54.000000000000000
3.000574436197903 -2.929407554942497 -1.332337956331446 51.000000000000000
2.953368898985244 -2.852918630434261 -1.380105588216998 80.000000000000000
2.948806781033226 -2.818268050237720 -1.446888995445657 74.000000000000000
2.981542719229132 -2.818919855846184 -1.532479644147966 20.000000000000000
2.985828204686569 -2.792698404554815 -1.604783335312020 80.000000000000000
2.954275482923562 -2.732393209639087 -1.657162550540823 120.000000000000000
2.967555683825605 -2.714464946319640 -1.734846770927121 93.000000000000000
2.991023818590998 -2.704790331492602 -1.819247586032606 75.000000000000000
3.056894117686681 -2.731816597617129 -1.931735082829978 48.000000000000000
3.116507542514635 -2.751035282034261 -2.043186142878827 39.000000000000000
3.149612201822053 -2.747579659315026 -2.140832780450627 0.000000000000000
5.349047921310771 -5.877634695124464 -0.984459611253834 70.000000000000000
5.347007760442551 -5.817621134966371 -1.115881866399714 83.000000000000000
5.342965070672962 -5.756476852433573 -1.244990964210231 78.000000000000000
5.348430118844183 -5.704702791512503 -1.376321664564593 78.000000000000000
5.346439037316570 -5.645999096531232 -1.504886647633631 81.000000000000000
5.348576442516322 -5.591324170282744 -1.632877234017131 83.000000000000000
5.351670343496183 -5.537865008623349 -1.761157483250309 83.000000000000000
5.371775228425463 -5.502652765344523 -1.895057634828246 96.000000000000000
5.423357006282965 -5.498111196570489 -2.041106575499605 93.000000000000000
5.475870660757936 -5.493887010407997 -2.189896349949178 99.000000000000000
5.524035573671699 -5.484584354502297 -2.338535746820689 71.000000000000000
2.987756220324419 -2.935334019881644 -1.334894362726208 56.000000000000000
2.946132920834819 -2.864034578704703 -1.385100265236085 80.000000000000000
2.938854532597643 -2.826740568292135 -1.450605320478919 70.000000000000000
2.976893730401351 -2.832662674154131 -1.539048372323331 34.000000000000000
2.983852364675582 -2.808954958936918 -1.612951674565495 84.000000000000000
2.941557050183540 -2.738397632791822 -1.659374739242362 118.000000000000000
2.949379890802486 -2.715578510456244 -1.733844172144130 83.000000000000000
2.972771726602824 -2.706083984620319 -1.818098382841888 81.000000000000000
2.998091556067122 -2.697132198136708 -1.904868742778166 74.000000000000000
3.089798991264660 -2.745776423721981 -2.036545610712516 56.000000000000000
3.144213855762826 -2.761427026651500 -2.148500874030010 9.000000000000000
5.347173768173880 -5.910384092248586 -0.994040529881955 57.000000000000000
5.347834925326254 -5.853192460822500 -1.126438470592762 81.000000000000000
5.343830468349303 -5.791915731321546 -1.256020735024574 77.000000000000000
5.346614863606296 -5.737146052240845 -1.387141188027201 76.000000000000000
5.344638998979000 -5.678324557097970 -1.516113516479183 84.000000000000000
5.346777467444815 -5.623537617175314 -1.644511897749183 82.000000000000000
5.349863398273423 -5.569963890958874 -1.773200460531363 83.000000000000000
5.350968155771030 -5.515173568143651 -1.900804121726912 94.000000000000000
5.391524961504414 -5.499782979757908 -2.042760329808669 94.000000000000000
5.441120620583098 -5.493129778697986 -2.190211776666085 101.000000000000000
5.497221513212682 -5.492271746042112 -2.341999722950278 91.000000000000000
2.988474098159022 -2.954610808948255 -1.343518340879184 49.000000000000000
2.938849579665697 -2.875138908412950 -1.390086114393186 76.000000000000000
2.931580268025558 -2.837806193140322 -1.455650075498101 62.000000000000000
2.958656345998978 -2.833459180210510 -1.538583017051977 40.000000000000000
2.979090873024988 -2.822671651960529 -1.619656233735304 81.000000000000000
2.931524873247855 -2.746886094832671 -1.663094314686952 120.000000000000000
2.933921855447070 -2.719112299997588 -1.734396392446619 80.000000000000000
2.959917306995305 -2.712225412171148 -1.820216154560416 78.000000000000000
2.982464869112341 -2.700966756549647 -1.905252183970506 90.000000000000000
3.033767746404560 -2.714091171796489 -2.010363741229868 46.000000000000000
3.117431778481007 -2.756428715098834 -2.141522786499209 50.000000000000000
3.133628531745317 -2.736990441990251 -2.228823803149476 0.000000000000000
6.807490647535912 -7.569137739670910 -1.278211626296922 31.000000000000000
5.351147021024580 -5.891751791890509 -1.137579176204763 81.000000000000000
5.344517961031264 -5.827411806628950 -1.267068822193850 75.000000000000000
5.347315530870466 -5.772520748178116 -1.398672522488611 77.000000000000000
5.348042235519862 -5.716426206988512 -1.528885760006498 80.000000000000000
5.350191566498918 -5.661480925004513 -1.657823856015438 82.000000000000000
5.353277614096018 -5.607744505288869 -1.787052419438489 81.000000000000000
5.351684819360136 -5.549985888385462 -1.914226275274814 91.000000000000000
5.357034593240000 -5.498558810559270 -2.043322630827296 102.000000000000000
5.409126827393608 -5.494971065630216 -2.191551038205017 97.000000000000000
5.402906256537833 -5.431995498059811 -2.316472510547508 55.000000000000000
2.978288192945631 -2.963176167752778 -1.347267767974356 5.000000000000000
2.931518894144372 -2.886231460569462 -1.395063055669394 66.000000000000000
2.926956331678750 -2.851488181566296 -1.462033441079035 33.000000000000000
2.962006724833201 -2.854963560868534 -1.549359618731479 33.000000000000000
2.974263003448220 -2.836391688617986 -1.626358439907385 68.000000000000000
2.921463724399417 -2.755347121166257 -1.666798112819639 107.000000000000000
2.921154159571936 -2.725089796777150 -1.736513741816242 82.000000000000000
2.947052017077582 -2.718323483042207 -1.822311128808755 76.000000000000000
2.972186324867206 -2.709611191783002 -1.909036311764831 95.000000000000000
2.988674209235135 -2.691709289817934 -1.991148304411446 71.000000000000000
3.096039519401715 -2.756035278816311 -2.138154539836325 50.000000000000000
3.125433457754282 -2.748438961181538 -2.234709148370199 1.000000000000000
6.795066994614674 -7.600178287757365 -1.288615742958251 9.000000000000000
5.346303644580072 -5.921566061665447 -1.147036493439423 17.000000000000000
5.347687723787138 -5.865882761027081 -1.278771067369621 76.000000000000000
5.350504580009408 -5.810849038673997 -1.410925295343384 74.000000000000000
5.348574904512323 -5.751725845268249 -1.540912811191547 79.000000000000000
5.345373360946573 -5.690943451091493 -1.668652830447843 81.000000000000000
5.351128586669996 -5.639944057761510 -1.799125863924977 80.000000000000000
5.352220703101580 -5.584856108928917 -1.927666928660186 86.000000000000000
5.354860505130124 -5.530508490679779 -2.056202520452795 89.000000000000000
5.377172306753742 -5.496684600313183 -2.192827487095268 97.000000000000000
5.395162582701781 -5.458351061310447 -2.327879807401098 71.000000000000000
2.962691240372545 -2.966325245996671 -1.348551500382013 1.000000000000000
2.929521087604448 -2.902642917133714 -1.402606963084928 55.000000000000000
2.924954908910577 -2.867809638797412 -1.469765510705901 19.000000000000000
2.962549322964902 -2.873912289439453 -1.558741050209775 42.000000000000000
2.974733410252355 -2.855264091347352 -1.636008590011305 46.000000000000000
2.911373702937698 -2.763780628285668 -1.670486097085430 96.000000000000000
2.908376085112608 -2.731024199440388 -1.738608457823684 79.000000000000000
2.934176037083092 -2.724378188469005 -1.824383312136380 82.000000000000000
2.956555949133596 -2.713343007367704 -1.909367079430125 101.000000000000000
2.972990057506985 -2.695572096347391 -1.991386750824143 72.000000000000000
3.021769542374795 -2.708122904151502 -2.097999801903245 41.000000000000000
3.130374907326253 -2.771547827327211 -2.250062128124457 23.000000000000000
7.259627341304139 -8.168040341197974 -1.390389819421828 47.000000000000000
6.800926108674269 -7.577730514100442 -1.472531262834067 18.000000000000000
5.348009237216531 -5.901498756457643 -1.289857986824723 69.000000000000000
5.353496176695925 -5.849248638408885 -1.423202393257508 74.000000000000000
5.348927796968938 -5.787081975441447 -1.552957704618426 79.000000000000000
5.348418175261004 -5.729008651911860 -1.682004425932585 80.000000000000000
5.351490271669582 -5.675020008195603 -1.812115829301587 79.000000000000000
5.349899148576095 -5.616973659688769 -1.940155150091694 87.000000000000000
5.355202279009736 -5.565284227198747 -2.070129469714824 88.000000000000000
5.361341661592706 -5.514815053834734 -2.200643203626646 91.000000000000000
5.395336676991626 -5.492907847463342 -2.342778163033066 92.000000000000000
5.446373787801931 -5.487609573016256 -2.494499897310968 87.000000000000000
2.924757982208689 -2.916400027874566 -1.408863947625813 37.000000000000000
2.930906173550269 -2.892080685354711 -1.481564818441349 16.000000000000000
2.960311769220728 -2.890281702024969 -1.566716921448446 57.000000000000000
3.004503584802138 -2.902576295202826 -1.661934132099627 35.000000000000000
2.895916812939417 -2.767085913759722 -1.671077903153331 91.000000000000000
2.890260142794072 -2.731879777626733 -1.737477823619658 78.000000000000000
2.929263949935547 -2.737842812862245 -1.831418423972673 75.000000000000000
2.946237085343602 -2.721915697606168 -1.913112116963134 101.000000000000000
2.954668215800917 -2.696961221656925 -1.989814037395104 70.000000000000000
2.982191345666703 -2.690739802193642 -2.081593162633259 73.000000000000000
3.095754798976088 -2.759580114438584 -2.236954138245050 34.000000000000000
7.268939255086364 -8.227180295579668 -1.405934027573898 47.000000000000000
7.059582880061122 -7.912999204101194 -1.542526873490946 45.000000000000000
5.313800953808615 -5.899035921288958 -1.292606135930497 0.000000000000000
5.353640875806283 -5.884806970841526 -1.434793465566073 75.000000000000000
5.349100549335314 -5.822493922890589 -1.565020073674070 77.000000000000000
5.348604327844543 -5.764278792380198 -1.694537620673713 80.000000000000000
5.351670860875446 -5.710152299445424 -1.825123479108961 79.000000000000000
5.352748651297326 -5.654767536058352 -1.954602258561883 86.000000000000000
5.352692475067677 -5.597324995406770 -2.083035324508076 84.000000000000000
5.356125542562706 -5.543970479589980 -2.212851213647723 90.000000000000000
5.368605088272580 -5.500143730571248 -2.346016698412772 91.000000000000000
5.414095613845381 -5.489678886856886 -2.495157390494217 90.000000000000000
2.930614817043414 -2.940883596720119 -1.420297315588583 19.000000000000000
2.942056268626322 -2.921719056769192 -1.496103828465228 16.000000000000000
2.952654594829490 -2.901427304077868 -1.571857004559807 49.000000000000000
2.972699088712765 -2.890519851282170 -1.653859461172563 9.000000000000000
2.885788015882090 -2.775448717710452 -1.674727423418724 80.000000000000000
2.877480512486886 -2.737712563732038 -1.739520571491456 80.000000000000000
2.911041536814680 -2.738849599681536 -1.830124597196574 78.000000000000000
2.935888979410566 -2.730460155082963 -1.916840953777831 98.000000000000000
2.944280372508422 -2.705542288540260 -1.993559132050515 69.000000000000000
2.969062337794291 -2.697026546865544 -2.083534650490367 73.000000000000000
3.058651685706766 -2.745094362634561 -2.221866513937123 51.000000000000000
3.107079555250631 -2.755006837820430 -2.334885427790028 0.000000000000000
7.267474276295890 -8.274522104311826 -1.419477928194899 46.000000000000000
7.289968896391941 -8.220186475743631 -1.607390367533513 44.000000000000000
6.796398040923140 -7.590370986953350 -1.667398557559929 19.000000000000000
5.345686034339067 -5.911662078165106 -1.444261851554927 20.000000000000000
5.351738247589160 -5.860858123671353 -1.577879521220434 75.000000000000000
5.345959048651639 -5.796730431724620 -1.706242114137775 78.000000000000000
5.351669990864911 -5.745340251592109 -1.838148444035871 76.000000000000000
5.355397749169907 -5.692632508958471 -1.969073402932224 85.000000000000000
5.358000121305542 -5.637804469244419 -2.099078718547119 32.000000000000000
5.358750230879835 -5.581469613368026 -2.228384373956766 89.000000000000000
5.363180375091716 -5.529245723289106 -2.358574568615583 86.000000000000000
5.384520547988293 -5.494337074354108 -2.496986700338983 93.000000000000000
2.954965730378208 -2.984251000924608 -1.440841245859815 13.000000000000000
2.971650606762675 -2.970065111335649 -1.520207191718871 27.000000000000000
2.952923316004079 -2.920446010761275 -1.581257407264240 37.000000000000000
2.980830040884876 -2.917278079178877 -1.667994267406415 9.000000000000000
2.875630698387982 -2.783783804650432 -1.678361050386540 81.000000000000000
2.869981381723021 -2.748568772941081 -1.744756879618585 78.000000000000000
2.900764674405786 -2.747281635767246 -1.833800402850742 94.000000000000000
2.922878509583611 -2.736510970269301 -1.918824882007232 101.000000000000000
2.923357039168935 -2.704375700075238 -1.990135596984288 70.000000000000000
2.958540549692662 -2.705663660525322 -2.087300163353836 71.000000000000000
2.993000099402179 -2.704489470374075 -2.185733540396519 60.000000000000000
3.106434659258680 -2.773355002969962 -2.346692509737460 1.000000000000000
7.270993882158300 -8.327904677320602 -1.434069611657057 45.000000000000000
7.298694730903497 -8.279386090991215 -1.623932628338608 44.000000000000000
6.783276218338626 -7.621405791269295 -1.678373471706596 14.000000000000000
6.810774670445466 -7.577547969892207 -1.854953140217009 13.000000000000000
5.354176648418913 -5.899291811629628 -1.590762250861280 63.000000000000000
5.351074532348083 -5.837866174445787 -1.720504541847377 77.000000000000000
5.351487301282525 -5.780583183117621 -1.851190354142346 79.000000000000000
5.355197537162916 -5.727735111395106 -1.982587660522454 85.000000000000000
5.355134706787105 -5.669948992967121 -2.112015788131170 49.000000000000000
5.358520539493986 -5.616259143999489 -2.242830991239242 89.000000000000000
5.362916890981480 -5.563878768537670 -2.373485089365690 83.000000000000000
5.368235475804283 -5.512506948409811 -2.504950901724404 88.000000000000000
2.947211105473059 -2.995435217167277 -1.445839050354599 15.000000000000000
2.969122569674268 -2.986613101534284 -1.528022692238121 30.000000000000000
2.971627507122095 -2.957951852284684 -1.600654490663406 28.000000000000000
2.967640657103118 -2.923271616488024 -1.670250276618467 0.000000000000000
2.865444960705717 -2.792091092315719 -1.681978748194348 72.000000000000000
2.854527824233686 -2.751789836727800 -1.745149734308573 78.000000000000000
2.893089142408384 -2.758192993480474 -1.839132030277855 101.000000000000000
2.912481592638815 -2.744991069781908 -1.922517880113902 103.000000000000000
2.918182584648281 -2.717744183879550 -1.997417571176432 65.000000000000000
2.947989311250351 -2.714271977643278 -2.091049174967945 67.000000000000000
2.979711460453450 -2.710845214922764 -2.187622872702859 56.000000000000000
3.100504012253803 -2.787076861848754 -2.354574576467133 28.000000000000000
3.184442385908802 -2.825443398864000 -2.498057703625618 0.000000000000000
7.274243467050997 -8.381380350848691 -1.448692305658227 45.000000000000000
7.296681466166723 -8.326804893399002 -1.638176989389568 43.000000000000000
7.355756393572864 -8.314523266129523 -1.835498497793657 37.000000000000000
6.844596512781742 -7.661415641683205 -1.879187309074838 11.000000000000000
5.335399468432538 -5.914497344055111 -1.597375872928742 0.000000000000000
5.355971246633441 -5.879086064578613 -1.734796544414758 76.000000000000000
5.356394476654950 -5.821610342354266 -1.866085537228727 78.000000000000000
5.354814696638278 -5.762892180987313 -1.996118552336507 83.000000000000000
5.354746676406635 -5.704947484900451 -2.126011812300231 50.000000000000000
5.360750860797098 -5.653891371351581 -2.258407972315744 87.000000000000000
5.359825504749004 -5.595806039122380 -2.387234661939120 83.000000000000000
5.367744220826742 -5.547035385952125 -2.520341327434850 83.000000000000000
2.936765387313744 -3.003902405366989 -1.449522472715192 9.000000000000000
2.969150529095219 -3.005852410505057 -1.537209296691418 2.000000000000000
2.968982836003412 -2.974445410296308 -1.608668834995059 5.000000000000000
2.863125551023482 -2.808113458621027 -1.690241072329016 59.000000000000000
2.844336302792179 -2.760049566853936 -1.748742801308391 84.000000000000000
2.887986832538488 -2.771606453481426 -1.846129389318209 105.000000000000000
2.902055766851653 -2.753442710020060 -1.926194582258103 105.000000000000000
2.910333836422639 -2.728669554310896 -2.002901750947925 53.000000000000000
2.947806633600651 -2.732489825341127 -2.102196804608742 57.000000000000000
2.966411779506272 -2.717156546197427 -2.189488857670415 62.000000000000000
3.050629780447788 -2.761087476319194 -2.328956395203306 42.000000000000000
3.167826874059987 -2.830157396326752 -2.498052443004411 2.000000000000000
7.274631771026861 -8.431945271892198 -1.462824503411593 45.000000000000000
7.299630265954909 -8.380253370180007 -1.653616470630863 43.000000000000000
7.366352491761226 -8.376837397308229 -1.853728725078579 37.000000000000000
7.050351871074447 -7.939698568682468 -1.951240921182873 56.000000000000000
6.808665573174761 -7.593807715891647 -2.054111361813002 6.000000000000000
5.350158178650672 -5.908803378026247 -1.745694733692849 13.000000000000000
5.358455118415881 -5.859848674820124 -1.880088362851991 76.000000000000000
5.354248872360447 -5.798103031331468 -2.009665706253582 82.000000000000000
5.354175296421853 -5.739999950152793 -2.140024174497071 53.000000000000000
5.360144710618956 -5.688797339440650 -2.272891003105212 83.000000000000000
5.367108126408970 -5.638845169409517 -2.405718087154385 83.000000000000000
5.364433828590084 -5.578877907831631 -2.534503302066598 81.000000000000000
2.931558660527455 -3.017763752440331 -1.455805534521601 0.000000000000000
2.950648787280162 -3.006350748409957 -1.536809328334845 0.000000000000000
2.950474408717166 -2.975046344050458 -1.608087066752635 1.000000000000000
2.868587611176887 -2.831919267004762 -1.703177730646363 51.000000000000000
2.834116629723457 -2.768281395581885 -1.752319903442336 89.000000000000000
2.874984487346535 -2.777453982909002 -1.848088085113829 98.000000000000000
2.891601135120815 -2.761865807569477 -1.929854952152265 104.000000000000000
2.920626330035030 -2.756749829003397 -2.020962201674206 44.000000000000000
2.942339425312874 -2.745904901542483 -2.109640011455620 83.000000000000000
2.947938475426267 -2.718662225342397 -2.187500502765148 87.000000000000000
3.016434525060829 -2.748902372114297 -2.315064254962579 43.000000000000000
3.151216927480625 -2.834809913777102 -2.498016138600913 49.000000000000000
3.198590352115899 -2.841532929948810 -2.618199069468860 1.000000000000000
6.200848400561173 -7.230366589003418 -1.258944836710905 5.000000000000000
7.310075049272552 -8.442765439336814 -1.670861607178385 43.000000000000000
7.374022775859721 -8.436316751348759 -1.871349184950365 38.000000000000000
7.001925057627553 -7.933154080681471 -1.953384708533964 46.000000000000000
7.739165783599065 -8.684433888648870 -2.352731393010366 32.000000000000000
6.812874934026970 -7.570553960138341 -2.239337372961189 12.000000000000000
5.355079439466956 -5.892394931858034 -1.892263767029325 60.000000000000000
5.358740534228595 -5.839077563755493 -2.025209394423862 81.000000000000000
5.353420213612038 -5.775105699340249 -2.154052501202750 38.000000000000000
5.359354468010181 -5.723756683760752 -2.287390021689219 86.000000000000000
5.361022893444757 -5.668104299959590 -2.418315773578961 82.000000000000000
5.366208316256179 -5.616254171560045 -2.551170983485312 79.000000000000000
5.367043557179305 -5.560248068946395 -2.681582530357399 79.000000000000000
5.371282452809840 -5.507937719820223 -2.814393520231082 84.000000000000000
5.400213449825927 -5.480478452155201 -2.960673340944874 88.000000000000000
2.897421678007752 -2.879153440856311 -1.730178916706597 44.000000000000000
2.826476356404862 -2.779048939950906 -1.757502317506876 94.000000000000000
2.867176116662695 -2.788318390008384 -1.853387620542472 85.000000000000000
2.875926597384920 -2.765268819334890 -1.930015171771514 108.000000000000000
2.922972143150840 -2.777541700022695 -2.033654826906282 81.000000000000000
2.936805316773889 -2.759320988656868 -2.117079642556296 107.000000000000000
2.939780024622727 -2.729645933356617 -2.193150812265058 96.000000000000000
2.990064216160177 -2.743604810444808 -2.307026793806811 57.000000000000000
3.124402348238831 -2.830152149582589 -2.489812197040716 64.000000000000000
3.169111296310403 -2.834986976314845 -2.607628507997834 37.000000000000000
6.158242666625412 -7.223737057839307 -1.262317780177985 25.000000000000000
7.309870525451742 -8.493419766522900 -1.685775065294890 41.000000000000000
7.381381436799382 -8.495915887305701 -1.889011731117644 37.000000000000000
6.925067062108917 -7.893886586798041 -1.947408724450043 37.000000000000000
7.779085124774297 -8.782715934286948 -2.382964422549644 33.000000000000000
7.085346400612409 -7.921834230171703 -2.346031716113119 17.000000000000000
5.828796362265142 -6.453375633130277 -2.074289252964744 21.000000000000000
5.355177875319631 -5.871546093158753 -2.037800873392515 80.000000000000000
5.360321626320213 -5.818775170479034 -2.171272340776375 83.000000000000000
5.360994901661504 -5.761579238384760 -2.303028081499013 84.000000000000000
5.362638451932774 -5.705735921637340 -2.434478676511529 82.000000000000000
5.365162960020850 -5.650943131970804 -2.566609462238526 77.000000000000000
5.363347450041450 -5.592034061764020 -2.696159339172089 78.000000000000000
5.370145535535857 -5.542278049250268 -2.830740354035131 82.000000000000000
5.375430574306091 -5.490712246598287 -2.964544006398094 83.000000000000000
5.368096839019397 -5.427075432641145 -3.092262048296182 23.000000000000000
3.006640456597197 -3.007301299381948 -1.805727570673010 15.000000000000000
2.821387119507880 -2.792374766589234 -1.764299828484587 75.000000000000000
2.859320390357873 -2.799169376165657 -1.858677408487031 73.000000000000000
2.870605866843375 -2.778626042354349 -1.937126550846539 105.000000000000000
2.914876325626812 -2.788509001474570 -2.039145300118564 98.000000000000000
2.923490563786165 -2.765441169039963 -2.118924742418223 101.000000000000000
2.926448316993282 -2.735823972926097 -2.194946795967969 95.000000000000000
2.973987825163729 -2.747621222440496 -2.306853708793106 65.000000000000000
3.062063472822504 -2.792897740752468 -2.453027822529933 39.000000000000000
3.139731182290399 -2.828304780608074 -2.596994449540245 40.000000000000000
3.203616502930910 -2.848405035836270 -2.733218991221029 18.000000000000000
6.133666605176471 -7.238103852228980 -1.269318951600001 31.000000000000000
6.183303923823058 -7.227814957051299 -1.438695079667632 18.000000000000000
7.388427755780522 -8.555633611688464 -1.906715710366541 41.000000000000000
6.853682629828294 -7.860184061416334 -1.942731306755147 0.000000000000000
7.813264049780106 -8.875422641643173 -2.411721754394877 13.000000000000000
7.088372976196765 -7.974102982148800 -2.364283016140208 16.000000000000000
5.797384848178490 -6.458407387954620 -2.077758150825949 21.000000000000000
5.419091070269260 -5.978677211035189 -2.076317600555481 45.000000000000000
5.359169742982198 -5.854007823261494 -2.185341179563807 81.000000000000000
5.359825957429567 -5.796650742023125 -2.317561192518324 82.000000000000000
5.364049946367840 -5.743434629657949 -2.450663344426773 79.000000000000000
5.369144964042143 -5.691209656003464 -2.584572499759640 77.000000000000000
5.364695702147380 -5.629325190348291 -2.713380534438842 79.000000000000000
5.368822775119845 -5.576670493494845 -2.847102424630764 78.000000000000000
5.371442203040464 -5.522256083177419 -2.979915504037957 83.000000000000000
3.018990628004023 -3.039496535766291 -1.823593265256425 2.000000000000000
2.818820401696178 -2.808281286477954 -1.772722132484142 80.000000000000000
2.848834528813717 -2.807461485506511 -1.862269001738552 63.000000000000000
2.862642073040882 -2.789473791663299 -1.942486120228347 104.000000000000000
2.906732593806923 -2.799462069464727 -2.044625576903689 94.000000000000000
2.912727377344056 -2.773956660823865 -2.122613405484222 97.000000000000000
2.915659416801915 -2.744360684528022 -2.198644718555320 91.000000000000000
2.955376038867668 -2.749211824112617 -2.304667180971308 73.000000000000000
3.045678616070894 -2.797202488813820 -2.452827756729416 51.000000000000000
3.123064002419710 -2.832928340555093 -2.596784984181389 61.000000000000000
3.164120591740942 -2.833073464713149 -2.713601965001351 48.000000000000000
6.114157660038067 -7.258459742119107 -1.277346577963107 24.000000000000000
6.148219126205507 -7.230243239319560 -1.443254751052140 30.000000000000000
6.200735915590426 -7.223946338755240 -1.613632362061364 4.000000000000000
7.547344438488620 -8.708596804384229 -2.156411283935338 14.000000000000000
7.864980469955456 -8.989050111528492 -2.446206103264585 13.000000000000000
7.085953709331134 -8.020611968695251 -2.380827519338359 13.000000000000000
5.760813938753865 -6.457517806314318 -2.079299532100347 19.000000000000000
5.726007059123102 -6.356729767550307 -2.209010145113012 21.000000000000000
5.363022224069769 -5.894995519200367 -2.201555007884503 45.000000000000000
5.368856487704206 -5.843075400789855 -2.336628741396653 82.000000000000000
5.367853884778875 -5.783997906782025 -2.468063387760835 79.000000000000000
5.365112556433615 -5.723246913759181 -2.598789722340836 78.000000000000000
5.368434903344363 -5.669424283874362 -2.731944175485594 77.000000000000000
5.367313825790660 -5.611114353254941 -2.863479353893235 80.000000000000000
5.369878180284430 -5.556517972557653 -2.996741622087058 60.000000000000000
5.297787508304666 -5.426211739764715 -3.087558529338454 22.000000000000000
3.007882594293335 -3.048227908852237 -1.827371039127390 3.000000000000000
2.816168623567616 -2.824204486364642 -1.781147748737063 83.000000000000000
2.830600608888334 -2.808066507462697 -1.860769379215826 64.000000000000000
2.854630844801868 -2.800307636998129 -1.947835690728489 108.000000000000000
2.898540976687709 -2.810400742478881 -2.050095576585738 102.000000000000000
2.899382917470574 -2.779995489949284 -2.124415160400965 101.000000000000000
2.907385088504368 -2.755278409521936 -2.204254257830689 86.000000000000000
2.946926979050441 -2.760221203557563 -2.310390505428874 81.000000000000000
3.014154443812928 -2.787439342257939 -2.440334178360701 31.000000000000000
3.088810183637528 -2.821420560033693 -2.581839203528418 52.000000000000000
3.142311605403965 -2.833338097209987 -2.708994094021255 63.000000000000000
3.171660114093537 -2.822340806160715 -2.818542264105376 38.000000000000000
6.112384187306177 -7.300043678442619 -1.289102726550282 6.000000000000000
6.125930002521703 -7.247637259336737 -1.450770747319599 30.000000000000000
6.162865107924218 -7.223517098177520 -1.617194606059287 24.000000000000000
7.566082430342107 -8.783627933890584 -2.178966033752123 20.000000000000000
7.892899886331794 -9.076446331808951 -2.473591188967033 12.000000000000000
7.080720328726628 -8.064249512168697 -2.396517354797252 10.000000000000000
5.729459572486499 -6.462301294229913 -2.082645190577891 25.000000000000000
5.715398710268448 -6.384617050551006 -2.220087092993231 27.000000000000000
5.661352062906018 -6.262032115984512 -2.339582569222191 13.000000000000000
5.364692166244243 -5.875445573485843 -2.350070908386223 79.000000000000000
5.366259059535371 -5.819030204602623 -2.483096289690932 78.000000000000000
5.368675041274796 -5.763652917021425 -2.616798301991098 76.000000000000000
5.366776769431169 -5.704106060680707 -2.747886670807144 76.000000000000000
5.368202939509431 -5.648328392487706 -2.881257984086040 79.000000000000000
5.370709535775246 -5.593519716721628 -3.015031718071842 30.000000000000000
2.994170309239409 -3.054302621549641 -1.829558322454951 1.000000000000000
2.810862313657426 -2.837550311812542 -1.787942191904697 87.000000000000000
2.822650762883671 -2.818838943375320 -1.866013312413108 71.000000000000000
2.846572209984417 -2.811127418103106 -1.953175182243877 109.000000000000000
2.885199471262119 -2.816344585636007 -2.051926700929527 95.000000000000000
2.888571355290376 -2.788444493416649 -2.128066923884274 96.000000000000000
2.899062798484579 -2.766181343453036 -2.209853313135312 74.000000000000000
2.930856289041308 -2.764072997832622 -2.310133735444680 87.000000000000000
2.962631389292415 -2.758791501139070 -2.411395592685308 44.000000000000000
3.002113997956324 -2.761383760294554 -2.522634985814675 42.000000000000000
3.125531023948585 -2.838038007800237 -2.708662416141252 70.000000000000000
3.149818054675503 -2.822777003897508 -2.813712175882181 64.000000000000000
3.310474904901587 -2.927562452789291 -3.047221355437636 12.000000000000000
6.967381392528017 -8.371345276507853 -1.483320192185095 43.000000000000000
6.111211148132367 -7.274051415862423 -1.460074759158772 19.000000000000000
6.135246624862823 -7.234967339580327 -1.623383025448794 31.000000000000000
6.183581628400890 -7.222631778435906 -1.794960845821101 15.000000000000000
7.359348060477449 -8.515012285257953 -2.323924677491279 10.000000000000000
7.088098520381926 -8.122637841033331 -2.416592201587385 7.000000000000000
5.718686711295719 -6.490304228174305 -2.093459654206999 23.000000000000000
5.694366110447370 -6.400936252055608 -2.227131270785090 30.000000000000000
5.676549689809945 -6.318355715194953 -2.361571653662433 14.000000000000000
5.612916460542809 -6.186201357453660 -2.474878900472925 22.000000000000000
5.367055845298354 -5.856925516884470 -2.499343722483234 77.000000000000000
5.366857301306189 -5.798568448067468 -2.632305198963992 77.000000000000000
5.370085566125219 -5.744350650164924 -2.766498259613293 75.000000000000000
5.368886003639111 -5.685607334395076 -2.899057143107215 78.000000000000000
5.373907149364056 -5.633282959105793 -3.034795059417053 22.000000000000000
2.800370363698707 -2.845694928559916 -1.791458121108710 89.000000000000000
2.814653796004525 -2.829597449707705 -1.871247252835651 75.000000000000000
2.841014191893631 -2.824466128192019 -1.960262597754435 108.000000000000000
2.871848370896472 -2.822244013200836 -2.053734565256990 95.000000000000000
2.877731032005838 -2.796863872216928 -2.131701805534334 96.000000000000000
2.895741822665305 -2.781920100686854 -2.219311571154772 81.000000000000000
2.917309209427397 -2.770253219922819 -2.311839975884433 91.000000000000000
2.943952906194736 -2.760417902219981 -2.408990305337696 66.000000000000000
2.980808271020677 -2.760945473193583 -2.518007574545118 61.000000000000000
3.061579082721881 -2.799536661091287 -2.667199280789813 47.000000000000000
3.132960882239855 -2.827582083371455 -2.813275612546985 74.000000000000000
3.172601397981802 -2.825688617335156 -2.935469333409301 57.000000000000000
7.282872444906409 -8.803253503145775 -1.565094473370406 43.000000000000000
6.109046401454990 -7.315618841605471 -1.472416051670475 0.000000000000000
6.117768618725778 -7.258384075562612 -1.632235197314770 26.000000000000000
6.145530836074322 -7.222225744227247 -1.798057296717989 29.000000000000000
6.204175392770723 -7.222713382105713 -1.974030165850891 3.000000000000000
7.100275341379469 -8.187041254194632 -2.438464594517190 3.000000000000000
5.794845747625491 -6.617734955831667 -2.136363923958277 11.000000000000000
5.680968814814502 -6.425897131883517 -2.237171288827998 26.000000000000000
5.683726760480440 -6.366205994902147 -2.380393106751589 8.000000000000000
5.599777830201222 -6.210821108376857 -2.485229448587662 21.000000000000000
5.370215153191460 -5.897705325294350 -2.516814872895400 28.000000000000000
5.372557152454130 -5.841910718652295 -2.651628329707875 73.000000000000000
5.370601686014609 -5.781910369929802 -2.783805669272776 75.000000000000000
5.369362605875710 -5.722950396235291 -2.916876406167036 78.000000000000000
5.374316033290913 -5.670421056972300 -3.053128921443927 20.000000000000000
2.789850695234654 -2.853810791911996 -1.794957677012287 87.000000000000000
2.804065212549315 -2.837766760950823 -1.874769877668575 79.000000000000000
2.825236041003716 -2.827643027013882 -1.960301054530508 103.000000000000000
2.866083485788345 -2.835613898625503 -2.060981142663172 82.000000000000000
2.866862054606571 -2.805253543254253 -2.135319769476329 94.000000000000000
2.887304606317035 -2.792807709797229 -2.224895774286423 94.000000000000000
2.901246629111903 -2.773992996830437 -2.311526519554233 93.000000000000000
2.935285869115257 -2.771396206517748 -2.414762086225334 71.000000000000000
2.971973002534821 -2.772006265935438 -2.523888613591896 68.000000000000000
3.010360393921748 -2.772085609307704 -2.636417203967619 51.000000000000000
3.061959397927221 -2.783106505620781 -2.763928150986644 42.000000000000000
3.153159556511541 -2.828449812161580 -2.932671217723367 67.000000000000000
3.171555416007205 -2.806418862660712 -3.038123336946266 46.000000000000000
7.288727946233968 -8.863620597961573 -1.581053705975634 42.000000000000000
7.230058532624579 -8.710679599370978 -1.757910842996516 47.000000000000000
6.107787449285444 -7.290832223838511 -1.643107409206465 7.000000000000000
6.125295407903485 -7.242672486647008 -1.806318747365181 31.000000000000000
6.163351428225553 -7.219505016400630 -1.975920669044220 24.000000000000000
7.122287694651527 -8.263413106532798 -2.463915141679477 0.000000000000000
5.791139032848725 -6.654782440371076 -2.150111479329555 31.000000000000000
5.680229163357994 -6.465379618548580 -2.252260872943885 19.000000000000000
5.698307254697015 -6.422804478582794 -2.402484768102426 5.000000000000000
5.558389664498386 -6.204022322860429 -2.482997252323693 51.000000000000000
5.470377516472668 -6.046022777802499 -2.580171001612811 1.000000000000000
5.370336530918986 -5.876946158818970 -2.667171796307841 55.000000000000000
5.373468695734165 -5.822304609260042 -2.802466630123222 72.000000000000000
5.372188088224791 -5.763098514922986 -2.936112166118340 78.000000000000000
5.377071066003922 -5.710333876875421 -3.072941549355004 19.000000000000000
2.786924902251273 -2.869745804826353 -1.803372564084659 78.000000000000000
2.798518612616027 -2.851072035402817 -1.881684836465903 79.000000000000000
2.822112154484835 -2.843500773364013 -1.969132382392619 97.000000000000000
2.860251722587067 -2.848983591912793 -2.068223531548122 70.000000000000000
2.858478583648767 -2.816090196105998 -2.140803632801714 96.000000000000000
2.871302973869222 -2.796359676975269 -2.224645542381195 82.000000000000000
2.890184915312368 -2.782478832982424 -2.315181785369263 86.000000000000000
2.924083978370133 -2.779994596834035 -2.418466234829973 91.000000000000000
2.953187270830698 -2.773750527018026 -2.521304614137441 74.000000000000000
2.956949895480773 -2.742084992789829 -2.603347308357656 49.000000000000000
2.986475379587307 -2.733761598323956 -2.709962422368268 57.000000000000000
3.111793884316243 -2.811305595217147 -2.909315326985510 52.000000000000000
3.149666554733018 -2.807138553575553 -3.032818777148742 68.000000000000000
7.291763066546489 -8.921031218939294 -1.596501604151728 41.000000000000000
7.349053579803082 -8.907961558353467 -1.802491707631519 38.000000000000000
6.970187344371008 -8.371205027130575 -1.890648242829425 23.000000000000000
6.115093478445805 -7.275101140878940 -1.817556364972351 19.000000000000000
6.132732967215994 -7.228074600948315 -1.981004774337489 31.000000000000000
6.179510353785731 -7.214163947283603 -2.153390426552608 15.000000000000000
5.782159125161619 -6.685994883501235 -2.161968609648509 19.000000000000000
5.679281050021548 -6.504920799513362 -2.267367669109843 18.000000000000000
5.605596322463536 -6.358220540865086 -2.379230426693590 7.000000000000000
5.524745777560121 -6.205636049162309 -2.484119425202589 84.000000000000000
5.477529906983436 -6.032740299349833 -2.737503716655467 11.000000000000000
5.373561379240046 -5.859997530212026 -2.819816137525417 70.000000000000000
5.374786964680871 -5.803323914918580 -2.955373516635534 77.000000000000000
5.371968651336442 -5.742167423808239 -3.088392799825498 18.000000000000000
2.781382771097363 -2.883072738763000 -1.810142940113946 75.000000000000000
2.792905685419316 -2.864377648843049 -1.888595911559914 78.000000000000000
2.813864185059385 -2.854262694850162 -1.974430757668339 88.000000000000000
2.864403576842344 -2.872431560045539 -2.082769570026200 85.000000000000000
2.850047437551537 -2.826911641389456 -2.146276817067800 93.000000000000000
2.862798754728723 -2.807194510349084 -2.230198706615543 82.000000000000000
2.881580598275820 -2.793344479258640 -2.320822241326475 94.000000000000000
2.890560595258030 -2.767221242279679 -2.403616034523330 68.000000000000000
2.912235851825863 -2.754429491074894 -2.499635277802942 65.000000000000000
2.938196871960775 -2.743898939913443 -2.600569504770407 62.000000000000000
2.970072294220151 -2.738049649617954 -2.709289700887088 71.000000000000000
2.992885386143659 -2.723222583180914 -2.812806397152352 54.000000000000000
3.120574959763136 -2.801263063394932 -3.020457112782525 73.000000000000000
7.294503344705001 -8.978537746050090 -1.611980426941129 41.000000000000000
7.351626840208915 -8.965433339700652 -1.818868833562187 36.000000000000000
7.466632070571501 -9.022414352841595 -2.042055035583293 27.000000000000000
6.099700623181920 -7.301509630397885 -1.827280335570060 0.000000000000000
6.117253742316816 -7.254494517025353 -1.990962569854082 24.000000000000000
6.148668291879149 -7.222855624806480 -2.158290726394685 27.000000000000000
5.869244371551583 -6.829174041377587 -2.210053487946526 8.000000000000000
5.675589211963505 -6.541598224227366 -2.281472281187926 19.000000000000000
5.718883407755176 -6.527751875176641 -2.443580165378330 4.000000000000000
5.501298848830947 -6.218598165615935 -2.489773449623361 52.000000000000000
5.370908308000455 -5.894966263871940 -2.835844264917134 22.000000000000000
5.374622362826476 -5.840869301370852 -2.973256844154088 75.000000000000000
2.773253254353842 -2.893769257969750 -1.815259174014838 72.000000000000000
2.789741933091443 -2.880280549477718 -1.897213720973880 81.000000000000000
2.810587865093391 -2.870134991796379 -1.983260190054693 60.000000000000000
2.860902272762668 -2.888356420775811 -2.091845924599741 108.000000000000000
2.846558234316404 -2.842700540817405 -2.155517537363570 63.000000000000000
2.861705594594114 -2.825377917757544 -2.241583527713566 90.000000000000000
2.870451656194667 -2.801776861200049 -2.324446108106896 83.000000000000000
2.881853829052858 -2.778071286346779 -2.409319911499701 78.000000000000000
2.900960405920082 -2.762977878862805 -2.503309402410894 65.000000000000000
2.934142092519681 -2.759435541963755 -2.610809389950064 58.000000000000000
2.953677231327654 -2.742277355049872 -2.708586664871049 77.000000000000000
2.978830149167186 -2.729831754074099 -2.814314399078634 71.000000000000000
3.012188638000874 -2.723469539789362 -2.930784412906884 48.000000000000000
7.296948180941535 -9.036139052126565 -1.627489562266755 41.000000000000000
7.363887887125697 -9.035251164821974 -1.837768095932283 35.000000000000000
7.478520879751020 -9.092273101275806 -2.062183140010706 31.000000000000000
6.994938698435272 -8.424816462889119 -2.111966896465268 0.000000000000000
6.109200162331564 -7.289894165153673 -2.003376259574436 5.000000000000000
6.127898473822845 -7.243348819928670 -2.166698448644291 27.000000000000000
5.763743254289120 -6.748458339136318 -2.185674665538805 14.000000000000000
5.838373780414360 -6.771625935968949 -2.363044177217767 10.000000000000000
5.699659650839831 -6.547021334271389 -2.451691561592455 10.000000000000000
5.465172417036886 -6.217103613744976 -2.489628307201373 24.000000000000000
6.367162766008331 -7.173030188598966 -3.061290614202615 9.000000000000000
5.350367034005236 -5.910428848526903 -2.842481209776231 42.000000000000000
5.379302996767756 -5.884003086290028 -2.993971100310567 40.000000000000000
2.770099725179089 -2.909727221516654 -1.823671847928706 65.000000000000000
2.781480669683096 -2.890988936621509 -1.902405911605439 81.000000000000000
2.802226016859548 -2.880881623080870 -1.988543794898772 26.000000000000000
2.849834617348531 -2.896691981160921 -2.095424114598275 93.000000000000000
2.850438126143837 -2.865999104191768 -2.170436735727994 103.000000000000000
2.858030175259073 -2.841127205003471 -2.251025482374143 81.000000000000000
2.871629217855495 -2.822302017497604 -2.338096011114084 58.000000000000000
2.875556797061900 -2.791290875591313 -2.417078475083459 65.000000000000000
2.899443041137294 -2.780882293695922 -2.515456960436617 58.000000000000000
2.927565120657801 -2.772677334200259 -2.618871295944117 69.000000000000000
2.942137465569496 -2.750976871248179 -2.712321770651462 73.000000000000000
2.962353456856234 -2.734170032526242 -2.813508882141191 77.000000000000000
2.986005329593128 -2.719275717037795 -2.920542371952513 56.000000000000000
7.299096980625440 -9.093834007390292 -1.643028397032868 39.000000000000000
7.368315202774507 -9.096009658108777 -1.854843220370373 37.000000000000000
7.502500539601685 -9.177531894614244 -2.085830764135640 29.000000000000000
7.550716505664833 -9.150427547606530 -2.297697096460756 21.000000000000000
7.002594160247265 -8.407875222392725 -2.313690833180908 16.000000000000000
6.112068027795319 -7.269761103569608 -2.176863321531385 15.000000000000000
5.852306097723821 -6.895170517967574 -2.234948068008607 40.000000000000000
5.818571005808570 -6.791247488252878 -2.371221837716333 8.000000000000000
5.695468250110510 -6.583709028833178 -2.466317261757623 12.000000000000000
5.451782479004707 -6.241422462882362 -2.499809881059908 31.000000000000000
6.254525906304196 -7.091311109365974 -3.026449477118756 10.000000000000000
5.433043846298193 -6.040655155940938 -2.904290593450573 83.000000000000000
5.486930720020497 -6.040838238278246 -3.072501367396071 11.000000000000000
2.766860403937221 -2.925699590233554 -1.832086628091469 59.000000000000000
2.778164598721701 -2.906905907500911 -1.911021587357347 75.000000000000000
2.793816925797587 -2.891613015028148 -1.993816730907519 4.000000000000000
2.841222209830567 -2.907538744199752 -2.100821459654017 80.000000000000000
2.839320875828709 -2.874318787993020 -2.174003787732124 104.000000000000000
2.854268284990580 -2.856889474906057 -2.260468775601186 80.000000000000000
2.875139084382393 -2.845300684060800 -2.353771285137942 80.000000000000000
2.871640663048611 -2.806901467766930 -2.426900915277256 63.000000000000000
2.897819947511381 -2.798813193723896 -2.527611571907792 53.000000000000000
2.913642515229258 -2.778974735734827 -2.620382168996743 74.000000000000000
2.937810054624951 -2.766464291649270 -2.722750705807283 63.000000000000000
2.953087512612124 -2.745143367032194 -2.819549970703390 78.000000000000000
2.969453274243117 -2.723722473324592 -2.919633391436911 65.000000000000000
3.005715100462166 -2.719678910278946 -3.041980828315266 48.000000000000000
7.305888903364471 -9.157813374922002 -1.659718506794336 38.000000000000000
7.379857005497388 -9.166105433174286 -1.873840379099555 35.000000000000000
7.516072855519996 -9.250781459651645 -2.106776498891336 30.000000000000000
