# This PCD file was generated using the MATLAB® pcwrite function
# from Computer Vision Toolbox®.
# .PCD v.7 - Point Cloud Data file format
VERSION .7
FIELDS x y z intensity
SIZE 8 8 8 8
TYPE F F F F
COUNT 1 1 1 1
WIDTH 641
HEIGHT 1
VIEWPOINT 0 0 0 1 0 0 0
POINTS 641
DATA ascii
7.165635227843707 -4.266297561050608 -1.132003931997998 0.000000000000000
7.220758058128784 -4.235680663697337 -1.275416159984142 3.000000000000000
7.233189372099149 -4.178810231910038 -1.411842963305720 7.000000000000000
7.335553665582449 -4.173334880366362 -1.567796031273638 24.000000000000000
7.442642933216602 -4.169123620537617 -1.727741417375957 24.000000000000000
7.547490468482632 -4.161957739188847 -1.891156102856096 24.000000000000000
7.663685479580520 -4.159634611909513 -2.060816528823248 22.000000000000000
7.777363263307794 -4.154128885069030 -2.234513342270634 24.000000000000000
9.293465358921649 -4.883582345302734 -2.840686730206402 4.000000000000000
9.352610982658948 -4.834596327986787 -3.031382877906370 7.000000000000000
6.121775352939023 -3.110953723396146 -2.097196571386659 52.000000000000000
6.128995980943831 -3.061961228534179 -2.213549570379626 45.000000000000000
6.053142871843360 -2.971159165168517 -2.298488761836140 5.000000000000000
6.043847630762576 -2.912817963560505 -2.407442902185811 6.000000000000000
6.090682464244844 -2.880058407626861 -2.539458739258857 7.000000000000000
6.157850095608147 -2.858028080861151 -2.683758127892275 0.000000000000000
6.159260029662015 -2.803473989822246 -2.800897262556769 5.000000000000000
6.282257510543445 -2.803397497113701 -2.977283836720495 6.000000000000000
7.106330284817660 -4.514407183768422 -0.594808929172562 1.000000000000000
7.139800600668766 -4.470696169146184 -0.734887165401284 23.000000000000000
7.099713059935489 -4.382045783373828 -0.866194677308221 1.000000000000000
7.121895184253736 -4.331932375660033 -1.002889264680746 1.000000000000000
7.141868048241053 -4.280381442300304 -1.139855907527213 3.000000000000000
7.213878139360543 -4.260075659711541 -1.286193439568612 1.000000000000000
7.212647662775555 -4.195277100117199 -1.420091456875419 2.000000000000000
7.287504003601590 -4.174535706786936 -1.570182483105600 23.000000000000000
7.394355578495924 -4.170937991065912 -1.729646742386798 24.000000000000000
7.498979449731431 -4.164385592925472 -1.892579151829705 25.000000000000000
7.608109468592142 -4.158979045206616 -2.059929031653970 21.000000000000000
7.724981923755235 -4.156018952122524 -2.234024339001988 19.000000000000000
9.279134960936995 -4.911815446284266 -2.854141446803241 1.000000000000000
9.321101355886075 -4.854122006635949 -3.039435647943761 6.000000000000000
6.123677858581998 -3.135371807793857 -2.110077986995759 10.000000000000000
6.110456665742232 -3.076026356332620 -2.219289343738981 55.000000000000000
6.055102255752346 -2.995160508136232 -2.311785068487977 6.000000000000000
6.032245777382088 -2.930100120809879 -2.415555456470811 6.000000000000000
6.065474733494021 -2.891054974634204 -2.541982177551303 5.000000000000000
6.170903647899951 -2.831930871449456 -2.819932571475176 5.000000000000000
6.166425560515008 -2.774769719703158 -2.936363875483694 5.000000000000000
7.099557401732545 -4.538643540057194 -0.604734252214745 1.000000000000000
7.180162279570956 -4.524740577243156 -0.749928228349666 25.000000000000000
7.096337435171746 -4.408309631657051 -0.876813091610601 1.000000000000000
7.121872961186401 -4.360277342795069 -1.014224343343249 1.000000000000000
7.148604979245104 -4.312793436608491 -1.152581287310716 1.000000000000000
7.176320813938516 -4.266292148583897 -1.291462302339565 2.000000000000000
7.215876081603949 -4.225614565425185 -1.433028233986527 4.000000000000000
7.239513074761523 -4.175506185228413 -1.572454939728395 7.000000000000000
7.373384385298928 -4.188003552573273 -1.737862178155561 8.000000000000000
7.453933591002527 -4.168487369541955 -1.894753564686804 23.000000000000000
7.559431879241221 -4.161804522281259 -2.060766066643851 21.000000000000000
7.781693857155500 -4.216734492194067 -2.265146117990882 2.000000000000000
7.732426002661190 -3.988789215342303 -2.679918787750478 20.000000000000000
6.098666906886026 -3.093462207034761 -2.227468862296589 54.000000000000000
6.100963005428930 -3.041147705815883 -2.341993816772020 24.000000000000000
6.023962679669229 -2.949005120931980 -2.425008542390990 6.000000000000000
6.043629616333759 -2.903562204465794 -2.545869514600301 5.000000000000000
6.175693200057059 -2.857390024050486 -2.835933664461450 6.000000000000000
6.174490492321111 -2.801575345330644 -2.954261116535178 5.000000000000000
7.099400031509377 -4.567198240935284 -0.615236069003037 1.000000000000000
7.200060966366744 -4.566249038246855 -0.762949409405151 30.000000000000000
7.109717528473467 -4.445137746449451 -0.889545434706640 1.000000000000000
7.128489454667825 -4.392827985720029 -1.026545850200813 1.000000000000000
7.151807804095389 -4.343227208847638 -1.164786051429983 1.000000000000000
7.165915290279234 -4.288574351789660 -1.301572926006907 1.000000000000000
7.201990720767838 -4.246001743932059 -1.442586166750481 2.000000000000000
7.208575360026295 -4.186114894155619 -1.578334366270421 2.000000000000000
7.416980807641192 -4.241946686602479 -1.761380142701872 2.000000000000000
7.483770295304801 -4.214521897832305 -1.915982082328917 2.000000000000000
7.561835818829558 -4.192688140026850 -2.075492522160579 3.000000000000000
7.746240773032057 -4.227707867362922 -2.269533889249805 1.000000000000000
7.727593421787159 -4.016117876842310 -2.693799010108113 7.000000000000000
6.100358130707553 -3.117787155618574 -2.240602135447096 20.000000000000000
6.085716625305076 -3.056880567070382 -2.348861501909565 59.000000000000000
6.025722673578696 -2.972889023252361 -2.438544876877442 6.000000000000000
6.028492045075502 -2.919238128992533 -2.552558796325281 6.000000000000000
6.088590564819198 -2.894925333796203 -2.693709755289081 0.000000000000000
6.320818697006019 -2.948433999586874 -2.916776979760239 12.000000000000000
6.172417274955187 -2.823889653565153 -2.967385416207755 7.000000000000000
6.170450715422045 -2.764593942005220 -3.084993080117948 54.000000000000000
7.102470700752403 -4.597959650517554 -0.626045523237863 1.000000000000000
7.206328036161164 -4.599336804702883 -0.774592274776256 29.000000000000000
7.109459537103804 -4.473608402580949 -0.900620314361655 1.000000000000000
7.128211211280383 -4.421271349281629 -1.037915499160730 1.000000000000000
7.148115984806668 -4.369587607313710 -1.175900510146102 1.000000000000000
7.168965699737989 -4.318995416252305 -1.314151205292518 2.000000000000000
7.191423819498232 -4.268363141302943 -1.452805404147401 2.000000000000000
7.214945568637877 -4.218405963535008 -1.592380472250557 2.000000000000000
7.375427460240555 -4.247314474666747 -1.764724775146504 1.000000000000000
7.476015883948976 -4.239589876107341 -1.927674294415618 1.000000000000000
7.577679437103561 -4.231211931470768 -2.093992344655841 1.000000000000000
7.693821514541574 -4.229197169551863 -2.268837985276104 1.000000000000000
7.739565616323190 -4.052323748196166 -2.713613883814944 3.000000000000000
7.548020692488129 -3.886810675576100 -2.787863410929354 27.000000000000000
6.070423187632471 -3.072562272035274 -2.355700194744538 65.000000000000000
6.027370177547384 -2.996818617805915 -2.452097656045589 6.000000000000000
6.009950295806784 -2.933224519660397 -2.557790327449648 6.000000000000000
6.079978129187271 -2.913985542377121 -2.703377555470481 5.000000000000000
6.163590764300285 -2.843160318235714 -2.977302855781051 7.000000000000000
6.141723455417664 -2.774857379421952 -3.084986794305612 112.000000000000000
7.108749671168049 -4.630955557558871 -0.637175593210174 1.000000000000000
7.209095401111974 -4.630347880551422 -0.785899486409757 26.000000000000000
7.109080035707423 -4.502117973597452 -0.911707627321893 1.000000000000000
7.127811031992124 -4.449753746576144 -1.049297616047491 1.000000000000000
7.147688079228861 -4.398043579357113 -1.187578964164209 1.000000000000000
7.175258347517460 -4.351523519570229 -1.327375871789192 1.000000000000000
7.190920418085930 -4.296769403267096 -1.465077552862849 1.000000000000000
7.214394839362450 -4.246788931870977 -1.604950737536391 3.000000000000000
7.323745178541029 -4.246597204318840 -1.765523362651546 1.000000000000000
7.424111552668744 -4.239502805153165 -1.927921061306429 1.000000000000000
7.528950135618732 -4.233668214014869 -2.094637751260779 1.000000000000000
7.641472565896756 -4.230433797135826 -2.268017396912597 1.000000000000000
7.465706708641950 -3.873366282291405 -2.772903349153489 25.000000000000000
6.071911934525849 -3.096775783740554 -2.369076023389845 41.000000000000000
6.038981071755517 -3.025842201881393 -2.469787558534571 6.000000000000000
5.998077127679259 -2.950437277882681 -2.565850860765520 6.000000000000000
6.061267923239104 -2.928190193111304 -2.708554846348787 4.000000000000000
6.332540173102824 -3.002055653118890 -2.950832562450089 2.000000000000000
6.148050352611419 -2.859329650687225 -2.983986395822790 6.000000000000000
6.119616347672812 -2.788006889864011 -3.088254092422850 116.000000000000000
7.099857169950972 -4.718534000895369 -0.508984330495648 1.000000000000000
7.151573229585982 -4.688079688382817 -0.651678737754719 2.000000000000000
7.205037310058936 -4.657091431886458 -0.796487762434810 20.000000000000000
7.115284973818071 -4.534940264917936 -0.923677722468614 1.000000000000000
7.130649002683549 -4.480386166179131 -1.061192066705541 1.000000000000000
7.153870611092622 -4.430708340519543 -1.200399467259055 1.000000000000000
7.171286779952901 -4.377953700736663 -1.338742437468422 1.000000000000000
7.190293566065258 -4.325214456366973 -1.477361953021229 1.000000000000000
7.217099040957070 -4.277213128259759 -1.618290854098512 1.000000000000000
7.282279828119009 -4.251551502060334 -1.768662299677214 1.000000000000000
7.379044384642654 -4.243054198778209 -1.929813212646322 1.000000000000000
7.473516773187767 -4.232062330914995 -2.093273863624015 1.000000000000000
7.609478104415954 -4.242727035683852 -2.273131381836839 1.000000000000000
7.440796862351641 -3.889401839100053 -2.779106220932023 25.000000000000000
6.066568963816810 -3.117581625535033 -2.379832308247995 1.000000000000000
6.030326581255999 -3.044813351635914 -2.479251697003957 0.000000000000000
6.002865503974652 -2.975907591696011 -2.581081119778527 6.000000000000000
6.035854598473916 -2.939076622527438 -2.710698779465174 4.000000000000000
6.120441246866580 -2.924910166385313 -2.865937100187317 6.000000000000000
6.241792701021378 -2.926711134524629 -3.043958247500415 7.000000000000000
6.110692945379300 -2.807132773244004 -3.098169349901825 88.000000000000000
7.102508029774532 -4.749536064903536 -0.519506357197775 0.000000000000000
7.190775727563476 -4.743288896821361 -0.665999157037882 16.000000000000000
7.190854547010482 -4.677339128355229 -0.805956302845126 13.000000000000000
7.081183516785755 -4.542079903034066 -0.930401072686268 3.000000000000000
7.133351266273733 -4.511075730391986 -1.073107388204610 1.000000000000000
7.156543798876469 -4.461354842102478 -1.212680430951010 1.000000000000000
7.184029606746581 -4.414742131591591 -1.353281390154560 1.000000000000000
7.199650142344358 -4.359818361186038 -1.491752554985564 1.000000000000000
7.223037840176678 -4.309706819134624 -1.632414007683200 1.000000000000000
7.264468783992096 -4.270197431485240 -1.777484509789400 1.000000000000000
7.340775355074467 -4.250301984297026 -1.933377932172614 1.000000000000000
7.441795477536001 -4.243658055326778 -2.098439034135815 1.000000000000000
7.641577306625967 -4.290877770456907 -2.297447328200972 0.000000000000000
7.421154934513336 -3.972539088612655 -2.647332360583556 0.000000000000000
7.422570921133455 -3.908877400969529 -2.787780189493738 31.000000000000000
7.539547487406589 -3.903897637737561 -2.973688436808417 14.000000000000000
6.017540019402731 -3.006444061613598 -2.600663419067314 5.000000000000000
6.013762720014258 -2.951487471708778 -2.714288792982950 4.000000000000000
6.091561974778810 -2.934492184683799 -2.866350349391817 5.000000000000000
7.111649167435152 -4.785051149520377 -0.530542755857254 1.000000000000000
7.196473182843397 -4.776706242274543 -0.677308794886966 29.000000000000000
7.146615977004033 -4.677921076077296 -0.811994139894201 13.000000000000000
7.070471514356485 -4.564160567042906 -0.940156839534812 4.000000000000000
7.135917470376680 -4.541821974285517 -1.085043321655913 1.000000000000000
7.155727232134447 -4.489954136928394 -1.224408276503017 1.000000000000000
7.176446144478948 -4.439180710209905 -1.364037887118064 1.000000000000000
7.195393148584269 -4.386318640374210 -1.503371618201011 1.000000000000000
7.225459957346804 -4.340255073816897 -1.645800200201883 1.000000000000000
7.273538917635774 -4.304728893613711 -1.792914043150175 1.000000000000000
7.346316612984738 -4.282904956765698 -1.948469489906438 1.000000000000000
7.453855096081025 -4.280261938929271 -2.115964541475202 0.000000000000000
7.656577509189785 -4.329736288638482 -2.316769413777774 0.000000000000000
7.396171467958557 -3.988274760473395 -2.653611887885382 10.000000000000000
7.337247604147211 -3.892727572670196 -2.771101881997339 13.000000000000000
7.500942087632517 -3.913232702628296 -2.974475014698154 16.000000000000000
6.038708919170124 -3.040455279606959 -2.623190858905497 0.000000000000000
6.014900523996596 -2.975308879598357 -2.728377678659727 4.000000000000000
6.075933570340696 -2.950377245802285 -2.872961078096790 5.000000000000000
6.173735336508148 -2.942120463584027 -3.039601153525037 5.000000000000000
7.114017584964861 -4.816182509982991 -0.541113510591511 1.000000000000000
7.202021372461897 -4.810197250511496 -0.688646906457659 28.000000000000000
7.112402548900408 -4.684866794897839 -0.819078199232898 5.000000000000000
7.069676828046219 -4.592718325970921 -0.951243357546956 5.000000000000000
7.135006905566891 -4.570484691413766 -1.096486271261604 1.000000000000000
7.158133671346850 -4.520704316184923 -1.236725850282696 1.000000000000000
7.178820006644931 -4.469879121309163 -1.376716366242109 1.000000000000000
7.207803269139085 -4.423133333660686 -1.518528085366756 1.000000000000000
7.227743831142005 -4.370859860530431 -1.659206795728787 1.000000000000000
7.269000699338680 -4.331345072152264 -1.805043683392747 1.000000000000000
7.358427659700306 -4.319529738455698 -1.965385767617726 1.000000000000000
7.475817402790975 -4.322809982744920 -2.136418501419717 0.000000000000000
7.691541721630589 -4.380207520267240 -2.342286067885445 0.000000000000000
7.364454531382808 -4.000272973900383 -2.657421605518671 18.000000000000000
7.268861627826006 -3.885075001363921 -2.760562781263235 11.000000000000000
7.509101244770349 -3.946962840603798 -2.993810085940856 12.000000000000000
6.012610090904610 -2.997521427458963 -2.740970847469276 4.000000000000000
6.060258174159392 -2.966210184556680 -2.879542325364657 5.000000000000000
6.144684354366762 -2.951962322406163 -3.039748119876836 7.000000000000000
7.109652512802866 -4.842873956114929 -0.551192337010970 1.000000000000000
7.200801473581973 -4.839313503704985 -0.699370396083688 27.000000000000000
7.098110416910583 -4.704859369377032 -0.828409816293009 1.000000000000000
7.062106771725199 -4.616963675538114 -0.961435574292258 4.000000000000000
7.143973932836859 -4.605631785497165 -1.109493714883343 1.000000000000000
7.163742627633819 -4.553633283589118 -1.249646143358791 1.000000000000000
7.184400881164689 -4.502729752101452 -1.390062141870089 1.000000000000000
7.203290579483495 -4.449717644452576 -1.530174405802083 1.000000000000000
7.239944589176829 -4.407642430995664 -1.674959864037275 1.000000000000000
7.294534716451949 -4.376087029929371 -1.824726164924813 1.000000000000000
7.373712446910839 -4.358250188891389 -1.983250877045140 1.000000000000000
7.490847339355978 -4.361621180126032 -2.155015271300752 0.000000000000000
7.726226017466636 -4.430923866935648 -2.367910727295619 0.000000000000000
7.319358126492129 -4.004817294429606 -2.656307786080367 18.000000000000000
7.237342414564425 -3.896848574160247 -2.763879513367395 20.000000000000000
7.510426727260764 -3.977256672820984 -3.010510875739883 13.000000000000000
6.020142593757543 -3.024743986852966 -2.758116561137876 3.000000000000000
6.044536007014178 -2.981990882997289 -2.886094044488178 5.000000000000000
6.095922338733317 -2.952126989403537 -3.030029220744800 5.000000000000000
7.108471017675766 -4.871839086673049 -0.561533351127382 1.000000000000000
7.202760689195506 -4.870698453196697 -0.710430174054537 28.000000000000000
7.096996030691819 -4.733649064159847 -0.839284145997725 1.000000000000000
7.120835738500257 -4.684890184747389 -0.980766201576649 1.000000000000000
7.142796231922636 -4.634396112405928 -1.120972195261144 1.000000000000000
7.165867494866343 -4.584504177849368 -1.262008117762971 1.000000000000000
7.183154340577636 -4.531443401434193 -1.402133523969507 1.000000000000000
7.205350592937586 -4.480475901519376 -1.543254524943339 1.000000000000000
7.238585451756584 -4.436337259903783 -1.687639882797076 1.000000000000000
7.296404693932523 -4.406867045417518 -1.838586790546621 1.000000000000000
7.378758224543515 -4.391124843717593 -1.998450817662916 1.000000000000000
7.509028350876984 -4.402525901152958 -2.174636271978140 0.000000000000000
7.763975605094818 -4.483816968343534 -2.394674967064873 0.000000000000000
8.260560333672709 -4.698017009053044 -2.702994479535862 0.000000000000000
7.277649406431155 -4.010988602714455 -2.656306749222876 19.000000000000000
7.189163011178255 -3.899452040872329 -2.760730515577898 38.000000000000000
7.531560640536028 -4.018248921751011 -3.035270979793298 13.000000000000000
6.038639725531138 -3.002628152737593 -2.897353006042731 5.000000000000000
6.093160550490428 -2.974462327924613 -3.043122141108451 5.000000000000000
7.126881836228963 -4.914434048914856 -0.573471247139755 0.000000000000000
7.194695482552637 -4.895409446501791 -0.720518746763537 30.000000000000000
7.102368648290864 -4.766911010987334 -0.850961219505751 1.000000000000000
7.122877685243096 -4.715900841352346 -0.992417621567735 1.000000000000000
7.144814714290738 -4.665364395971788 -1.132987974893535 1.000000000000000
7.167854413895047 -4.615429992711483 -1.274389690630213 1.000000000000000
7.191776254750700 -4.566538558967469 -1.416183565455858 1.000000000000000
7.207271786698719 -4.511289255814007 -1.556354279408696 1.000000000000000
7.243776930805010 -4.469187266529000 -1.701899219528629 1.000000000000000
7.311494988978256 -4.445825876732965 -1.855858103389755 1.000000000000000
7.397013262276976 -4.432080404840657 -2.017323494813362 1.000000000000000
7.537020805176194 -4.449496558167316 -2.197242308257876 0.000000000000000
7.774711616339452 -4.521434558193739 -2.413261862858601 0.000000000000000
8.236863496156261 -4.717712646460416 -2.711761628741714 1.000000000000000
7.239308734737390 -4.018815755580182 -2.657432024691396 19.000000000000000
7.124427404282107 -3.892742716073896 -2.751049310275579 45.000000000000000
7.565742107774807 -4.066543140267747 -3.065480916101833 16.000000000000000
6.239546294219591 -3.126952852126732 -3.008359669797987 9.000000000000000
6.083752034544577 -2.993599717522064 -3.052935949774668 10.000000000000000
7.122135820578592 -4.941249629352833 -0.583590141839103 0.000000000000000
7.156932099818285 -4.899852090983116 -0.727590822563759 25.000000000000000
7.097696425325777 -4.793563089811586 -0.861465238946803 1.000000000000000
7.124782348430817 -4.746965679890932 -1.004088303599955 1.000000000000000
7.143382148329292 -4.694209735066839 -1.144492221963131 1.000000000000000
7.166383734584135 -4.644259138338337 -1.286194862627270 1.000000000000000
7.193583591027757 -4.597476856134826 -1.428949850834816 1.000000000000000
7.215710375623498 -4.546351281490910 -1.570922595294038 1.000000000000000
7.255477444700168 -4.506248736150638 -1.717764063364900 1.000000000000000
7.309723591014906 -4.474712582494075 -1.868922771820537 1.000000000000000
7.401721340490045 -4.465139513554292 -2.032596940426307 1.000000000000000
7.548089927988500 -4.486763520808787 -2.215045721274860 0.000000000000000
7.210962324033303 -4.032043671655352 -2.662150670273239 14.000000000000000
7.096321983741285 -3.905794325592379 -2.755380371063224 72.000000000000000
6.071003505055707 -3.011102073541492 -3.061090776882557 58.000000000000000
7.107463271381197 -4.961228622592210 -0.592891558667435 1.000000000000000
7.148734115850807 -4.924474806000378 -0.737626210175793 24.000000000000000
7.099497099667357 -4.824705139339714 -0.872780184378486 1.000000000000000
7.126549388788867 -4.778084228271103 -1.015777985929977 1.000000000000000
7.151744365361404 -4.729650103488662 -1.157612383784428 1.000000000000000
7.171413036691232 -4.677444486861988 -1.299210579351720 1.000000000000000
7.191934488681582 -4.626335276019002 -1.441070513324922 1.000000000000000
7.210696339070646 -4.573079347242873 -1.582611635725539 1.000000000000000
7.260347681691110 -4.539264060002338 -1.732088142830388 1.000000000000000
7.317803953050412 -4.509783934260028 -1.884567369719091 1.000000000000000
7.412927929732660 -4.502312575337557 -2.049737783851092 1.000000000000000
7.568954931183763 -4.530113831328201 -2.235842106437283 0.000000000000000
8.234080552880705 -4.710902269058863 -2.900640836099460 2.000000000000000
7.192548395002001 -4.050757900059011 -2.670502578291892 1.000000000000000
7.097997579604450 -3.935249404018704 -2.771284627767382 94.000000000000000
6.067971044538496 -3.033457536085392 -3.074177415083445 91.000000000000000
7.073128554159871 -4.967407979383705 -0.600505139597798 5.000000000000000
7.173193742164784 -4.971796921095263 -0.751083825385449 27.000000000000000
7.114298538252544 -4.864884378082661 -0.885749567600805 1.000000000000000
7.131470930260605 -4.811477378315141 -1.027960995762774 1.000000000000000
7.150042054436764 -4.758593346688142 -1.169150110396885 1.000000000000000
7.172984060237167 -4.708532213805913 -1.311649367451344 1.000000000000000
7.190159773592000 -4.655228513132099 -1.453201266425735 1.000000000000000
7.218827874167231 -4.608286794599045 -1.597235405903040 1.000000000000000
7.261746115142790 -4.570263935185427 -1.745642266316900 1.000000000000000
7.329034526258362 -4.547005713901040 -1.901109136968248 1.000000000000000
7.427270554059983 -4.541625479508606 -2.067847702484813 0.000000000000000
7.589592255368076 -4.573629778010028 -2.256709119704364 0.000000000000000
8.180295614376526 -4.713381088739101 -2.898651130048036 2.000000000000000
7.066496796097228 -3.946309720486119 -2.774238385709556 52.000000000000000
6.068088628580455 -3.057473299446536 -3.088924314201322 44.000000000000000
7.103980930868988 -5.019488041254190 -0.613673152057317 1.000000000000000
7.210493997019953 -5.028417586672540 -0.766008415738041 30.000000000000000
7.109241327582714 -4.891658584687427 -0.896292383680558 1.000000000000000
7.132954815948878 -4.842711195148654 -1.039692201573908 1.000000000000000
7.154799928842538 -4.791981350415268 -1.181785393168772 1.000000000000000
7.174415775149316 -4.739672956675784 -1.324106698512189 1.000000000000000
7.201472916993409 -4.692766724605071 -1.468035522134873 1.000000000000000
7.230098784930205 -4.645710138849268 -1.612632898692030 1.000000000000000
7.272934844678472 -4.607608545170137 -1.761620344891847 1.000000000000000
7.336769161164321 -4.582268070546907 -1.916830093001071 1.000000000000000
7.434788006033175 -4.576986877079985 -2.084153169127175 0.000000000000000
7.626566065980708 -4.627361270417795 -2.282604151899529 0.000000000000000
8.133196477972543 -4.719442298863378 -2.898892795257214 2.000000000000000
7.021809660454592 -3.949817766474431 -2.771917874683428 48.000000000000000
7.496142470325607 -5.399056085756532 -0.507489356968286 16.000000000000000
7.128069249827938 -5.067161015219109 -0.626364123733968 0.000000000000000
7.214887481888904 -5.062405587768818 -0.777529606259371 29.000000000000000
7.113885837038246 -4.925241430180177 -0.908088735765048 1.000000000000000
7.127742780114040 -4.869517501380101 -1.050475208791279 1.000000000000000
7.156119119110175 -4.823225828397807 -1.193899393325105 1.000000000000000
7.182291064657463 -4.775243177174534 -1.337808529420268 1.000000000000000
7.202714729549094 -4.723927644983659 -1.480880862762313 1.000000000000000
7.224684823138731 -4.672569448979836 -1.624364475962572 1.000000000000000
7.280636862647605 -4.642955379104976 -1.776836577149684 1.000000000000000
7.350944163035367 -4.621776579574363 -1.934326022270847 1.000000000000000
7.461970964722989 -4.624732107267960 -2.106092651721641 1.000000000000000
7.643404066607621 -4.669233508111678 -2.302636906091180 0.000000000000000
8.082844688629434 -4.723359162822577 -2.897844019003606 3.000000000000000
6.973890163938121 -3.951251937564118 -2.768187874264127 49.000000000000000
7.515871868001045 -5.445841795088669 -0.519704922678120 11.000000000000000
7.119473828325675 -5.091804890227063 -0.636232164893850 0.000000000000000
7.212618501275935 -5.091867112434049 -0.788365184647717 27.000000000000000
7.111850414248564 -4.954346957392790 -0.919067957838422 1.000000000000000
7.132234607664580 -4.903086027766088 -1.062721461887666 1.000000000000000
7.154020152317414 -4.852298452184689 -1.205478905316223 1.000000000000000
7.180144545317312 -4.804309332296306 -1.349693353306843 1.000000000000000
7.203816037715202 -4.755140664949519 -1.493744205445056 1.000000000000000
7.232331643387482 -4.708019151134593 -1.639082265356454 1.000000000000000
7.284872698936035 -4.676275707132588 -1.791277552803588 1.000000000000000
7.351727320072616 -4.653061816775653 -1.948378079470817 1.000000000000000
7.472401795401589 -4.662386596467804 -2.123431805628916 0.000000000000000
7.683117870038417 -4.725452720771104 -2.329732254756611 0.000000000000000
8.032554597120207 -4.727041045542334 -2.896679063693640 2.000000000000000
6.932608046524997 -3.956203942203411 -2.766965854677477 47.000000000000000
7.522468763663814 -5.483374740883601 -0.531075466145723 40.000000000000000
7.395731052099189 -5.321475096384782 -0.671982889344933 14.000000000000000
7.278428813591708 -5.169805895807458 -0.806769486998902 21.000000000000000
7.116203831460844 -4.988050986183063 -0.930908367316652 1.000000000000000
7.136573188167755 -4.936724330303040 -1.074993961154708 1.000000000000000
7.155067020959051 -4.883637064907075 -1.217624303243810 1.000000000000000
7.177871728633987 -4.833408475678935 -1.361587292284994 1.000000000000000
7.204776510117891 -4.786405300112772 -1.506625282645231 1.000000000000000
7.236522555368430 -4.741404577437085 -1.653084371320055 1.000000000000000
7.292241557028436 -4.711791512158054 -1.806559664086083 1.000000000000000
7.365532035815475 -4.692785730843256 -1.965961320517225 1.000000000000000
7.489229742369162 -4.704283590142784 -2.142697778392102 0.000000000000000
7.709347741810080 -4.773793322937429 -2.352929813174597 0.000000000000000
7.982327350262765 -4.730488291789564 -2.895398175465489 4.000000000000000
6.888095621369408 -3.959082704080695 -2.764334793964127 46.000000000000000
7.516015237838504 -5.511545550234214 -0.541550175212666 48.000000000000000
7.408948822676799 -5.363282801271292 -0.684294480865976 53.000000000000000
7.246594214674077 -5.178678153121651 -0.814432854342651 25.000000000000000
7.117154321262794 -5.019532000014158 -0.942344346915807 1.000000000000000
7.137500454016405 -4.968164339024860 -1.086796378976884 1.000000000000000
7.159238345842160 -4.917268920255859 -1.230348191898942 1.000000000000000
7.182013377807079 -4.866972759888537 -1.374742156007123 1.000000000000000
7.215421629946436 -4.824290684289158 -1.521595904168361 1.000000000000000
7.233999106629097 -4.770534697253851 -1.665602481862508 1.000000000000000
7.289593173401443 -4.740991725045330 -1.819418816367136 1.000000000000000
7.385704460922358 -4.736847455791925 -1.985361880481531 1.000000000000000
7.505841702038127 -4.746324181939412 -2.162023844429699 0.000000000000000
7.764878183286719 -4.840761907784477 -2.385293891926254 0.000000000000000
7.938719600366864 -4.737613400296350 -2.896393339324528 5.000000000000000
6.784815602163473 -3.927697165222430 -2.737861980258097 42.000000000000000
7.506233979413537 -5.537356625428424 -0.551787141134636 46.000000000000000
7.386503839591922 -5.379382426750394 -0.693326571294388 23.000000000000000
7.169484934579589 -5.154865035957495 -0.816869777809938 21.000000000000000
7.121208182595351 -5.053364365452138 -0.954231947754582 1.000000000000000
7.141538334017238 -5.001931403557085 -1.099116216726752 1.000000000000000
7.159997547079072 -4.948718228493391 -1.242532502914463 1.000000000000000
7.179473068378978 -4.896155066791018 -1.386662187541582 1.000000000000000
7.209541783875099 -4.851286603978691 -1.533134551373740 1.000000000000000
7.244436301483628 -4.808384126606574 -1.681166489299659 1.000000000000000
7.309741100209746 -4.785231243189345 -1.838050869021032 1.000000000000000
7.389263077865391 -4.770493539340018 -2.000395600177732 1.000000000000000
7.518959202741964 -4.786421089827091 -2.180459047622852 0.000000000000000
7.787242613984140 -4.887525935324049 -2.407687417935358 0.000000000000000
9.425584580970304 -5.831698928431101 -3.095756275146734 15.000000000000000
7.901689368391928 -4.748472839783190 -2.899690813739168 4.000000000000000
6.747076134514311 -3.933792363635052 -2.737593336285353 27.000000000000000
7.502764723034522 -5.567918921478597 -0.562494795201975 49.000000000000000
7.392969306231257 -5.416616603971432 -0.705076877158462 35.000000000000000
7.128067934189393 -5.156340951297108 -0.823220213282804 12.000000000000000
7.118636667296855 -5.082644097497956 -0.965267308669434 1.000000000000000
7.070821329699482 -4.983191688254836 -1.099857409655808 3.000000000000000
7.160615936517590 -4.980217534497606 -1.254733724251045 1.000000000000000
7.186574497309185 -4.932073261239655 -1.400494320013485 1.000000000000000
7.213331629982191 -4.884920777238087 -1.546770763883944 1.000000000000000
7.244893354037504 -4.839796084207302 -1.694482266627432 1.000000000000000
7.319856386186125 -4.823172516920864 -1.854267876448674 1.000000000000000
7.409011294184632 -4.814831834082553 -2.019911397103793 1.000000000000000
7.551496276020361 -4.839216235556569 -2.204673721614216 0.000000000000000
9.359456501605512 -5.913922579292351 -2.912524286712541 24.000000000000000
9.359063760737683 -5.830026046255870 -3.093060914761425 15.000000000000000
7.861404243262865 -4.757198568349517 -2.901703138727650 2.000000000000000
6.715878348795257 -3.943538010470360 -2.739894516976624 29.000000000000000
7.489568887843839 -5.591343845236119 -0.572475220932573 49.000000000000000
7.386424308834652 -5.444469377958871 -0.715615205487323 46.000000000000000
7.112452596970368 -5.176376148513330 -0.832492657596309 2.000000000000000
7.125625177369921 -5.118913013698489 -0.977639703479827 1.000000000000000
7.126495632872206 -5.053604479240559 -1.120270396847629 1.000000000000000
7.161093192512263 -5.011766351537168 -1.266951587770565 1.000000000000000
7.187007459045498 -4.963589994505455 -1.413082499385557 1.000000000000000
7.216964937137457 -4.918623036486450 -1.560432158433471 1.000000000000000
7.251723129742198 -4.875638286645012 -1.709350446035955 1.000000000000000
7.323263625744163 -4.856893810804108 -1.868862857040400 1.000000000000000
7.422003397948825 -4.855062299013211 -2.037703519537778 1.000000000000000
7.567426502914222 -4.881720054491669 -2.224194558163755 0.000000000000000
9.286525106759507 -5.907331767174089 -2.908494255462980 24.000000000000000
9.308961858490783 -5.838264750189055 -3.095633993847423 15.000000000000000
7.843935500400086 -4.779635367928476 -2.912088188089511 2.000000000000000
6.642481041777467 -3.928191117073689 -2.724814884972977 33.000000000000000
7.485863195080895 -5.621934704283278 -0.583182994701125 49.000000000000000
7.382968307948732 -5.474707717304893 -0.726467049429549 53.000000000000000
7.109618778534124 -5.205778653651309 -0.843263560877206 1.000000000000000
7.122780220842352 -5.148281554891481 -0.988703675092349 1.000000000000000
7.146265018600820 -5.099031243560017 -1.135200714024182 1.000000000000000
7.167901141013905 -5.047922134722957 -1.280341889662903 1.000000000000000
7.197024135329434 -5.001915171567165 -1.427616269146521 1.000000000000000
7.223687890381910 -4.954619627349436 -1.574826216010360 1.000000000000000
7.261631416285273 -4.913766044220632 -1.725024184376276 1.000000000000000
7.333019021647477 -4.895025824320334 -1.885155221034413 1.000000000000000
7.431537192888822 -4.893271885799200 -2.054645760796074 1.000000000000000
7.589649327109238 -4.928592965583786 -2.245700441089217 0.000000000000000
8.601656117588108 -5.508418779887632 -2.711357331695750 32.000000000000000
9.245881236965884 -5.838060543540764 -3.093739685538319 15.000000000000000
7.962839470233067 -4.885746506949773 -2.973396146013247 13.000000000000000
6.617868863994106 -3.941407848726723 -2.729597015856507 25.000000000000000
7.482028506564014 -5.652552706137205 -0.593896734546048 50.000000000000000
7.379383958779623 -5.504974088316548 -0.737325352791687 52.000000000000000
7.109864467406138 -5.237572465321901 -0.854427250043834 1.000000000000000
7.119808808346598 -5.177680170922970 -0.999775264857691 1.000000000000000
7.146474846350636 -5.130736333085601 -1.147094569263123 1.000000000000000
7.097045723946411 -5.029248521865814 -1.279791114801350 2.000000000000000
7.197151107114822 -5.033557085187569 -1.440249635137578 1.000000000000000
7.223760271962099 -4.986229612342656 -1.587829268598881 1.000000000000000
7.268109428303009 -4.949788874647024 -1.739963055536941 1.000000000000000
7.342586382637067 -4.933261479944107 -1.901488991294028 1.000000000000000
7.444129592962464 -4.933737323119433 -2.072533384444938 0.000000000000000
7.621368834959334 -4.982013300523339 -2.270184255720036 0.000000000000000
8.546623727359309 -5.509852556492746 -2.711332452623469 35.000000000000000
9.179652100025409 -5.835495067656934 -3.090606516179424 15.000000000000000
7.769867986865250 -4.800335599677392 -2.918162709164183 0.000000000000000
6.570611150038840 -3.940959299795075 -2.724946405407633 37.000000000000000
6.890406358475574 -4.070115536110454 -2.992723799115396 11.000000000000000
7.474886517064668 -5.680782116412324 -0.604359249829705 49.000000000000000
7.375671050346685 -5.535268056663245 -0.748189880953572 53.000000000000000
7.116366324241615 -5.274154599014309 -0.866385367429597 1.000000000000000
7.126332231171295 -5.214148236410276 -1.012220874961956 1.000000000000000
7.146543046089920 -5.162489297946325 -1.159004201447704 1.000000000000000
7.132680339337810 -5.086030061726428 -1.298424194182674 1.000000000000000
7.193907941275085 -5.062975644007328 -1.452247279442409 1.000000000000000
7.223689398534914 -5.017887684357287 -1.600848106682751 1.000000000000000
7.280886294918105 -4.990332328472168 -1.756495947014761 1.000000000000000
7.355203857663627 -4.973790233905502 -1.918708659832534 1.000000000000000
7.459758037425686 -4.976485588547813 -2.091378782057144 1.000000000000000
7.639828728586239 -5.027133260159272 -2.290880220017793 0.000000000000000
8.569454618282577 -5.561513620052382 -2.736017141606987 51.000000000000000
9.126496893050474 -5.840908332810110 -3.091709609398895 16.000000000000000
6.539558164192651 -3.950024152114782 -2.726908912092802 66.000000000000000
6.832891549413277 -4.064965904598508 -2.983573238318153 12.000000000000000
7.467629379445942 -5.709019969226621 -0.614819032079754 17.000000000000000
7.368647746666402 -5.563187120055112 -0.758732794072510 54.000000000000000
7.122698530645374 -5.310819726416663 -0.878375474979742 2.000000000000000
7.135885379975443 -5.253055319882683 -1.025158353672717 1.000000000000000
7.146469305664189 -5.194289647448486 -1.170929340997599 1.000000000000000
7.174441945493414 -5.147672165688757 -1.318346709078430 1.000000000000000
7.200196692744689 -5.099265117417175 -1.466219236021975 1.000000000000000
7.236374018363223 -5.058610478292718 -1.616764390770907 1.000000000000000
7.283774438417817 -5.024315326733786 -1.770723419340004 1.000000000000000
7.364386005245753 -5.012240326782557 -1.935128334843759 1.000000000000000
7.475166574254903 -5.019372529694043 -2.110281520388934 1.000000000000000
7.677455825356866 -5.085261841304014 -2.317498663445401 0.000000000000000
9.041497976208058 -5.907023365498318 -2.905210027809090 29.000000000000000
9.066934157215220 -5.841915590001304 -3.090489803902228 16.000000000000000
6.543903928390333 -3.980483092333416 -2.743642055306294 85.000000000000000
6.672743871328889 -3.997967758417880 -2.929178558963906 18.000000000000000
7.463420789406243 -5.739698991387661 -0.625541052627369 49.000000000000000
7.364684288042196 -5.593526040532988 -0.769604944983948 53.000000000000000
7.284874067217009 -5.464597521643891 -0.909883372324460 49.000000000000000
7.132482521319695 -5.282604644698146 -1.036280488517763 1.000000000000000
7.152653900179170 -5.230817710753133 -1.183929162206529 1.000000000000000
7.174179575944742 -5.179497475864784 -1.330660478712604 1.000000000000000
7.203100036035166 -5.133348444159088 -1.479563321294389 1.000000000000000
7.235986327719903 -5.090399727113379 -1.629830814303943 1.000000000000000
7.286503183700100 -5.058363533614807 -1.784974429991704 1.000000000000000
7.366930209746507 -5.046375048148516 -1.949881575416401 1.000000000000000
7.493580238235747 -5.064577531008907 -2.130158126882223 0.000000000000000
7.708303519960851 -5.139353580520474 -2.342271892533085 0.000000000000000
8.994995403391769 -5.915778549702408 -2.908732686900218 29.000000000000000
9.004234502854437 -5.840553810978365 -3.088027881783415 16.000000000000000
6.532047004084142 -4.001181226120186 -2.753635911332275 60.000000000000000
6.577269552431860 -3.968762152333312 -2.902653305660090 12.000000000000000
7.455925831583853 -5.767961463802497 -0.635998856925064 49.000000000000000
7.363758887146615 -5.626311187716932 -0.780818462218031 54.000000000000000
7.290509966870084 -5.501865565538492 -0.922138667289112 57.000000000000000
7.230885307632243 -5.388138318092699 -1.062385585825281 13.000000000000000
7.158666696156304 -5.267428261859284 -1.196960583941119 1.000000000000000
7.173774062211020 -5.211369268715689 -1.342989221637352 1.000000000000000
7.202639535513169 -5.165197770643339 -1.492266635559376 1.000000000000000
7.248294523065666 -5.131325527620247 -1.645827705590430 1.000000000000000
7.298713756405680 -5.099212468055756 -1.801628626459739 1.000000000000000
7.382180114988460 -5.089444589955750 -1.968088035540869 1.000000000000000
7.508539192275293 -5.107748568243578 -2.149178392240061 0.000000000000000
7.754949014665865 -5.204475218421596 -2.372066500072960 4.000000000000000
8.938866352619115 -5.917937740066336 -2.909011040665264 28.000000000000000
8.951291890452083 -5.845200205266305 -3.088752507450464 15.000000000000000
6.516908203767347 -4.019881655145407 -2.762256132637822 53.000000000000000
7.451464759118756 -5.798682055186259 -0.646726655142761 49.000000000000000
7.359529668534210 -5.656711182551006 -0.791705535642610 54.000000000000000
7.283295605320646 -5.529588775388980 -0.932800675712213 57.000000000000000
7.236527375257838 -5.425178474806748 -1.075069329688750 56.000000000000000
7.180435407505124 -5.315912863284905 -1.212713399203951 1.000000000000000
7.189186880336577 -5.254954352934381 -1.358348537074495 1.000000000000000
7.173252452254934 -5.176323217913668 -1.498970046367320 1.000000000000000
7.244385626833820 -5.160962047435953 -1.658207355745733 1.000000000000000
7.301100233333681 -5.133416722654572 -1.815938361945486 1.000000000000000
7.390790894091277 -5.128197390915373 -1.984627289852231 1.000000000000000
7.520064903342819 -5.148857352612252 -2.167329188647245 0.000000000000000
7.772315407291942 -5.250388773270836 -2.393100695558760 11.000000000000000
8.879601822708171 -5.917699137026526 -2.908110794621354 28.000000000000000
8.891990010931723 -5.845386588022302 -3.087129618603578 17.000000000000000
7.559274480093787 -4.832924742715579 -2.922037605139665 1.000000000000000
6.472950466420453 -4.020680297818681 -2.758597143839579 49.000000000000000
7.446873566762050 -5.829427218323275 -0.657459038216414 51.000000000000000
7.348865530375265 -5.682261203470087 -0.801909615855137 55.000000000000000
7.279128753007686 -5.559735440093504 -0.943869923932877 57.000000000000000
7.241996417836069 -5.462299044732856 -1.087783540029918 36.000000000000000
7.211492422936455 -5.371670802518570 -1.230164957759563 58.000000000000000
7.198012066863089 -5.293990102233115 -1.372549118520403 1.000000000000000
7.111948083140382 -5.164163413461563 -1.498888488774562 3.000000000000000
7.253127388697519 -5.199788496363669 -1.673541955377865 1.000000000000000
7.322520036468597 -5.181265737165537 -1.835080836472990 1.000000000000000
7.405613509457529 -5.171521421494872 -2.002937526624275 0.000000000000000
7.540992953136102 -5.196706139349080 -2.188315923719246 0.000000000000000
7.827891620298097 -5.322599251213724 -2.426114999715784 5.000000000000000
8.820429481542746 -5.917185086569313 -2.907075577348005 29.000000000000000
8.835982836243437 -5.847416608259105 -3.086490292721961 16.000000000000000
7.634277728594252 -4.914198800155018 -2.968022526067608 1.000000000000000
6.445000648588968 -4.031241607320186 -2.761666479337848 64.000000000000000
7.435882342855362 -5.855259530823545 -0.667632840648112 51.000000000000000
7.347536921822227 -5.715140415469375 -0.813146489832958 15.000000000000000
7.277987255025177 -5.592331864356310 -0.955358484861115 57.000000000000000
7.234638452477212 -5.489897490680898 -1.098606391640666 57.000000000000000
7.210548906536921 -5.403888882315557 -1.242250141487427 61.000000000000000
7.206648481757808 -5.333124694566839 -1.386788611353298 46.000000000000000
7.139911901253471 -5.216829229086089 -1.517608262000461 3.000000000000000
7.264866764745534 -5.241013852767650 -1.689656972759069 1.000000000000000
7.324539821906466 -5.215650735115643 -1.849460409577351 1.000000000000000
7.413825441203156 -5.210490757077980 -2.019562922459653 0.000000000000000
7.558471195839740 -5.242509241379369 -2.208440634409922 15.000000000000000
7.943782949577917 -5.436748583819050 -2.478240764400562 1.000000000000000
8.761350668857542 -5.916396067777812 -2.905905715348096 30.000000000000000
8.780054038480639 -5.849189605780393 -3.085724556241276 16.000000000000000
6.426586932909508 -4.047697241750253 -2.768787357830887 81.000000000000000
7.431044950448299 -5.886034918733201 -0.678365594550793 50.000000000000000
7.339787690275794 -5.743151097238077 -0.823691772430053 55.000000000000000
7.276701411926070 -5.624971286968788 -0.966860166957863 56.000000000000000
7.236633659916369 -5.524731999961960 -1.110879651790300 58.000000000000000
7.212624404855696 -5.438536276633499 -1.254899343462037 27.000000000000000
7.205585315007799 -5.365276133245247 -1.399219883425366 57.000000000000000
7.224759971747607 -5.311728989358031 -1.548669911326175 34.000000000000000
7.263679454284174 -5.273120889401770 -1.702836713007043 1.000000000000000
7.342317962069561 -5.261506233970044 -1.867911960924562 1.000000000000000
7.437778054925766 -5.260828180756231 -2.040598063859161 3.000000000000000
7.569332868886435 -5.284012696124130 -2.226752286895529 24.000000000000000
9.401592333134884 -6.476514434356683 -2.952301878722574 22.000000000000000
8.708744418073174 -5.919667729554977 -2.906730230404047 29.000000000000000
8.724204861698531 -5.850706003345583 -3.084832701060409 16.000000000000000
6.414469419141376 -4.068117311537172 -2.778623330081219 89.000000000000000
7.426076915269057 -5.916833591162773 -0.689102244224907 45.000000000000000
7.338184313217186 -5.776096661496630 -0.834945712187745 55.000000000000000
7.275270932683305 -5.657653206855072 -0.978374696635141 56.000000000000000
7.235320870287246 -5.557209082064340 -1.122685673823013 57.000000000000000
7.211384293808472 -5.470850760152049 -1.267015598623875 60.000000000000000
7.213864918972313 -5.404579506937271 -1.413523711868417 33.000000000000000
7.223516228616593 -5.343875290898763 -1.561476919533027 54.000000000000000
7.268691431685069 -5.309907171674601 -1.717529242588521 41.000000000000000
7.347152736941364 -5.298350875538926 -1.883169843569859 23.000000000000000
7.439207588514421 -5.295512165208686 -2.055563514736591 35.000000000000000
7.595888553185395 -5.336805170214345 -2.249820362331294 20.000000000000000
9.401511277383005 -6.518698371270286 -2.971625354185532 25.000000000000000
8.649841491062050 -5.918348393147110 -2.905300410772429 31.000000000000000
8.665256636835032 -5.849819505472338 -3.082683761137658 17.000000000000000
6.402273286964576 -4.088514193265964 -2.788442656839583 88.000000000000000
7.420978046404827 -5.947655104162737 -0.699842551367442 51.000000000000000
7.330189372326426 -5.804137500447307 -0.845491361123215 55.000000000000000
7.270563015279611 -5.687926485502942 -0.989475485478238 50.000000000000000
7.237004227941002 -5.592155865179272 -1.134997173699162 57.000000000000000
7.216296088268890 -5.508014505242763 -1.280262073354675 58.000000000000000
7.209333839036257 -5.434466442270233 -1.425370157245272 57.000000000000000
7.231608711959000 -5.383123238868737 -1.576364054484251 52.000000000000000
7.273526728455149 -5.346772671551834 -1.732251404731716 50.000000000000000
7.351809747365276 -5.335274485067807 -1.898457165049907 41.000000000000000
7.449987989815908 -5.337072854242294 -2.073197602764567 35.000000000000000
7.628503768878791 -5.394289824947948 -2.274867805536204 20.000000000000000
9.379013878958233 -6.545443254969834 -2.983902018210166 26.000000000000000
8.597383307367883 -5.921126962279454 -2.905882269253066 30.000000000000000
8.612750335153827 -5.852970712199340 -3.082671812964262 15.000000000000000
6.399469935775747 -4.114977892477769 -2.802392814278825 77.000000000000000
7.418853576990482 -5.981002571916540 -0.710883842764230 50.000000000000000
7.331426105505887 -5.839629346416221 -0.857125636054148 55.000000000000000
7.271974912450717 -5.723142527680614 -1.001441201739227 46.000000000000000
7.232260261018808 -5.622290392386752 -1.146336015557285 56.000000000000000
7.214750559412770 -5.540432180483936 -1.292412325425273 59.000000000000000
7.217262261597495 -5.473927182616824 -1.439732838664609 57.000000000000000
7.233203501160165 -5.417744260863764 -1.589902586538589 52.000000000000000
7.284499993163861 -5.388388094577110 -1.748518685006072 49.000000000000000
7.356288514505679 -5.372276426979731 -1.913773571630069 43.000000000000000
7.463722403250999 -5.381028558983613 -2.091763737761002 33.000000000000000
7.663965959613438 -5.454266789997810 -2.300968394701119 18.000000000000000
9.337426542022849 -6.558782827090718 -2.990058427420288 20.000000000000000
8.535495357374149 -5.917084354101151 -2.903116902691950 32.000000000000000
8.553982835760703 -5.851555054296638 -3.080263802346602 17.000000000000000
6.402841034882320 -4.145550457553331 -2.819124347365058 52.000000000000000
7.410387053335924 -6.009364871493477 -0.721333183079417 50.000000000000000
7.329393956799227 -5.872688480986561 -0.868411326113808 56.000000000000000
7.270108800216500 -5.755948920024009 -1.012992627361638 57.000000000000000
7.233637896945205 -5.657338442163692 -1.158680511053434 57.000000000000000
7.216192740101091 -5.575312661874046 -1.305141777761802 56.000000000000000
7.212439509433973 -5.503898975803132 -1.451604762636538 56.000000000000000
7.240927618775013 -5.457166635983955 -1.604856232428557 52.000000000000000
7.292115191014391 -5.427772623893033 -1.764069268564724 48.000000000000000
7.370049473083697 -5.416308963506744 -1.931598295747658 43.000000000000000
7.480387207708844 -5.427405457676577 -2.111273838403820 34.000000000000000
7.705408772387911 -5.519023745771380 -2.329088350410749 15.000000000000000
9.276887650463875 -6.558554654696273 -2.990020127362464 13.000000000000000
8.483197740369210 -5.919362475050889 -2.903453114268279 30.000000000000000
8.504786096401045 -5.856388070416094 -3.081153716248423 17.000000000000000
6.421765511763813 -4.186430082050256 -2.842834304004635 14.000000000000000
