# This PCD file was generated using the MATLAB® pcwrite function
# from Computer Vision Toolbox®.
# .PCD v.7 - Point Cloud Data file format
VERSION .7
FIELDS x y z intensity
SIZE 8 8 8 8
TYPE F F F F
COUNT 1 1 1 1
WIDTH 637
HEIGHT 1
VIEWPOINT 0 0 0 1 0 0 0
POINTS 637
DATA ascii
7.793475468015392 -5.653968403726524 -2.387630921877245 11.000000000000000
9.152948431590911 -6.555016705348808 -2.988510498766147 9.000000000000000
8.375672474177325 -5.920989163875329 -2.902688051889013 32.000000000000000
8.393992665080843 -5.856631884918079 -3.078001641183761 20.000000000000000
7.582248796227626 -5.151236922982527 -3.085748751179558 7.000000000000000
6.463754287721315 -4.331013226773651 -2.761112264554995 16.000000000000000
7.396590151419744 -6.104627982437351 -0.753904057532075 51.000000000000000
7.316249291239793 -5.967069185912712 -0.901575087812547 55.000000000000000
7.263634673245662 -5.854608946457863 -1.047716286825257 56.000000000000000
7.230597420394754 -5.757889836052214 -1.194807758623671 56.000000000000000
7.216440405889415 -5.677859008520730 -1.342871902903100 58.000000000000000
7.222120028205638 -5.613337328606271 -1.492397511880276 55.000000000000000
7.250452272705838 -5.566412754830846 -1.647098929655175 50.000000000000000
7.313797670524284 -5.546494097456946 -1.810939773020843 47.000000000000000
7.397455957931351 -5.539809911884113 -1.982033170927387 40.000000000000000
7.538325620400801 -5.574372599514564 -2.172876656092134 27.000000000000000
7.849469485540691 -5.731055311234964 -2.420968776157816 7.000000000000000
9.092701729660789 -6.553950002008453 -2.988062018532590 8.000000000000000
8.323597710062280 -5.922551313571072 -2.902672406449524 30.000000000000000
8.338727680256662 -5.856373261465555 -3.076239408256875 18.000000000000000
7.621836627053190 -5.282499351074476 -2.965215512641232 0.000000000000000
6.432064274541878 -4.338986176578259 -2.762868822008174 49.000000000000000
7.390694822519950 -6.135585801143445 -0.764665232100782 51.000000000000000
7.313646888247316 -6.000267058126511 -0.912896722084241 56.000000000000000
7.258096536185457 -5.885070988957973 -1.058862656975818 55.000000000000000
7.231344545319311 -5.793151580461943 -1.207222776736722 56.000000000000000
7.217243459304851 -5.712963641123788 -1.355676688712687 57.000000000000000
7.232256678912080 -5.655629892233307 -1.507557578472106 56.000000000000000
7.260548412617602 -5.608582201589139 -1.662894595593337 49.000000000000000
7.317516447229864 -5.583874705869368 -1.825856597236674 45.000000000000000
7.410342652558303 -5.584324776338557 -2.000050640370509 38.000000000000000
7.572746195932833 -5.635318330716894 -2.198082428725312 25.000000000000000
7.967553029748922 -5.854471378116323 -2.473889165050751 5.000000000000000
9.035680150192285 -6.554876692724822 -2.988513303733809 8.000000000000000
8.268469674594391 -5.921638946838979 -2.901444023859955 24.000000000000000
8.283552149110625 -5.855861560760729 -3.074353456284701 18.000000000000000
6.486783149640730 -4.466289231356389 -2.670161207007369 3.000000000000000
6.425317207372979 -4.363756303240294 -2.775325874661804 68.000000000000000
7.387727714221617 -6.169118865708456 -0.775749728509058 51.000000000000000
7.310897505234351 -6.033502718805888 -0.924228656837727 56.000000000000000
7.261665575672046 -5.923089827331186 -1.071374801115563 54.000000000000000
7.231929355417954 -5.828469732671996 -1.219656662167871 55.000000000000000
7.217883914243632 -5.748125093208838 -1.368500534645820 56.000000000000000
7.229777587916778 -5.688271178370430 -1.520152305059113 54.000000000000000
7.267327336540280 -5.648446788015971 -1.678016169924001 48.000000000000000
7.330389176187617 -5.628496954991359 -1.843147458366915 45.000000000000000
7.423001291783695 -5.628967099794379 -2.018119226311976 37.000000000000000
7.591239889597413 -5.684841969253345 -2.218839499197901 22.000000000000000
8.031845853678705 -5.939405473107663 -2.510560656260449 3.000000000000000
8.978741748109920 -6.555546182644233 -2.988838381038126 8.000000000000000
8.222790688963691 -5.927219984366046 -2.903396724945420 16.000000000000000
8.237821367493066 -5.861753286595598 -3.075836719392036 17.000000000000000
6.458015028575789 -4.476218414512097 -2.673482858795257 11.000000000000000
6.415351443624520 -4.386411162363025 -2.786431224610043 76.000000000000000
7.384613056510188 -6.202688356480591 -0.786843795171166 51.000000000000000
7.308000873741876 -6.066775655601644 -0.935570614110564 55.000000000000000
7.258912951638315 -5.956140134488875 -1.082996518400846 56.000000000000000
7.232351486810188 -5.863843717193844 -1.232109098887237 55.000000000000000
7.212186587467449 -5.778395531626576 -1.380161478825089 26.000000000000000
7.233338161248646 -5.725849444955352 -1.534070134879280 54.000000000000000
7.264613284282298 -5.681131983366065 -1.691008343386958 48.000000000000000
7.339930887038538 -5.670848257055455 -1.859702830816996 44.000000000000000
7.438538301756854 -5.676107013962619 -2.037089369502629 36.000000000000000
7.621910326571054 -5.743900828612276 -2.243323927741316 20.000000000000000
8.073857608218814 -6.008556527493926 -2.540565247758318 0.000000000000000
8.921887758661001 -6.555958917343752 -2.989037553453610 9.000000000000000
8.167821845812179 -5.925830177038148 -2.901934356248830 13.000000000000000
8.185914931960058 -5.862991104722392 -3.074884718596692 17.000000000000000
6.447872588416798 -4.499028831918044 -2.684500447590468 4.000000000000000
6.408391170704791 -4.411191875249482 -2.798880641071686 77.000000000000000
7.375260363581313 -6.231148302555381 -0.797288781400837 52.000000000000000
7.304956727517563 -6.100085354943412 -0.946922315451895 56.000000000000000
7.262141260213670 -5.994286306751669 -1.095552823642768 56.000000000000000
7.229538101251473 -5.896766893677329 -1.244051061727074 55.000000000000000
7.224834846890682 -5.823580836975348 -1.395393733097447 56.000000000000000
7.239805343238301 -5.765958865466634 -1.548674579685757 53.000000000000000
7.277207426648977 -5.726017835809010 -1.707638080367756 47.000000000000000
7.339972901325280 -5.706088154588630 -1.873929502375655 41.000000000000000
7.450730782651512 -5.721010547562689 -2.055262785904915 35.000000000000000
7.658458485944917 -5.807895288184995 -2.269744906489888 24.000000000000000
9.409606823574082 -7.047233833732029 -2.980633945732124 24.000000000000000
8.868223447964718 -6.558410905460513 -2.990157733649740 9.000000000000000
8.116049785775877 -5.926455282403960 -2.901458884849749 12.000000000000000
8.134085704695257 -5.863994940893223 -3.073817997515619 17.000000000000000
6.407505062884326 -4.440267767600659 -2.814044246474888 62.000000000000000
7.377940044868188 -6.269934559415600 -0.809059524989541 52.000000000000000
7.307859764793873 -6.138551027674572 -0.959083384665954 56.000000000000000
7.256021520631455 -6.024890285217544 -1.106736076589375 57.000000000000000
7.235770976592700 -5.937271600798704 -1.257601014888242 56.000000000000000
7.221897882146430 -5.856435631649981 -1.407682020979650 55.000000000000000
7.242998815863970 -5.803691953329259 -1.562648989458076 53.000000000000000
7.286490346188899 -5.768587802971868 -1.723588464309328 47.000000000000000
7.352200418447133 -5.751044638548041 -1.891351520054798 41.000000000000000
7.465784413225498 -5.768427571811089 -2.074344822831734 30.000000000000000
7.685365968063281 -5.865071289398267 -2.293509255968002 23.000000000000000
7.806904147770352 -5.884112792529538 -2.489419264068688 13.000000000000000
8.817726281219192 -6.562929123521165 -2.992211314251385 9.000000000000000
8.042686154930772 -5.910920877691245 -2.893074107408693 14.000000000000000
8.082334808091842 -5.864765206765138 -3.072636834939021 17.000000000000000
6.418814338979473 -4.477995329796308 -2.834670405538177 28.000000000000000
7.365291959862275 -6.295840794312757 -0.819169725182423 51.000000000000000
7.304504324508469 -6.171949851375295 -0.970461542435119 56.000000000000000
7.255866641229643 -6.060606315057660 -1.118861197188481 56.000000000000000
7.232638207742000 -5.970294886043029 -1.269574546688391 56.000000000000000
7.228004504281701 -5.896826682255458 -1.421788298419812 56.000000000000000
7.242941599988331 -5.839021888239195 -1.575981081048270 52.000000000000000
7.286333549307377 -5.803914969803890 -1.737380335886205 47.000000000000000
7.364198456987690 -5.796125577643076 -1.908823033780724 40.000000000000000
7.486758239278192 -5.820780913724533 -2.095209922900394 29.000000000000000
7.727390837366499 -5.934307789147671 -2.321998688682993 23.000000000000000
7.789962962084980 -5.908665188306563 -2.500523293600433 38.000000000000000
8.764197219213347 -6.564913986653689 -2.993101309774160 9.000000000000000
7.994215665505383 -5.913302124532789 -2.893459845476399 21.000000000000000
8.033749704774559 -5.867556469595063 -3.072521888798815 17.000000000000000
6.442223061442721 -4.524480137004871 -2.860807144227650 1.000000000000000
7.364629700898679 -6.332123628913684 -0.830628507092083 51.000000000000000
7.297968548109369 -6.202806861021282 -0.981440836563136 57.000000000000000
7.255547881490157 -6.096375346125151 -1.131003350375725 56.000000000000000
7.232406035951288 -6.005886413381644 -1.282098015244216 55.000000000000000
7.233915259180943 -5.937306244095346 -1.435927779108523 55.000000000000000
7.251906741690428 -5.881857545660695 -1.591346732292894 51.000000000000000
7.295214327172052 -5.846672090524524 -1.753401661486962 46.000000000000000
7.372894259504737 -5.838897250463352 -1.925541258112525 41.000000000000000
7.501301531697261 -5.868497735501246 -2.114413786129167 26.000000000000000
7.769022241268106 -6.003841648041157 -2.350615851203241 33.000000000000000
7.794486705635918 -5.949635752341093 -2.518568524009143 38.000000000000000
7.805169300704526 -5.883988726735843 -2.682630211375602 23.000000000000000
7.948889898043713 -5.917761549085288 -2.894861592018912 30.000000000000000
7.982150830608123 -5.867869660056146 -3.071116697557196 16.000000000000000
6.467802257593582 -4.634209893921105 -2.754638382029686 2.000000000000000
7.360788922948577 -6.365850534483157 -0.841758519064713 53.000000000000000
7.294323928533140 -6.236266981012727 -0.992832597752134 56.000000000000000
7.252031838798644 -6.129633168765706 -1.142684306979853 56.000000000000000
7.232009403949325 -6.041530872002312 -1.294638445216073 55.000000000000000
7.233533084939699 -5.972839605725013 -1.448878929850752 55.000000000000000
7.254549930526478 -5.919813518223262 -1.605401262911982 40.000000000000000
7.300821469076452 -5.887067404580343 -1.768722491121783 46.000000000000000
7.384439146855318 -5.884215844732383 -1.943106373565558 40.000000000000000
7.503325969817742 -5.906694928718879 -2.130190228525456 29.000000000000000
7.754997302206776 -6.030697265356995 -2.362524780056554 36.000000000000000
7.792662992951574 -5.985973013224632 -2.534646832051641 40.000000000000000
7.794081771328011 -5.913219363362792 -2.695928430541827 39.000000000000000
7.900542311479895 -5.919722661875501 -2.895040378128350 31.000000000000000
7.878438189305125 -5.829330634397151 -3.049395358456731 14.000000000000000
6.453958325183414 -4.654938829881363 -2.764370168204402 32.000000000000000
7.350786198917845 -6.394380229587209 -0.852199353005596 53.000000000000000
7.296563177289283 -6.274949308812022 -1.005063665478790 56.000000000000000
7.257442523509428 -6.170642254162320 -1.155819271817033 55.000000000000000
7.237514614039742 -6.082326022405847 -1.308292157251520 55.000000000000000
7.232985655404677 -6.008425609743710 -1.461846845906266 55.000000000000000
7.180846306546764 -5.895309771906238 -1.602483389935919 15.000000000000000
7.312333928630194 -5.932502139932526 -1.785566261973975 44.000000000000000
7.401864634679177 -5.934556906691781 -1.962339993763208 37.000000000000000
7.495986389254248 -5.937690612633451 -2.143366100496987 30.000000000000000
7.676561308875539 -6.007213358233075 -2.354692790947720 33.000000000000000
7.787603066861641 -6.019991991565929 -2.549737024575125 46.000000000000000
7.792061898409067 -5.949466053340252 -2.712417565846683 40.000000000000000
7.849197988836640 -5.919159469530280 -2.893984468913542 32.000000000000000
7.744459644234840 -5.767456222693419 -3.015501540064761 2.000000000000000
6.433921612993269 -4.671201226965644 -2.771449399691927 59.000000000000000
7.349661380740932 -6.430780186581263 -0.863689631939134 52.000000000000000
7.289596410862300 -6.305891680665858 -1.016060174621848 56.000000000000000
7.250587539181908 -6.201413920126770 -1.167043155979232 55.000000000000000
7.239797586471857 -6.120649434028164 -1.321425522928537 54.000000000000000
7.238337421668328 -6.049132065266164 -1.476067961526358 54.000000000000000
7.244097595681732 -5.983386011358593 -1.630164980398136 44.000000000000000
7.314483720905549 -5.970604204752229 -1.800210356264713 42.000000000000000
7.406833439965935 -5.975217952723376 -1.978380350199289 37.000000000000000
7.500715526008817 -5.978431577650698 -2.160057052311181 30.000000000000000
7.503681379873783 -5.908792364332094 -2.317438789816512 30.000000000000000
7.748775664914199 -6.027896608137097 -2.553756874967307 35.000000000000000
7.795980907216163 -5.990458693933734 -2.731062491155194 42.000000000000000
7.797937810375330 -5.918365221773009 -2.892815757566755 32.000000000000000
7.803415184559669 -5.849102734068972 -3.056649908591177 10.000000000000000
6.426031167004988 -4.696311425008745 -2.783775572852964 74.000000000000000
7.351362185884787 -6.469861529700662 -0.875551139821473 52.000000000000000
7.291497857829968 -6.344683131418510 -1.028326286328612 55.000000000000000
7.252627102804037 -6.239969815097842 -1.179735908727087 56.000000000000000
7.235864188678613 -6.153908513443008 -1.333470453805427 54.000000000000000
7.237442486551891 -6.084838722787716 -1.489076214139734 54.000000000000000
7.273510031131049 -6.044172937781266 -1.650462155042815 48.000000000000000
7.325557599059073 -6.016254754805840 -1.817137470898661 40.000000000000000
7.420721469560664 -6.023367332865179 -1.996906318427083 34.000000000000000
7.499155518947795 -6.014375938243369 -2.175013695615272 31.000000000000000
7.502106016747308 -5.944607852625872 -2.332798060695072 29.000000000000000
7.594167280332523 -5.944987297998461 -2.519280322823138 36.000000000000000
7.784454219842967 -6.019750011306841 -2.744364826428928 45.000000000000000
7.752857896637424 -5.921996012239680 -2.893809542033487 32.000000000000000
7.782675100197293 -5.871399399510454 -3.066763338798304 16.000000000000000
6.418028653911793 -4.721427755301447 -2.796098022072247 76.000000000000000
7.349898825497752 -6.506367748289628 -0.887074956789620 52.000000000000000
7.293218029697550 -6.383540930995273 -1.040615180363325 54.000000000000000
7.251483761466117 -6.275995088295626 -1.191958434209168 56.000000000000000
7.237799779290318 -6.192350644947646 -1.346643176539896 54.000000000000000
7.245430448756458 -6.128250144906572 -1.503978648015113 53.000000000000000
7.275391653781372 -6.082439604783071 -1.664628708828098 48.000000000000000
7.333371370558150 -6.059523057390090 -1.833354482481759 40.000000000000000
7.437391604611470 -6.074129510343761 -2.016308709306649 34.000000000000000
7.500460594636729 -6.052819727453949 -2.190872021649358 30.000000000000000
7.500360034115105 -5.980473359274023 -2.348172429286764 28.000000000000000
7.504023072634437 -5.911539159213001 -2.505737115992268 31.000000000000000
7.739364434673099 -6.023014867186455 -2.745794248840953 36.000000000000000
7.698713675287165 -5.918421836180075 -2.891282538074275 32.000000000000000
7.734517213857602 -5.872879361516332 -3.066005132679321 17.000000000000000
6.419010349874600 -4.753285717500372 -2.812402001138836 68.000000000000000
7.345294600248377 -6.540273034811479 -0.898249333804306 50.000000000000000
7.285802222622937 -6.414580877208221 -1.051634034527808 55.000000000000000
7.253167951679091 -6.314675985992730 -1.204693262478904 55.000000000000000
7.242554592470473 -6.233442986369543 -1.360402701689905 54.000000000000000
7.247186746245953 -6.166643276848850 -1.517659698724276 53.000000000000000
7.259002503051957 -6.105560447294604 -1.674645719284269 44.000000000000000
7.337948593509770 -6.100382518121431 -1.848849256052655 41.000000000000000
7.453794892634505 -6.125044551230188 -2.035772812467327 37.000000000000000
7.501578773442386 -6.091330039805820 -2.206752875153418 29.000000000000000
7.501472766972024 -6.018819141685766 -2.364516539602561 29.000000000000000
7.505113907676658 -5.949726724108139 -2.522544973084093 31.000000000000000
7.551841438084723 -5.914490476702356 -2.696254679184374 36.000000000000000
7.653766776875866 -5.921636137246295 -2.892071849600207 32.000000000000000
7.686430107370110 -5.874146490380207 -3.065142609091490 17.000000000000000
6.419830679992727 -4.785201176840700 -2.828725461649917 46.000000000000000
7.340540060097886 -6.574209028548415 -0.909430192511040 52.000000000000000
7.284205709760857 -6.450907954400638 -1.063521387531971 55.000000000000000
7.248698942300879 -6.348193498411396 -1.216448498956441 54.000000000000000
7.241123785741634 -6.269435054309032 -1.373057325594186 53.000000000000000
7.251760113102034 -6.207671327671437 -1.531997372591843 52.000000000000000
7.182397553557553 -6.077764386616821 -1.670652999106252 26.000000000000000
7.348347860640844 -6.146363676065959 -1.865903877629304 41.000000000000000
7.463899031739973 -6.171124688051403 -2.053638558391799 38.000000000000000
7.502509630985367 -6.129906202138083 -2.222655886537738 29.000000000000000
7.502397867821966 -6.057230961664734 -2.380882884551558 29.000000000000000
7.509039762559160 -5.990392040311995 -2.540397812877380 30.000000000000000
7.504222886714617 -5.914576209617811 -2.696221639096382 30.000000000000000
7.599806618855230 -5.917594176590774 -2.889317309881894 32.000000000000000
7.635393267412178 -5.872877115949437 -3.062963929417748 17.000000000000000
6.432552197773203 -4.826224136528664 -2.850413444907823 10.000000000000000
7.332675856608704 -6.605509541030606 -0.920245883045106 54.000000000000000
7.285411546924102 -6.489927351086144 -1.075861315211656 55.000000000000000
7.253011653939593 -6.389611437636939 -1.229725019602204 55.000000000000000
7.242511358143052 -6.308076014563166 -1.386298027720506 53.000000000000000
7.250149183847211 -6.243628623539509 -1.545089778387574 51.000000000000000
7.279933473642910 -6.197641149704570 -1.707265884044458 41.000000000000000
7.355509376674069 -6.189934394888657 -1.882235372272623 41.000000000000000
7.479782354421238 -6.222325339050073 -2.073216656672452 35.000000000000000
7.506263681953386 -6.171022879554333 -2.239478992311500 27.000000000000000
7.500121607005960 -6.093260067497727 -2.396308333658233 28.000000000000000
7.506731325450359 -6.026299657564834 -2.556227150457535 29.000000000000000
7.507937386905971 -5.955108657975177 -2.714619138297052 31.000000000000000
7.527863905184437 -5.899131128204075 -2.879524432484472 36.000000000000000
7.587458989929157 -5.873711087013421 -3.061889635901141 17.000000000000000
7.050222800191638 -6.388142749118265 -0.896173356302072 25.000000000000000
7.280513037740126 -6.523704577434700 -1.087338260916801 55.000000000000000
7.251186459422300 -6.425847885390008 -1.242013641035983 54.000000000000000
7.243715419229863 -6.346781930430430 -1.399560664199047 53.000000000000000
7.260306772335237 -6.289975339336008 -1.560762570709568 51.000000000000000
7.296029200208189 -6.248978582008172 -1.725057851584281 46.000000000000000
7.365447579638316 -6.236140364994347 -1.899376555527703 40.000000000000000
7.492396939306109 -6.271165412566710 -2.092017321176733 32.000000000000000
7.659949356455535 -6.336415910124046 -2.301439825514300 23.000000000000000
5.679600236175405 -4.643064683573951 -1.826935001959453 2.000000000000000
7.510263575353226 -6.067112457774072 -2.574131203619051 29.000000000000000
7.499418433480877 -5.986122391959772 -2.728669615040456 30.000000000000000
7.507238073306298 -5.920627771222049 -2.889236457151711 36.000000000000000
7.542603571346679 -5.876674705717691 -3.061931705424898 17.000000000000000
6.476794116424482 -4.984504542990123 -2.765544509560463 11.000000000000000
6.827988534795121 -6.222890587221944 -0.878979697246108 16.000000000000000
7.284321639306367 -6.565495590720144 -1.100159035488646 55.000000000000000
7.252155227081531 -6.464771159780759 -1.254828440059015 54.000000000000000
7.241766400669901 -6.382935109007714 -1.412265836280548 53.000000000000000
7.160121018633865 -6.240469935218731 -1.552603615269741 30.000000000000000
7.302911906143174 -6.292756797774342 -1.740777290516244 45.000000000000000
7.378137271630224 -6.285006250355994 -1.917338476630307 39.000000000000000
7.510740006434645 -6.325175321800474 -2.112552414551738 33.000000000000000
7.737743740898159 -6.440432365997519 -2.341163971020179 18.000000000000000
5.640019665876858 -4.639502699364518 -1.826465677507142 4.000000000000000
7.510591840502180 -6.105569157928560 -2.591029807457571 24.000000000000000
7.508751923856219 -6.031601602857101 -2.749305848827507 28.000000000000000
7.525515202765289 -5.973004218602226 -2.914007813563390 36.000000000000000
7.500803128075261 -5.881794143326904 -3.063102037050298 19.000000000000000
6.455896973914143 -5.000729302445968 -2.772629925876238 43.000000000000000
6.800510223948889 -6.234020907387586 -0.886491974143645 55.000000000000000
6.899240862510691 -6.254972926011437 -1.053647576719396 7.000000000000000
7.249986969512221 -6.501109494553264 -1.267148089898106 56.000000000000000
7.245571352729942 -6.424385973854354 -1.426150283610608 51.000000000000000
7.259146685188083 -6.364798646370868 -1.587697576391178 49.000000000000000
7.312549768655090 -6.339210667799486 -1.757247845410419 45.000000000000000
7.387595345314554 -6.331450570124732 -1.934571966082927 38.000000000000000
7.525812630884393 -6.376822629194207 -2.132308936485897 35.000000000000000
7.770124358295987 -6.507439257346200 -2.367459771266429 19.000000000000000
5.621435954347248 -4.653077917366680 -1.832730123637027 2.000000000000000
5.713776236378684 -4.674106133030564 -1.983993189948067 1.000000000000000
7.505884193863533 -6.067526380676438 -2.765578798028549 29.000000000000000
7.561441788215566 -6.039876525728810 -2.945835303844635 20.000000000000000
7.491917592495944 -5.912680122745313 -3.077688833092495 19.000000000000000
6.443910998040265 -5.023872299307586 -2.783548485222704 64.000000000000000
6.778868412516373 -6.250448535699215 -0.894724621525116 72.000000000000000
6.821498478398833 -6.220844662260626 -1.053334798260193 23.000000000000000
7.253540735091763 -6.542806553968801 -1.280520676017113 50.000000000000000
7.249175225991631 -6.465916543911503 -1.440063120158522 52.000000000000000
7.265699923314160 -6.408819120707586 -1.602823166292974 50.000000000000000
7.316020832844761 -6.380605497512165 -1.772325212397255 44.000000000000000
7.396816430614679 -6.378008494454765 -1.951848953288038 34.000000000000000
7.537638724491704 -6.426080848388700 -2.151274828796877 35.000000000000000
7.799152790805413 -6.572184152577552 -2.392945300311034 16.000000000000000
5.590892906570331 -4.656664788056175 -1.835049197961538 1.000000000000000
5.647171917141492 -4.648662567850758 -1.973616393454331 2.000000000000000
7.508806960414885 -6.108348691880316 -2.784075841213554 29.000000000000000
7.570143433026380 -6.085445519046729 -2.967257528109359 17.000000000000000
6.431828130706595 -5.047000663846058 -2.794453648960519 73.000000000000000
6.768852641378108 -6.277636967703070 -0.904479972711605 21.000000000000000
6.799653988016801 -6.237371768924616 -1.061528642792739 74.000000000000000
6.857485350294123 -6.222176920357422 -1.222705623718511 11.000000000000000
7.249632917445800 -6.504883970079974 -1.453413601863863 52.000000000000000
6.885412454268835 -6.109861517767419 -1.531963305142935 27.000000000000000
7.325203176147389 -6.427269146666205 -1.788874994087865 43.000000000000000
7.405799859436168 -6.424679143387800 -1.969168948184246 37.000000000000000
7.546242378412686 -6.472923624401569 -2.169438111334934 31.000000000000000
7.833761414606323 -6.642193891136904 -2.420360801940226 16.000000000000000
5.587125280916464 -4.682540702824369 -1.846142914765047 1.000000000000000
5.595662170029447 -4.635201362037372 -1.968313291188226 7.000000000000000
7.508548638390165 -6.146815825626908 -2.801491129872054 30.000000000000000
7.581576551685409 -6.133532758465182 -2.989895130563688 34.000000000000000
6.428556303892199 -5.077149388590041 -2.809237963154362 73.000000000000000
6.886794906087860 -6.424294836404070 -0.931551274184255 18.000000000000000
6.783600293146629 -6.259219821550117 -1.070606504900405 54.000000000000000
6.814894769564338 -6.220135163443862 -1.227188587077712 29.000000000000000
7.232286788109818 -6.528010411735559 -1.463219696014347 45.000000000000000
6.830806783409909 -6.097807886906839 -1.532799289567274 31.000000000000000
7.334148554466256 -6.474044811270383 -1.805467463756561 42.000000000000000
7.036432714332450 -6.141442873560334 -1.885226269567414 54.000000000000000
7.572353516466175 -6.535194406683007 -2.192782772761928 27.000000000000000
7.512629293754014 -6.409305205622885 -2.337330074209554 22.000000000000000
5.553601048611502 -4.683449973013042 -1.847384026981224 1.000000000000000
5.562087692630484 -4.636322019379100 -1.969191365030068 23.000000000000000
7.546647906789854 -6.217101731680682 -2.833399270995419 27.000000000000000
7.563102894141506 -6.157611004045918 -3.000819443998751 27.000000000000000
6.428097978674528 -5.109687492743518 -2.825332918978026 57.000000000000000
7.308674615172874 -6.857632761874662 -1.000665914674278 53.000000000000000
6.770376478227911 -6.283735374924327 -1.080125956073111 18.000000000000000
6.798653037771259 -6.242040679900154 -1.236361202268669 78.000000000000000
6.845912486207912 -6.216098904796954 -1.397676871442278 14.000000000000000
6.840897882361141 -6.143484242318796 -1.548125811259369 30.000000000000000
7.336974965149370 -6.515708597384855 -1.820642698262485 43.000000000000000
6.883996194213365 -6.044998343305559 -1.858412071497855 32.000000000000000
7.592224190210058 -6.592553815273359 -2.214493630226539 27.000000000000000
7.323039828247974 -6.286184848940842 -2.294203068353030 19.000000000000000
5.570359755176486 -4.726844525381617 -1.865377449949468 3.000000000000000
5.528559496408397 -4.637298301038443 -1.969998568999105 27.000000000000000
7.581379693830476 -6.285217144743295 -2.864308534603047 22.000000000000000
7.523843771351647 -6.164691925878179 -3.003456069814473 20.000000000000000
6.433380003048866 -5.147001995600239 -2.844054885837846 24.000000000000000
7.308312810464245 -6.897317167363610 -1.012709117760590 54.000000000000000
7.006777733886763 -6.541368102653293 -1.129899612133177 49.000000000000000
6.776504596726115 -6.258531462230541 -1.244440993707725 40.000000000000000
6.811919239680442 -6.222103624067516 -1.403355537074370 37.000000000000000
7.087796466734302 -6.403426809574895 -1.617593997443812 37.000000000000000
7.345461140526583 -6.562688988090164 -1.837311589963440 43.000000000000000
6.820363412776389 -6.025597889882230 -1.855197290615756 24.000000000000000
7.608844795637881 -6.647519872545954 -2.235411465480335 21.000000000000000
7.290390904604504 -6.296836229987957 -2.299841288169903 27.000000000000000
5.542678732644607 -4.732640968072933 -1.868528280226674 5.000000000000000
5.500974266255457 -4.643106997203244 -1.972849597540956 28.000000000000000
7.536109447455503 -6.287181044568198 -2.865062810619385 25.000000000000000
7.502299239792253 -6.186197227148219 -3.013116324245751 18.000000000000000
6.066221224225568 -4.826635122702617 -2.828437280734496 0.000000000000000
7.301993103700566 -6.931579939754100 -1.023961059956834 54.000000000000000
7.270615573504348 -6.827579427252876 -1.185008163207892 56.000000000000000
6.774633762839220 -6.293837654390718 -1.256251949082044 13.000000000000000
6.795411826551123 -6.244024529542676 -1.412597530097830 73.000000000000000
6.837036533068993 -6.213959844584672 -1.573536938037723 16.000000000000000
6.874182323073335 -6.178763392237561 -1.733123288139389 7.000000000000000
6.885786316758966 -6.120440945106283 -1.887158031909756 58.000000000000000
7.669163754262108 -6.741313387187107 -2.269409862947683 25.000000000000000
7.251866162631155 -6.302260757431315 -2.303550846980928 27.000000000000000
5.515011000906285 -4.738327012836918 -1.871623567735410 3.000000000000000
5.511616649694195 -4.681262205153279 -1.989438632734668 4.000000000000000
7.543819197571823 -6.333378675745304 -2.885966469653011 31.000000000000000
7.510074590101092 -6.232035406673797 -3.034619307439086 18.000000000000000
6.498481405396824 -5.329622069996798 -2.766219805929163 0.000000000000000
6.028147982793914 -4.827606993617331 -2.826626719734092 17.000000000000000
7.301276257696755 -6.971363182850651 -1.036033002171310 54.000000000000000
7.267137620179490 -6.864430832581960 -1.197048100148899 55.000000000000000
7.206924010798739 -6.735080381275905 -1.349397851015407 51.000000000000000
6.778821715843997 -6.265909013738266 -1.421815872873619 30.000000000000000
6.811578124478608 -6.227983668770061 -1.580860169546290 48.000000000000000
6.836920604112865 -6.182420325153362 -1.737410595163844 16.000000000000000
7.461731266095744 -6.672750485012931 -2.060428954690970 27.000000000000000
6.825325244543173 -6.036356357032603 -2.034264790314614 8.000000000000000
7.195806974104587 -6.292168903315989 -2.301563921243777 26.000000000000000
5.502005639972443 -4.756566695599387 -1.879667845132794 4.000000000000000
5.510328085409250 -4.709505021750484 -2.001810890483161 2.000000000000000
5.613629867845624 -4.742661898812101 -2.160999264319061 0.000000000000000
7.508813409511557 -6.270640131767014 -3.052588658665353 18.000000000000000
6.473754777210122 -5.343389988047987 -2.772053845107930 21.000000000000000
5.993057988800199 -4.830769742275233 -2.826113875978136 21.000000000000000
6.215396411764621 -4.948731495240704 -3.066131117978520 8.000000000000000
5.742156695740194 -5.514708021074145 -0.824407619971172 41.000000000000000
7.263489680257251 -6.901323229868455 -1.209098565739974 55.000000000000000
7.255438861047089 -6.820557219529805 -1.371608598955097 55.000000000000000
6.776622793111028 -6.301215202596643 -1.434073390888019 9.000000000000000
6.788988312101594 -6.244589703179603 -1.588816269142289 58.000000000000000
6.805507546038165 -6.191213664851220 -1.743111125825640 38.000000000000000
6.962547856077233 -6.264252469081852 -1.937050426663247 20.000000000000000
7.674439772667735 -6.828931219440530 -2.303791782224708 23.000000000000000
7.145719120047358 -6.286956588550636 -2.301334202385507 23.000000000000000
5.456796222662460 -4.746827263590799 -1.876643256979811 5.000000000000000
5.485520364390491 -4.717680691453246 -2.005646834651214 1.000000000000000
5.570963699090123 -4.736328588041201 -2.157992346956709 1.000000000000000
7.513203458822087 -6.314214755699749 -3.072966287684813 18.000000000000000
6.454840084844627 -5.361925396464532 -2.780358883639244 51.000000000000000
6.035188236445993 -4.954508256292804 -2.730445913947084 5.000000000000000
5.958011449961010 -4.833783996281305 -2.825527886860835 48.000000000000000
5.961388528322001 -4.777636969891843 -2.957176998137504 21.000000000000000
5.708377214473661 -5.514285356967600 -0.829148104508864 82.000000000000000
5.764104502578593 -5.508903941455254 -0.969587874909716 0.000000000000000
7.251663806510220 -6.857367947991317 -1.384071119274966 55.000000000000000
7.256277320196624 -6.787442519151440 -1.549257726014368 50.000000000000000
6.777920659732220 -6.271833042752415 -1.599464227238017 21.000000000000000
6.779893062644558 -6.205193061532225 -1.750247162036415 76.000000000000000
6.846433914423637 -6.197278606252483 -1.919037397216412 18.000000000000000
6.957189985076972 -6.228652168744000 -2.103469436988641 30.000000000000000
7.089910762758986 -6.276368248167671 -2.299109173029184 21.000000000000000
5.362188969204583 -4.693537175251994 -1.856376643644334 18.000000000000000
5.498591261008992 -4.758545425342668 -2.023374305289530 1.000000000000000
5.554625428573681 -4.752240197304185 -2.165115575522218 2.000000000000000
7.514451742647856 -6.355415838141501 -3.092177312463944 18.000000000000000
6.444598317728612 -5.387713008857160 -2.792419212317677 68.000000000000000
6.014511747143559 -4.969408608003975 -2.736868745513406 25.000000000000000
5.940446768546662 -4.850889406636402 -2.833185513630597 30.000000000000000
5.917672715925736 -4.773703485284156 -2.951819889792402 45.000000000000000
5.677495306198928 -5.516492894673268 -0.834238090180783 82.000000000000000
5.732991071435954 -5.511393613466238 -0.974421783561514 78.000000000000000
7.253458495510471 -6.899679610777874 -1.397649856910891 53.000000000000000
7.269603577212663 -6.840448367435959 -1.565869075823251 51.000000000000000
6.873458117717563 -6.398417686265651 -1.635496443305655 24.000000000000000
6.768697133801893 -6.232391312972301 -1.761096713088031 47.000000000000000
6.817663664231418 -6.208798596975977 -1.925274563174765 50.000000000000000
6.870081690108522 -6.188366071021447 -2.092009307404299 19.000000000000000
7.025532403482179 -6.257769902318380 -2.293919418214188 18.000000000000000
5.448044144215602 -4.798335870546017 -1.898632106572903 5.000000000000000
5.464951246311137 -4.759051609522847 -2.023934695917918 1.000000000000000
5.517892838839837 -4.750595885029925 -2.164235051055404 2.000000000000000
6.434241502510265 -5.413498961924020 -2.804471657304104 71.000000000000000
5.993793188323328 -4.984243870084019 -2.743255777199557 35.000000000000000
5.902539818397659 -4.851275914992680 -2.831086308970823 21.000000000000000
5.885627821958545 -4.778970037428038 -2.952173186442923 55.000000000000000
5.646641905791796 -5.518574839621844 -0.839265707180227 81.000000000000000
5.704759726227511 -5.516516453931548 -0.979682948466044 88.000000000000000
5.752523380008371 -5.504357833620610 -1.118981502043924 6.000000000000000
7.271178625216754 -6.882727065767644 -1.580039726823504 50.000000000000000
7.310479637842442 -6.846091151979838 -1.753894923726734 47.000000000000000
6.757384230925921 -6.259584583497813 -1.771936567056003 21.000000000000000
6.803310250825429 -6.233437805393665 -1.935563679474965 48.000000000000000
6.829543001736053 -6.189555139578701 -2.094529436783594 29.000000000000000
6.952662556791089 -6.231087867878222 -2.285732126513524 19.000000000000000
5.478230747991151 -4.854916361325620 -1.921821790983000 3.000000000000000
5.445844519127488 -4.772105927308134 -2.029823266208089 3.000000000000000
5.501506063858338 -4.766360208742105 -2.171280126987267 4.000000000000000
6.429559357700356 -5.444185325604835 -2.819054558939357 66.000000000000000
5.961462782340380 -4.989330622697397 -2.744280858837972 31.000000000000000
5.864695523388436 -4.851497900551029 -2.828906951261665 23.000000000000000
5.859381059155361 -4.788821215542271 -2.955371545031802 68.000000000000000
5.612981319039000 -5.517743228140652 -0.843804705146384 82.000000000000000
5.668004244039397 -5.513226048253363 -0.983407560684767 86.000000000000000
5.724106638253489 -5.509611978561372 -1.123990675937905 77.000000000000000
7.278269304986931 -6.930525816154725 -1.595488588394771 49.000000000000000
7.323223180049240 -6.899202572951044 -1.771457623702907 45.000000000000000
6.754573490175019 -6.294804978146320 -1.785044328001173 8.000000000000000
6.791734097669607 -6.260707779260909 -1.946660229535171 16.000000000000000
6.797702583140200 -6.198456590889559 -2.099636035608749 44.000000000000000
6.865610822303481 -6.191046327509460 -2.272604982679776 13.000000000000000
5.502314253792234 -4.906568367122268 -1.943064772793211 3.000000000000000
5.455582457046384 -4.810565739729107 -2.046512476901199 5.000000000000000
5.470623293551022 -4.769488827077979 -2.172563717922970 2.000000000000000
6.433385997315044 -5.482280991040558 -2.837462906334822 42.000000000000000
5.934927912419082 -4.999143963019175 -2.747910899464863 11.000000000000000
5.821153989794061 -4.846759293382203 -2.823853144042360 29.000000000000000
5.838880964810888 -4.803306989880449 -2.961437326659926 73.000000000000000
5.579367217226063 -5.516770421210899 -0.848274469140521 84.000000000000000
5.636985843082565 -5.515328840675386 -0.988049788270328 87.000000000000000
5.690012146504471 -5.509246077332516 -1.127816222630197 80.000000000000000
5.750509103745620 -5.508422170438608 -1.271623466266312 43.000000000000000
7.327114203581887 -6.944321425234525 -1.786981082915351 45.000000000000000
7.410426047024029 -6.947767129485269 -1.973631605956861 36.000000000000000
6.825948193854638 -6.330547879584270 -1.971002485818752 18.000000000000000
6.777356581410965 -6.217780217404678 -2.108255899186933 46.000000000000000
6.830658118199777 -6.197541481333465 -2.276530091921142 38.000000000000000
8.481990602552790 -7.610637083007598 -3.015125637341787 6.000000000000000
5.416161131580038 -4.805696943567000 -2.044761962516039 8.000000000000000
5.526164854456838 -4.848284003360110 -2.208307094615351 8.000000000000000
6.448520389753895 -5.530327643939799 -2.861006279895857 9.000000000000000
5.789197990012066 -4.851449614820067 -2.824308635277395 34.000000000000000
5.824075733996200 -4.822477048983267 -2.970392727688763 79.000000000000000
5.545800257468408 -5.515656675172239 -0.852675170209189 83.000000000000000
5.603169033707016 -5.514522036335920 -0.992128767082345 89.000000000000000
5.655964473838279 -5.508737359385974 -1.131571728165967 81.000000000000000
5.716213920878406 -5.508240208666255 -1.275064004035963 80.000000000000000
5.686199731219735 -5.421502824228189 -1.398155836651400 3.000000000000000
7.425289775657022 -7.003797522553523 -1.992960614411747 37.000000000000000
6.808277127336812 -6.352597342210703 -1.980472056132054 17.000000000000000
6.762673048134790 -6.242336250622061 -2.118638095145332 26.000000000000000
6.812929568053572 -6.219604746646745 -2.286159114372977 63.000000000000000
8.427690089220439 -7.608908747474443 -3.015634499182961 8.000000000000000
5.442851878163496 -4.859602852226765 -2.068013431049612 13.000000000000000
5.497958260344734 -4.853939722972810 -2.210729321570997 36.000000000000000
5.918312176866851 -5.108071621603412 -2.641342326492237 1.000000000000000
5.783038084234376 -4.877741967427974 -2.837340976246362 47.000000000000000
5.806336653095483 -4.839232743766761 -2.977861165765721 81.000000000000000
5.517903003725730 -5.520026320345581 -0.857881031476155 86.000000000000000
5.569399859423240 -5.513573577759345 -0.996138348067375 92.000000000000000
5.624792233843375 -5.510856750611320 -1.135828420289303 82.000000000000000
5.681965958240034 -5.507914750708808 -1.278434178331346 80.000000000000000
5.651980814967904 -5.421251695809040 -1.401099182043285 5.000000000000000
5.711577999039887 -5.419944664561038 -1.544879475551359 0.000000000000000
6.801930228182433 -6.385316192064086 -1.993259215030059 19.000000000000000
6.762167034154268 -6.280129611702960 -2.133507221081967 9.000000000000000
6.797975722947547 -6.244254023589937 -2.296728490504846 25.000000000000000
8.373481113880098 -7.606946976546660 -3.016029796189174 8.000000000000000
5.463503815389792 -4.908567426085230 -2.089159611613292 1.000000000000000
5.484078788589734 -4.872198696851971 -2.218886139245117 43.000000000000000
6.495886197309866 -5.706654922983658 -2.771994246311767 4.000000000000000
5.865923743057651 -5.095222774669208 -2.633488089421466 18.000000000000000
5.926727729527057 -5.089340769759905 -2.792154177210620 1.000000000000000
5.782459357526844 -4.908898015770860 -2.853191204478092 48.000000000000000
5.791390286873209 -4.858330980853513 -2.986771271053341 70.000000000000000
5.484415306365460 -5.518647308070250 -0.862151167970698 84.000000000000000
5.541301811497582 -5.518082998504057 -1.001094528760442 91.000000000000000
5.593651000354432 -5.512849819364660 -1.140022524060321 84.000000000000000
5.647765882086998 -5.507446057499651 -1.281734163103103 81.000000000000000
5.612144401412713 -5.415389837808045 -1.402556281315404 5.000000000000000
5.671495038453564 -5.414463398970574 -1.545895898825216 11.000000000000000
6.798273554338035 -6.420745216676335 -2.006889021076171 18.000000000000000
7.276768698443891 -6.799477406330946 -2.312124631187120 20.000000000000000
6.797170385533033 -6.282049402258253 -2.312126739090966 5.000000000000000
8.313660714977498 -7.599538154086499 -3.014243746086797 8.000000000000000
7.595252224259909 -6.866490927589617 -2.922900954737325 36.000000000000000
5.472981450038524 -4.892979463700193 -2.228185363775277 36.000000000000000
5.514548047951453 -4.875290603887787 -2.367514594353806 1.000000000000000
5.827944328013877 -5.094590199845691 -2.631955851682757 30.000000000000000
5.871461889863793 -5.074345104444884 -2.782174156459892 35.000000000000000
5.776027557561795 -4.935241912751312 -2.866233227933393 32.000000000000000
5.784893045375273 -4.884594428486921 -3.000080952701667 58.000000000000000
5.453770599244538 -5.519955939641251 -0.866796790046633 83.000000000000000
5.507612760890989 -5.516867877370827 -1.004972885059411 91.000000000000000
5.559730568221864 -5.511930141209828 -1.143576025982527 83.000000000000000
5.616432436682515 -5.509598867433539 -1.285609195733904 82.000000000000000
5.589337718350964 -5.425802882423489 -1.408198477241118 4.000000000000000
5.639985341188344 -5.416959900193758 -1.549159382011240 3.000000000000000
5.686132272528789 -5.403073245543744 -1.690939171761054 0.000000000000000
7.282820071223530 -6.846856106515987 -2.330405386804709 21.000000000000000
8.821959492819071 -8.203718680606119 -3.021329263177658 10.000000000000000
8.259655639929949 -7.597094675519340 -3.014405613212836 8.000000000000000
7.597461376258690 -6.911467754935671 -2.942456475250204 36.000000000000000
5.464639930839155 -4.916306274274787 -2.238637765205568 1.000000000000000
5.616972478484964 -4.997352232975795 -2.426126714645036 2.000000000000000
5.792873183833131 -5.096294666484532 -2.631635413272189 35.000000000000000
5.836247252636041 -5.076378880002770 -2.781545518728767 56.000000000000000
5.812016004462815 -4.998192644452691 -2.900509653975850 17.000000000000000
3.172382540867242 -2.696166436348623 -1.654410941062671 0.000000000000000
5.425943890590228 -5.523976091749463 -0.871828557657348 85.000000000000000
5.476767530909707 -5.518327318754984 -1.009297287946237 91.000000000000000
5.528661706752032 -5.513663207072807 -1.147641830566187 86.000000000000000
5.585130890758305 -5.511624915159259 -1.289421470153578 83.000000000000000
5.555248842196716 -5.425138353974729 -1.410938744773991 3.000000000000000
5.605686569616669 -5.416602743929284 -1.551578808078099 2.000000000000000
5.660119446282354 -5.411120626212680 -1.695572299370347 5.000000000000000
7.274478149676188 -6.880953485260038 -2.344163557342242 19.000000000000000
8.763529681105501 -8.199693934346355 -3.021745010987275 9.000000000000000
8.200076523331779 -7.589172670473219 -3.012372352357088 9.000000000000000
5.909413441442227 -5.409478452425445 -2.303317531485131 0.000000000000000
5.941123707647523 -5.378657547145684 -2.448977762447286 6.000000000000000
5.832008727256778 -5.221589470816109 -2.534297062986718 16.000000000000000
5.599170029366559 -4.957360190148265 -2.558728380929958 18.000000000000000
5.801081081086250 -5.078265224053125 -2.780844584804381 66.000000000000000
5.841956056885542 -5.056509441964871 -2.932056904757888 27.000000000000000
3.159650658137347 -2.702883723714217 -1.656986208335180 1.000000000000000
5.392579573055573 -5.522200812194170 -0.875903954817997 84.000000000000000
5.443169623043611 -5.516838527707269 -1.013041516414771 92.000000000000000
5.494832102797664 -5.512468085501597 -1.151060280085525 85.000000000000000
5.548260349876288 -5.507963606696763 -1.291866865158573 84.000000000000000
5.521210378235133 -5.424331181402683 -1.413609279019927 3.000000000000000
5.582687724834605 -5.427038238749558 -1.557065741107651 2.000000000000000
5.617201651027566 -5.402814776237903 -1.695055782373716 15.000000000000000
5.680775825655243 -5.406425063571242 -1.843499403482316 3.000000000000000
8.705207732624888 -8.195417262342723 -3.022038753547466 9.000000000000000
8.149105551098527 -7.588880981610751 -3.013347003582864 10.000000000000000
5.907946144091798 -5.441980533762299 -2.317459865599192 24.000000000000000
5.919746964684359 -5.393074551221423 -2.455344936883240 19.000000000000000
5.813776640174233 -5.238292113833517 -2.541708265775985 35.000000000000000
5.629662652366840 -5.016204923745517 -2.587927855164669 23.000000000000000
5.717984914512074 -5.037733198700531 -2.756938290227557 35.000000000000000
3.213419268230963 -2.799405025551369 -1.621995101558484 0.000000000000000
3.155349561676097 -2.716828443098904 -1.663991693007886 27.000000000000000
5.362034390966986 -5.523137450851356 -0.880365770058383 84.000000000000000
5.415176573546899 -5.520871773364595 -1.017761042374359 91.000000000000000
5.463838027577411 -5.513942032714705 -1.154998384527445 85.000000000000000
5.519833790662104 -5.512509194309835 -1.296202648552439 85.000000000000000
5.484424812044408 -5.420616016650103 -1.415488071679871 5.000000000000000
5.540043891985336 -5.418200369360268 -1.556995321874862 2.000000000000000
5.580003688191820 -5.399751999889279 -1.696154821782911 26.000000000000000
5.651766202812513 -5.411817968311878 -1.846988106784372 6.000000000000000
5.708367679676503 -5.407266705610243 -1.995131376131318 0.000000000000000
7.906673593199773 -7.408892938009632 -2.942924077122677 13.000000000000000
5.889407263771527 -5.458857865945141 -2.324941479014907 6.000000000000000
3.062564322203203 -2.776920377440248 -1.347040084676452 0.000000000000000
3.063611945474312 -2.747214771797704 -1.416685160917408 0.000000000000000
5.500198019573796 -4.877035610071708 -2.667348009459762 4.000000000000000
3.189219207114312 -2.796327913889422 -1.618959865770609 2.000000000000000
3.134146564115314 -2.716188395319794 -1.662067963644766 43.000000000000000
3.125467724406770 -2.677614581327778 -1.728909383846487 0.000000000000000
5.339802282134511 -5.532528055751129 -0.886140451642796 85.000000000000000
5.381663642754189 -5.519118135557449 -1.021375269927057 92.000000000000000
5.432877894978261 -5.515290692262901 -1.158874608443376 83.000000000000000
5.488640157075184 -5.514148245460309 -1.299823970093136 85.000000000000000
5.458866141931958 -5.427837095414728 -1.420193265055394 9.000000000000000
5.511478584616739 -5.422921569808252 -1.560791292588307 2.000000000000000
5.548473527782344 -5.401980667234063 -1.698890927142759 41.000000000000000
5.600348249934892 -5.395494798892053 -1.843040790264823 37.000000000000000
5.670745190422239 -5.404811818937305 -1.995423310272454 9.000000000000000
7.665530176244983 -7.227597483339673 -2.871912557147171 20.000000000000000
7.575873838509946 -7.065991079872259 -3.009792292193311 25.000000000000000
3.050060938376717 -2.783131304873419 -1.349683078363997 2.000000000000000
3.053900728557512 -2.756003241328182 -1.420577514218937 1.000000000000000
5.690271233373013 -5.078036907557161 -2.775573896716650 16.000000000000000
3.193086380378316 -2.817860346626903 -1.630172516744840 45.000000000000000
3.098999269883350 -2.703257640016775 -1.652642023232317 43.000000000000000
3.112713598396226 -2.684221512227581 -1.731348875199303 1.000000000000000
5.339560581729927 -5.564777641820384 -0.895566073013002 82.000000000000000
5.350962440722102 -5.520071467005187 -1.025450124158441 93.000000000000000
5.401952277707950 -5.516514267849726 -1.162689090847718 83.000000000000000
5.451931722650034 -5.510053162418116 -1.302057847750381 83.000000000000000
5.444429534561525 -5.446089632691835 -1.427767052386588 10.000000000000000
5.482930115485474 -5.427531851348498 -1.564531671555415 2.000000000000000
5.536511712203220 -5.423216242225035 -1.707588841232908 53.000000000000000
5.568646995978566 -5.397890611295418 -1.845462430576055 63.000000000000000
5.644379652092402 -5.412925184453157 -1.999600782795905 9.000000000000000
5.774286379717286 -5.478264222155559 -2.177554113509420 1.000000000000000
7.546201784180097 -7.082383353098451 -3.017131861916385 22.000000000000000
