# This PCD file was generated using the MATLAB® pcwrite function
# from Computer Vision Toolbox®.
# .PCD v.7 - Point Cloud Data file format
VERSION .7
FIELDS x y z intensity
SIZE 8 8 8 8
TYPE F F F F
COUNT 1 1 1 1
WIDTH 637
HEIGHT 1
VIEWPOINT 0 0 0 1 0 0 0
POINTS 637
DATA ascii
7.327114203581887 -6.944321425234525 -1.786981082915351 45.000000000000000
7.410426047024029 -6.947767129485269 -1.973631605956861 36.000000000000000
6.823078942827378 -6.327886867444891 -1.970173985404369 18.000000000000000
6.774483602783829 -6.215144447918707 -2.107362191726489 46.000000000000000
6.833534184775861 -6.200150972483500 -2.277488630907214 39.000000000000000
8.484868780565195 -7.613219586259382 -3.016148754286932 6.000000000000000
5.421919941927278 -4.810806669184828 -2.046936084751568 8.000000000000000
5.529044565167862 -4.850810467145082 -2.209457853914264 9.000000000000000
6.445642870615229 -5.527859849364191 -2.859729614889210 9.000000000000000
5.792069615999175 -4.853856087843292 -2.825709582021084 34.000000000000000
5.821208143777588 -4.820102614197947 -2.968930200496399 78.000000000000000
5.548619678036515 -5.518460771092510 -0.853108660382147 83.000000000000000
5.603169033707016 -5.514522036335920 -0.992128767082345 89.000000000000000
5.655964473838279 -5.508737359385974 -1.131571728165967 81.000000000000000
5.716213920878406 -5.508240208666255 -1.275064004035963 80.000000000000000
5.683349505790551 -5.418785278952886 -1.397455006658091 3.000000000000000
7.419578014291131 -6.998409985997712 -1.991427567785276 38.000000000000000
6.811137747978550 -6.355266500757851 -1.981304187248076 17.000000000000000
6.762673048134790 -6.242336250622061 -2.118638095145332 26.000000000000000
6.812929568053572 -6.219604746646745 -2.286159114372977 63.000000000000000
8.424820599915291 -7.606318039695255 -3.014607725434516 8.000000000000000
5.445722580630881 -4.862165933899881 -2.069104155433077 12.000000000000000
5.500829256825331 -4.856474417345119 -2.211883749415159 36.000000000000000
5.918312176866851 -5.108071621603412 -2.641342326492237 1.000000000000000
5.783038084234376 -4.877741967427974 -2.837340976246362 47.000000000000000
5.806336653095483 -4.839232743766761 -2.977861165765721 81.000000000000000
5.515092049572024 -5.517214284522685 -0.857444005988902 84.000000000000000
5.569399859423240 -5.513573577759345 -0.996138348067375 91.000000000000000
5.624792233843375 -5.510856750611320 -1.135828420289303 82.000000000000000
5.684801270594445 -5.510663211163252 -1.279072119538099 80.000000000000000
5.649139195654194 -5.418526079069066 -1.400394758120689 5.000000000000000
7.434162589976643 -7.054574037472020 -2.010807732135891 35.000000000000000
6.799078265822609 -6.382638910641838 -1.992423466931515 18.000000000000000
6.765022679016663 -6.282781693464660 -2.134408195415194 9.000000000000000
6.800834417532470 -6.246879866324836 -2.297694314092106 26.000000000000000
8.370620341377920 -7.604348087931510 -3.014999379449786 8.000000000000000
5.460641843773559 -4.905996149277432 -2.088065237798931 2.000000000000000
5.481216534524709 -4.869655795653197 -2.217728056708977 43.000000000000000
6.495886197309866 -5.706654922983658 -2.771994246311767 3.000000000000000
5.868783774136666 -5.097707037357979 -2.634772091415333 18.000000000000000
5.918154835029187 -5.081979138945402 -2.788115381390161 1.000000000000000
5.779605231486604 -4.906475065121417 -2.851782916618034 49.000000000000000
5.791390286873209 -4.858330980853513 -2.986771271053341 69.000000000000000
5.487217766920578 -5.521467260705951 -0.862591715322752 83.000000000000000
5.538490395053391 -5.515283362279549 -1.000586616772233 92.000000000000000
5.590831619809901 -5.510071165221836 -1.139447915933275 84.000000000000000
5.647765882086998 -5.507446057499651 -1.281734163103103 81.000000000000000
5.617810372539833 -5.420857167275797 -1.403972289676147 5.000000000000000
5.674333624558896 -5.417173340611701 -1.546669620496299 11.000000000000000
6.798273554338035 -6.420745216676335 -2.006889021076171 18.000000000000000
7.273921762333390 -6.796817203902805 -2.311220044085716 20.000000000000000
6.797170385533033 -6.282049402258253 -2.312126739090966 5.000000000000000
8.316512742667028 -7.602145199765432 -3.015277791968817 8.000000000000000
7.595252224259909 -6.866490927589617 -2.922900954737325 35.000000000000000
5.472981450038524 -4.892979463700193 -2.228185363775277 36.000000000000000
5.511695203643148 -4.872768467000107 -2.366289806669195 1.000000000000000
5.825093083235006 -5.092097738886864 -2.630668202048862 31.000000000000000
5.877159572435229 -5.079269262721881 -2.784873985820843 35.000000000000000
5.778872891333993 -4.937673066402915 -2.867645165484099 32.000000000000000
5.784893045375273 -4.884594428486921 -3.000080952701667 58.000000000000000
5.456564539100707 -5.522783785921805 -0.867240845779239 83.000000000000000
5.507612760890989 -5.516867877370827 -1.004972885059411 91.000000000000000
5.562541352128953 -5.514716759076972 -1.144154173619525 83.000000000000000
5.619250516179094 -5.512363342530094 -1.286254258049877 83.000000000000000
5.589337718350964 -5.425802882423489 -1.408198477241118 3.000000000000000
5.639985341188344 -5.416959900193758 -1.549159382011240 3.000000000000000
5.691801397426626 -5.408460158051765 -1.692625053288234 0.000000000000000
7.282820071223530 -6.846856106515987 -2.330405386804709 21.000000000000000
8.824800703605810 -8.206360780020162 -3.022302316080453 10.000000000000000
8.256812384976445 -7.594479496629316 -3.013367952072315 8.000000000000000
7.594616950434559 -6.908880159370366 -2.941354844222407 36.000000000000000
5.464639930839155 -4.916306274274787 -2.238637765205568 1.000000000000000
5.622660551880897 -5.002412842831974 -2.428583551824422 2.000000000000000
5.792873183833131 -5.096294666484532 -2.631635413272189 35.000000000000000
5.839087275630024 -5.078849137365302 -2.782899068859535 57.000000000000000
5.809179491039457 -4.995753311780923 -2.899094080694261 17.000000000000000
5.781100683848249 -4.913281871953159 -3.014868509561527 57.000000000000000
5.423158498449268 -5.521140375069920 -0.871381007063068 85.000000000000000
5.473973261761284 -5.515511845633169 -1.008782340350346 91.000000000000000
5.525859546738472 -5.510868648934403 -1.147060157058550 86.000000000000000
5.585130890758305 -5.511624915159259 -1.289421470153578 82.000000000000000
5.558064477697069 -5.427888043966607 -1.411653868314170 3.000000000000000
5.608507750577724 -5.419328764434533 -1.552359673104812 2.000000000000000
5.662945267274008 -5.413822134263709 -1.696418815745470 5.000000000000000
7.271648714378763 -6.878277112842589 -2.343251786219199 18.000000000000000
8.763529681105501 -8.199693934346355 -3.021745010987275 9.000000000000000
8.205745432093156 -7.594419246809530 -3.014454877315510 9.000000000000000
5.920755885667642 -5.419861328533746 -2.307738486439997 0.000000000000000
5.938287849075854 -5.376090168841557 -2.447808799314854 6.000000000000000
5.829173526125395 -5.219051021875509 -2.533065027467522 16.000000000000000
5.602003617438100 -4.959868975669595 -2.560023283956745 18.000000000000000
5.803912257797370 -5.080743635582678 -2.782201756392865 66.000000000000000
5.841956056885542 -5.056509441964871 -2.932056904757888 28.000000000000000
5.785633778841309 -4.949248212591986 -3.034106113385866 29.000000000000000
5.389802755561724 -5.519357248439179 -0.875452922915414 85.000000000000000
5.445955277917227 -5.519661884169762 -1.013559961407819 91.000000000000000
5.497625611746723 -5.515270560379838 -1.151645465789686 87.000000000000000
5.548260349876288 -5.507963606696763 -1.291866865158573 84.000000000000000
5.521210378235133 -5.424331181402683 -1.413609279019927 3.000000000000000
5.579875287693629 -5.424304214447921 -1.556281325117169 2.000000000000000
5.622835754990481 -5.408233848230116 -1.696755938624843 14.000000000000000
5.680775825655243 -5.406425063571242 -1.843499403482316 3.000000000000000
8.705207732624888 -8.195417262342723 -3.022038753547466 9.000000000000000
8.149105551098527 -7.588880981610751 -3.013347003582864 10.000000000000000
5.910772912581796 -5.444584352199508 -2.318568698070770 24.000000000000000
5.919746964684359 -5.393074551221423 -2.455344936883240 20.000000000000000
5.813776640174233 -5.238292113833517 -2.541708265775985 36.000000000000000
5.626837934528221 -5.013688012092860 -2.586629346456608 23.000000000000000
5.717984914512074 -5.037733198700531 -2.756938290227557 36.000000000000000
5.809523782301768 -5.061029611983659 -2.932396407291260 30.000000000000000
5.826559850731062 -5.016801853001545 -3.072669763181377 12.000000000000000
5.362034390966986 -5.523137450851356 -0.880365770058383 84.000000000000000
5.415176573546899 -5.520871773364595 -1.017761042374359 91.000000000000000
5.463838027577411 -5.513942032714705 -1.154998384527445 86.000000000000000
5.519833790662104 -5.512509194309835 -1.296202648552439 84.000000000000000
5.487222987968921 -5.423381637066763 -1.416210259471545 4.000000000000000
5.542847557922576 -5.420942373595775 -1.557783274972977 2.000000000000000
5.577195432686942 -5.397034459879269 -1.695301195803151 26.000000000000000
5.648954378831014 -5.409125521561473 -1.846069207228757 6.000000000000000
5.697108571827042 -5.396601485283596 -1.991196205764195 0.000000000000000
7.915123903416943 -7.416811241826530 -2.946069346888038 13.000000000000000
5.892225161983859 -5.461469759660905 -2.326053891205823 6.000000000000000
5.801122299371110 -5.260054330404296 -2.551569028839757 13.000000000000000
5.721745839341731 -5.130827588504537 -2.645867874066335 43.000000000000000
5.500198019573796 -4.877035610071708 -2.667348009459762 4.000000000000000
5.779932959501445 -5.067882395480654 -2.934097307392196 37.000000000000000
5.339802282134511 -5.532528055751129 -0.886140451642796 85.000000000000000
5.384431988249434 -5.521957188096317 -1.021900668728459 92.000000000000000
5.430101769329319 -5.512472454811566 -1.158282439507023 84.000000000000000
5.483073584907765 -5.508555803020695 -1.298505690204603 84.000000000000000
5.456076736647375 -5.425063545544817 -1.419467565890828 9.000000000000000
5.511478584616739 -5.422921569808252 -1.560791292588307 2.000000000000000
5.548473527782344 -5.401980667234063 -1.698890927142759 41.000000000000000
5.603151227036962 -5.398195246739347 -1.843963233102794 37.000000000000000
5.670745190422239 -5.404811818937305 -1.995423310272454 9.000000000000000
7.659914403222094 -7.222302540128434 -2.869808591903840 20.000000000000000
7.575873838509946 -7.065991079872259 -3.009792292193311 25.000000000000000
5.763098568645510 -5.258734288766348 -2.550229904975067 13.000000000000000
5.712029395785421 -5.154840621418062 -2.657054449848838 39.000000000000000
5.690271233373013 -5.078036907557161 -2.775573896716650 16.000000000000000
5.599104977523031 -4.941142835883491 -2.858521807870997 10.000000000000000
5.339560581729927 -5.564777641820384 -0.895566073013002 81.000000000000000
5.350962440722102 -5.520071467005187 -1.025450124158441 93.000000000000000
5.404719671292841 -5.519340350978747 -1.163284730750816 84.000000000000000
5.457480762571306 -5.515661359021086 -1.303383097468194 83.000000000000000
5.441648927036213 -5.443308177312523 -1.427037855730619 10.000000000000000
5.477358032034777 -5.422016066946721 -1.562941700344485 2.000000000000000
5.530930551203015 -5.417749290367953 -1.705867481513924 53.000000000000000
5.565852893120572 -5.395182186502996 -1.844536458458355 62.000000000000000
5.647176668768366 -5.415607506150112 -2.000591665245259 9.000000000000000
5.777085355180066 -5.480919706509487 -2.178609641436472 1.000000000000000
7.537801559559488 -7.074499438419677 -3.013773273572879 21.000000000000000
5.753139059350370 -5.282959286326220 -2.561275491390317 10.000000000000000
5.702203093987403 -5.178852460923880 -2.668233697205539 37.000000000000000
5.716824941225965 -5.134557414007303 -2.804751816763716 31.000000000000000
5.494643254710696 -4.880374764203991 -2.821209255688611 6.000000000000000
5.656797242066871 -4.966627600590814 -3.033597079243414 36.000000000000000
5.341905499164562 -5.599949253469265 -0.905471146179951 80.000000000000000
5.342303953118729 -5.543737988923787 -1.033722198008355 90.000000000000000
5.371061747273059 -5.517612965188772 -1.166441971707489 84.000000000000000
5.420824728421833 -5.511424837430110 -1.305547978853640 83.000000000000000
5.460411985046439 -5.494993627669062 -1.443380055784897 12.000000000000000
5.446067415517700 -5.423733948239372 -1.565821115055006 6.000000000000000
5.504988547632491 -5.425245790583284 -1.710223728695597 4.000000000000000
5.536980257662155 -5.400158484031857 -1.847820871621026 69.000000000000000
5.631952857960813 -5.434393108744622 -2.008700710742147 8.000000000000000
5.750266286568747 -5.489417382020055 -2.182720879894387 77.000000000000000
6.316309059558921 -5.965209085467796 -2.541500429035249 3.000000000000000
5.731906811900251 -5.296867071776449 -2.567313678462736 12.000000000000000
5.661588308324791 -5.174821819089441 -2.664964721664410 27.000000000000000
5.704023829918775 -5.156021881106298 -2.814763668458122 30.000000000000000
5.707946388674399 -5.102680166156756 -2.947476742220258 29.000000000000000
5.505174680688636 -4.865045066015764 -2.968865817233989 19.000000000000000
5.341343512527436 -5.632300610629932 -0.914929129866768 80.000000000000000
5.339025704251929 -5.573129755776258 -1.043059564271597 89.000000000000000
5.342956723030458 -5.521428694878783 -1.170735932306175 89.000000000000000
5.392510082910722 -5.515490816143005 -1.309645777585822 84.000000000000000
5.440211131760085 -5.507675487504743 -1.449479067186917 64.000000000000000
5.464642007760373 -5.475251770203399 -1.583073523215272 9.000000000000000
5.467955043311142 -5.421649530030862 -1.711060495086123 5.000000000000000
5.510901163609921 -5.407747236738333 -1.851982232223555 83.000000000000000
5.619435269330332 -5.455843659558952 -2.017786216688150 10.000000000000000
5.717882498966634 -5.492474018506217 -2.184656697068275 96.000000000000000
5.731211991826624 -5.446540963097854 -2.320775870703543 34.000000000000000
5.720446468736035 -5.377838308223055 -2.447350266907869 21.000000000000000
5.707854595398979 -5.308121695928892 -2.572062203561902 9.000000000000000
5.540443123169442 -5.096454975088989 -2.623436808046867 22.000000000000000
5.652245281380939 -5.142092628237219 -2.805460155078905 24.000000000000000
5.706101680514634 -5.134081864043480 -2.963374938297195 37.000000000000000
5.575959618171876 -4.959752865119886 -3.023942766232793 2.000000000000000
5.340625245968872 -5.664698101298145 -0.924401105186006 79.000000000000000
5.343808379569167 -5.611163010779673 -1.054021664342984 89.000000000000000
5.342280668141428 -5.553630279579460 -1.181035130951038 84.000000000000000
5.358717637603864 -5.513791966332030 -1.312342726746945 82.000000000000000
5.408958915694026 -5.509073941950597 -1.452585195592669 92.000000000000000
5.455338155423212 -5.499110943559339 -1.592334274079905 17.000000000000000
5.453104015811414 -5.439952355071799 -1.718789971837813 7.000000000000000
5.495891194728359 -5.426168923243563 -1.859840528683327 20.000000000000000
5.592976044455726 -5.463745710487443 -2.021850087735105 16.000000000000000
5.679988377919687 -5.490042037009747 -2.184396131328545 99.000000000000000
5.737614717805092 -5.486792177033951 -2.338175561429348 86.000000000000000
5.743501908932739 -5.433568614679718 -2.472483353160046 100.000000000000000
5.694872644594662 -5.329673037208146 -2.581795282028350 7.000000000000000
5.503038508845372 -5.094402405911110 -2.621214851326000 32.000000000000000
5.542489648782036 -5.074690365297969 -2.767018284994863 43.000000000000000
5.684737669123301 -5.148001632506085 -2.969177129267516 32.000000000000000
5.339750393405813 -5.697141147833531 -0.933886758544357 78.000000000000000
5.340224911673762 -5.640639436816416 -1.063383579227339 88.000000000000000
5.341446925925311 -5.585878087710086 -1.191348281051076 83.000000000000000
5.346892993624379 -5.534635406760922 -1.320382607034370 84.000000000000000
5.380488189352111 -5.513159386102112 -1.456372352002263 91.000000000000000
5.429424867791400 -5.506232827198455 -1.596734686067301 92.000000000000000
5.462976083489557 -5.483108291927222 -1.734370136453018 12.000000000000000
5.453226300088809 -5.417156910509564 -1.858278215698123 6.000000000000000
5.558232577720545 -5.463408603264720 -2.022849733850506 24.000000000000000
5.647690866690874 -5.492823319819767 -2.186196663509630 102.000000000000000
5.702337331435868 -5.487237908417173 -2.338604946317868 91.000000000000000
5.763465729888297 -5.486854883624846 -2.496494795998048 86.000000000000000
5.590602367630478 -5.265315590621944 -2.549917821851910 2.000000000000000
5.476753834345126 -5.102481722355341 -2.624208778092099 39.000000000000000
5.507780967404761 -5.075367335347464 -2.765727974038996 67.000000000000000
5.555856302713409 -5.063892468645384 -2.918484162985338 25.000000000000000
5.341425912316035 -5.732534662701067 -0.943864166164591 78.000000000000000
5.344648947049580 -5.678802492715417 -1.074390004388982 88.000000000000000
5.340455189233007 -5.618171535955914 -1.201675066051139 82.000000000000000
5.343171767254534 -5.563991967115991 -1.330448366334749 82.000000000000000
5.352036514900588 -5.517134766007500 -1.460104488343943 91.000000000000000
5.398029398371789 -5.507665212260719 -1.599461948271044 93.000000000000000
5.450648096766236 -5.504189485939688 -1.742966846526235 47.000000000000000
5.462907270388439 -5.460165710573038 -1.874550230913952 11.000000000000000
5.518038697908801 -5.457483472521733 -2.021762368710296 35.000000000000000
5.615428411307859 -5.495475202594499 -2.187933283979534 102.000000000000000
5.667112631568545 -5.487537718047073 -2.338963063865474 93.000000000000000
5.722505371015878 -5.482242584364253 -2.494155673745643 88.000000000000000
5.497857210069684 -5.210858626319903 -2.522850466078445 39.000000000000000
5.447716954173820 -5.107883238111889 -2.625826500936939 43.000000000000000
5.475877286584076 -5.078450205034470 -2.765756217973296 82.000000000000000
5.518290620941301 -5.062250521659932 -2.915370350193098 43.000000000000000
5.342926614417494 -5.767987841493826 -0.953861338627697 75.000000000000000
5.343465961583546 -5.711254492270574 -1.084324509506821 88.000000000000000
5.339305153523163 -5.650510039635321 -1.212015168857813 79.000000000000000
5.344752272309070 -5.599080087547363 -1.341887223606230 82.000000000000000
5.348149691710978 -5.546455655030711 -1.470530700743651 87.000000000000000
5.366671126839571 -5.508971399914523 -1.602127064645718 93.000000000000000
5.419072646507479 -5.505788315254218 -1.745378663638505 91.000000000000000
5.453172442381737 -5.483992019444099 -1.884235082021832 18.000000000000000
5.494394067985004 -5.467761799308477 -2.026661967796832 54.000000000000000
5.577711725324062 -5.492591802314491 -2.187453131459070 98.000000000000000
5.634687238253526 -5.490367507937402 -2.340390641505833 95.000000000000000
5.687126398263033 -5.482747118904589 -2.494139803684465 87.000000000000000
5.482418402899490 -5.229244283430694 -2.531054460053443 25.000000000000000
5.424186577792046 -5.118350148996963 -2.630048615817469 51.000000000000000
5.452234297303131 -5.089080217493281 -2.769898862274573 94.000000000000000
5.483535678514766 -5.062975420407965 -2.913633531314532 52.000000000000000
5.344252123168433 -5.803500030252079 -0.963877919071607 77.000000000000000
5.344822907181372 -5.746651490070969 -1.094824525910147 85.000000000000000
5.343407562501227 -5.688653674657457 -1.223607367912971 79.000000000000000
5.346155751991024 -5.634228373906144 -1.353345966899901 81.000000000000000
5.344121171379311 -5.575806008675722 -1.480963287604101 88.000000000000000
5.346244656056807 -5.521402554546307 -1.608006812247250 92.000000000000000
5.387534642988575 -5.507260395907905 -1.747728068740183 91.000000000000000
5.437867641579234 -5.502288926751684 -1.892011648804332 95.000000000000000
5.489870009114820 -5.497122474860315 -2.038625953775547 91.000000000000000
5.537331836590261 -5.486837175524468 -2.185815623689841 98.000000000000000
5.596823974153698 -5.487700711698245 -2.339466242792350 91.000000000000000
5.635379281810486 -5.467174060888954 -2.486806011349520 73.000000000000000
5.445017945691541 -5.226584596005313 -2.529069598072981 17.000000000000000
5.406108342007836 -5.133929882259496 -2.636896008286310 92.000000000000000
5.428574113167201 -5.099629059104895 -2.773999018994758 47.000000000000000
5.457021794789340 -5.071162348509302 -2.916200536015268 58.000000000000000
5.530739841651625 -5.082168938405885 -3.084943384483699 19.000000000000000
5.345402064975737 -5.839070573380583 -0.973913549979706 74.000000000000000
5.346003631093534 -5.782107257571916 -1.105343764748737 84.000000000000000
5.341922137090777 -5.721095835312644 -1.233979871970289 80.000000000000000
5.344678397826560 -5.666569916585177 -1.364134232492525 80.000000000000000
5.345369250364443 -5.610872965510236 -1.492915316474667 85.000000000000000
5.347499943866708 -5.556333634812199 -1.620432315464055 84.000000000000000
5.358753461421453 -5.511402192710408 -1.750903541001195 91.000000000000000
5.403436674003769 -5.501152563479050 -1.893090748844054 97.000000000000000
5.455227548849924 -5.496311898254362 -2.039390082200162 93.000000000000000
5.510677122605282 -5.494500462184597 -2.189510977695250 100.000000000000000
5.542667519042457 -5.468725358521872 -2.331579663320889 55.000000000000000
5.575612861444105 -5.443371856638603 -2.475726166128615 55.000000000000000
5.432235315585047 -5.247473602793211 -2.538476760598578 17.000000000000000
5.390702230021924 -5.152064882966921 -2.645052156184389 46.000000000000000
5.413065685687229 -5.117819793079647 -2.782255280882334 40.000000000000000
5.435947705982196 -5.084338898638503 -2.921641063104489 45.000000000000000
5.495821302791626 -5.083055014990360 -3.082809744756089 22.000000000000000
5.349047921310771 -5.877634695124464 -0.984459611253834 70.000000000000000
5.344327556051352 -5.814705034146839 -1.115322527118310 83.000000000000000
5.342965070672962 -5.756476852433573 -1.244990964210231 78.000000000000000
5.345735695610509 -5.701828885824083 -1.375628303524510 79.000000000000000
5.346439037316570 -5.645999096531232 -1.504886647633631 81.000000000000000
5.348576442516322 -5.591324170282744 -1.632877234017131 83.000000000000000
5.348960636993147 -5.535061026340501 -1.760265757942334 84.000000000000000
5.374488246217597 -5.505431882902778 -1.896014734643816 97.000000000000000
5.426072758414302 -5.500864381946837 -2.042128661916980 94.000000000000000
5.473153107080138 -5.491160515613749 -2.188809552753173 100.000000000000000
5.521317052227963 -5.481885248028624 -2.337384892614576 70.000000000000000
5.578594871797733 -5.480714657686200 -2.492450620850027 91.000000000000000
5.479154952401287 -5.326470212793985 -2.575979829073752 42.000000000000000
5.377940826749846 -5.172778489111300 -2.654527296255323 42.000000000000000
5.400199201001540 -5.138558542904942 -2.791892671762468 41.000000000000000
5.420258609764908 -5.102552150657434 -2.929975793942770 43.000000000000000
5.469077091463602 -5.091353832449192 -3.085185232758797 26.000000000000000
5.349836703317393 -5.913327510621220 -0.994535569986478 56.000000000000000
5.350506171542703 -5.856116133380354 -1.127001127171480 81.000000000000000
5.346509080112885 -5.794818947226969 -1.256650319352907 77.000000000000000
5.346614863606296 -5.737146052240845 -1.387141188027201 77.000000000000000
5.341947841376292 -5.675465380583824 -1.515350115917008 84.000000000000000
5.346777467444815 -5.623537617175314 -1.644511897749183 83.000000000000000
5.352563985551703 -5.572775583988132 -1.774095564246926 83.000000000000000
5.356375905296821 -5.520747265534397 -1.902725096079340 94.000000000000000
5.394231550340512 -5.502543914988711 -2.043785811901947 95.000000000000000
5.441120620583098 -5.493129778697986 -2.190211776666085 100.000000000000000
5.491802862140023 -5.486857973990815 -2.339691196855699 91.000000000000000
5.548862151432164 -5.485986343359952 -2.494583465204505 90.000000000000000
5.522870316072218 -5.403141229727193 -2.612336946772080 74.000000000000000
5.367796557243473 -5.196093888270783 -2.665331578682118 36.000000000000000
5.381833755519165 -5.154098508792426 -2.798702197379738 39.000000000000000
5.404497585605621 -5.120730712214886 -2.938288416776376 43.000000000000000
5.463909285372727 -5.119771139034952 -3.099750765000704 29.000000000000000
6.804836655080734 -7.566186808778252 -1.277713298177508 32.000000000000000
5.348484758825066 -5.888820572093549 -1.137013216415607 80.000000000000000
5.341848371640140 -5.824501011520745 -1.266435920684263 77.000000000000000
5.347315530870466 -5.772520748178116 -1.398672522488611 78.000000000000000
5.348042235519862 -5.716426206988512 -1.528885760006498 80.000000000000000
5.347504378369084 -5.658637388628319 -1.656991197122412 83.000000000000000
5.350586172359418 -5.604925126452623 -1.786153951655965 82.000000000000000
5.348990114013025 -5.547191333557475 -1.913262415116066 91.000000000000000
5.365126790510756 -5.506864790635642 -2.046409220904074 102.000000000000000
5.411825992477138 -5.497713067159970 -2.192644626547435 98.000000000000000
5.402906256537833 -5.431995498059811 -2.316472510547508 57.000000000000000
5.438143627010427 -5.410550137673703 -2.460015670625888 72.000000000000000
5.387948170084867 -5.304712702851423 -2.564038544305810 47.000000000000000
5.346753409573532 -5.208893618308203 -2.670737585454974 6.000000000000000
5.374196004838402 -5.179979381594045 -2.811122001592875 36.000000000000000
5.391356376386231 -5.141441223802557 -2.948050638130762 42.000000000000000
6.795066994614674 -7.600178287757365 -1.288615742958251 9.000000000000000
5.348956897009144 -5.924504804127812 -1.147605742319542 19.000000000000000
5.347687723787138 -5.865882761027081 -1.278771067369621 76.000000000000000
5.347837329471018 -5.807952304357609 -1.410221942753482 75.000000000000000
5.345901953535555 -5.748851419558470 -1.540142739821636 79.000000000000000
5.350729446478583 -5.696645799238879 -1.670324827271938 80.000000000000000
5.351128586669996 -5.639944057761510 -1.799125863924977 81.000000000000000
5.352220703101580 -5.584856108928917 -1.927666928660186 87.000000000000000
5.357548688114627 -5.533284850363855 -2.057234750633744 89.000000000000000
5.377172306753742 -5.496684600313183 -2.192827487095268 98.000000000000000
5.397853436857741 -5.461073430917084 -2.329040844711522 70.000000000000000
5.387200602384953 -5.393808485454436 -2.452134517497540 61.000000000000000
5.455526873885971 -5.405472760282068 -2.612017374780748 77.000000000000000
5.328364549136730 -5.224263514794549 -2.677458862333727 5.000000000000000
5.369117041347996 -5.208477485575221 -2.824953181658515 30.000000000000000
5.383489589158229 -5.167281362790023 -2.960747736837410 38.000000000000000
7.262263371566052 -8.171006223674807 -1.390894681375141 47.000000000000000
6.803570325668310 -7.580676754580264 -1.473103786653209 18.000000000000000
5.350660704364381 -5.904424635860944 -1.290497480125082 69.000000000000000
5.350838035595281 -5.846344344149497 -1.422495738643180 75.000000000000000
5.351591605632767 -5.789963988377424 -1.553731089929491 79.000000000000000
5.351087046605944 -5.731867438664310 -1.682843749498419 79.000000000000000
5.351490271669582 -5.675020008195603 -1.812115829301587 79.000000000000000
5.352575436294242 -5.619783551464501 -1.941125712948168 86.000000000000000
5.355202279009736 -5.565284227198747 -2.070129469714824 88.000000000000000
5.358660990761911 -5.512057646307817 -2.199542882024832 93.000000000000000
5.395336676991626 -5.492907847463342 -2.342778163033066 91.000000000000000
5.449055409558602 -5.490311497966040 -2.495728109963508 91.000000000000000
5.495649737422376 -5.479945056959542 -2.647269562449969 89.000000000000000
5.358146569561736 -5.287167614908063 -2.708528004463161 7.000000000000000
5.377275175736385 -5.250068661273200 -2.845871876301924 20.000000000000000
5.378168338631585 -5.195714862943137 -2.974921240021752 31.000000000000000
7.266312244152108 -8.224206974186252 -1.405425919866065 47.000000000000000
7.043771944159530 -7.895276921449232 -1.539072166047517 47.000000000000000
5.308516218896822 -5.893169152595484 -1.291320600240859 0.000000000000000
5.356289881682486 -5.887718800119528 -1.435503407904304 76.000000000000000
5.346445908864180 -5.819604347742752 -1.564243388773984 77.000000000000000
5.348604327844543 -5.764278792380198 -1.694537620673713 79.000000000000000
5.351670860875446 -5.710152299445424 -1.825123479108961 79.000000000000000
5.350081611610580 -5.651950013618859 -1.953628366056371 85.000000000000000
5.352692475067677 -5.597324995406770 -2.083035324508076 86.000000000000000
5.356125542562706 -5.543970479589980 -2.212851213647723 91.000000000000000
5.365932810976276 -5.497405978589879 -2.344848944954129 91.000000000000000
5.414095613845381 -5.489678886856886 -2.495157390494217 88.000000000000000
5.465850424494826 -5.485002587866328 -2.648977491061295 88.000000000000000
5.505009097919666 -5.466955258673386 -2.799424767963067 72.000000000000000
5.355854043737685 -5.262932273340884 -2.851209453618874 11.000000000000000
5.383355607785391 -5.234534605234108 -2.995026855761425 19.000000000000000
7.267474276295890 -8.274522104311826 -1.419477928194899 46.000000000000000
7.292594965879115 -8.223147638018757 -1.607969398645738 45.000000000000000
6.796398040923140 -7.590370986953350 -1.667398557559929 19.000000000000000
5.345686034339067 -5.911662078165106 -1.444261851554927 19.000000000000000
5.354383694078329 -5.863755235942074 -1.578659491324844 75.000000000000000
5.351259950038503 -5.802478305231537 -1.707933975430921 78.000000000000000
5.354324589074665 -5.748190122748651 -1.839060224018031 76.000000000000000
5.350082217905221 -5.686982253366451 -1.967118987643954 86.000000000000000
5.360660498724265 -5.640603776329447 -2.100120962200817 32.000000000000000
5.358750230879835 -5.581469613368026 -2.228384373956766 90.000000000000000
5.363180375091716 -5.529245723289106 -2.358574568615583 85.000000000000000
5.381857580358230 -5.491619795880146 -2.495751790991633 95.000000000000000
5.430747828803193 -5.484569407104684 -2.648032559958578 89.000000000000000
5.475073365011268 -5.472152192595135 -2.800883080176755 89.000000000000000
5.321109341710319 -5.262585880777741 -2.849394535862293 1.000000000000000
5.367086680916491 -5.252659195102127 -3.003280862596412 32.000000000000000
7.268384985896312 -8.324916552212127 -1.433555054925209 46.000000000000000
7.296077773309051 -8.276417505085515 -1.623350364936549 44.000000000000000
6.788524401099431 -7.627302430179368 -1.679672019847181 13.000000000000000
6.810774670445466 -7.577547969892207 -1.854953140217009 13.000000000000000
5.354176648418913 -5.899291811629628 -1.590762250861280 62.000000000000000
5.353715733992875 -5.840747648371971 -1.721353754355693 77.000000000000000
5.356777946167628 -5.786298045384666 -1.853020497843920 79.000000000000000
5.355197537162916 -5.727735111395106 -1.982587660522454 85.000000000000000
5.352483650001567 -5.667142087525058 -2.110970235760808 50.000000000000000
5.358520539493986 -5.616259143999489 -2.242830991239242 89.000000000000000
5.360263295290742 -5.561125735995098 -2.372310678138889 84.000000000000000
5.368235475804283 -5.512506948409811 -2.504950901724404 87.000000000000000
5.398356975371446 -5.486688269068776 -2.648319052629711 88.000000000000000
5.389487664417667 -5.421236103052856 -2.773634047607232 69.000000000000000
5.349988916565625 -5.325367862402016 -2.881748726506311 2.000000000000000
5.419514889843396 -5.338488005511551 -3.050216414252441 28.000000000000000
7.274243467050997 -8.381380350848691 -1.448692305658227 46.000000000000000
7.296681466166723 -8.326804893399002 -1.638176989389568 43.000000000000000
7.355756393572864 -8.314523266129523 -1.835498497793657 37.000000000000000
6.849839405552926 -7.667284209773350 -1.880626747840885 11.000000000000000
5.330145505391244 -5.908673122150574 -1.595802878469924 0.000000000000000
5.355971246633441 -5.879086064578613 -1.734796544414758 77.000000000000000
5.353758455751085 -5.818745376634602 -1.865167188047019 78.000000000000000
5.352175556817361 -5.760051918699984 -1.995134758077101 85.000000000000000
5.357388386656465 -5.707761963186046 -2.127060658778919 50.000000000000000
5.360750860797098 -5.653891371351581 -2.258407972315744 88.000000000000000
5.362469720587558 -5.598566673576806 -2.388412380075251 84.000000000000000
5.362455802875190 -5.541570326458577 -2.517858232530974 83.000000000000000
5.368650316502444 -5.491382345004821 -2.649847112587359 68.000000000000000
5.396774493720224 -5.463484408062128 -2.794055687847479 84.000000000000000
5.415424692870225 -5.425388428380466 -2.934211955030988 63.000000000000000
7.272041090196725 -8.428942442379416 -1.462303554514367 45.000000000000000
7.302228923934956 -8.383236728446359 -1.654205155739667 42.000000000000000
7.366352491761226 -8.376837397308229 -1.853728725078579 38.000000000000000
7.045127453237415 -7.933815131432612 -1.949795022019344 56.000000000000000
6.806047862458431 -7.590888143528752 -2.053321622727338 6.000000000000000
5.350158178650672 -5.908803378026247 -1.745694733692849 14.000000000000000
5.355828424730384 -5.856976199979526 -1.879166750909416 76.000000000000000
5.356878660608167 -5.800950822604224 -2.010652771924630 83.000000000000000
5.356807634325699 -5.742821975693676 -2.141076300443235 53.000000000000000
5.357510732874179 -5.686001861632570 -2.271774103349385 85.000000000000000
5.364473316332186 -5.636076958722522 -2.404537076802321 84.000000000000000
5.367068619272103 -5.581618024682236 -2.535748146517516 79.000000000000000
5.367939398162580 -5.525788434387596 -2.665706809842787 83.000000000000000
5.377498191269733 -5.479013897414400 -2.800804155029518 91.000000000000000
5.359239612268792 -5.403872058088086 -2.920928201463342 68.000000000000000
6.200848400561173 -7.230366589003418 -1.258944836710905 5.000000000000000
7.304896108394570 -8.436784025635548 -1.669677858253711 43.000000000000000
7.376619262752629 -8.439287285416139 -1.872008110719714 37.000000000000000
6.996719165391399 -7.927255824859404 -1.951932377895649 45.000000000000000
7.736557369111841 -8.681506880260383 -2.351938426581984 32.000000000000000
6.812874934026970 -7.570553960138341 -2.239337372961189 12.000000000000000
5.360314121225967 -5.898154848702472 -1.894113487231700 60.000000000000000
5.358740534228595 -5.839077563755493 -2.025209394423862 81.000000000000000
5.356043153452124 -5.777935246473684 -2.155107891943172 38.000000000000000
5.361979029453870 -5.726559698787081 -2.288510193100429 87.000000000000000
5.363648271943016 -5.670880061125095 -2.419500061421066 82.000000000000000
5.366208316256179 -5.616254171560045 -2.551170983485312 79.000000000000000
5.367043557179305 -5.560248068946395 -2.681582530357399 80.000000000000000
5.368659756299679 -5.505248297105468 -2.813019304645032 84.000000000000000
5.400213449825927 -5.480478452155201 -2.960673340944874 88.000000000000000
6.158242666625412 -7.223737057839307 -1.262317780177985 25.000000000000000
7.312450783314589 -8.496417796796999 -1.686370114735517 42.000000000000000
7.383968671793001 -8.498893775804582 -1.889673845289084 37.000000000000000
6.922473404033219 -7.890930074967780 -1.946679357886579 37.000000000000000
7.776486031849215 -8.779781515331290 -2.382168243323934 34.000000000000000
7.085346400612409 -7.921834230171703 -2.346031716113119 17.000000000000000
5.831404324843339 -6.456263049520940 -2.075217346590231 21.000000000000000
5.357788883547482 -5.874408865510366 -2.038794437933418 80.000000000000000
5.362935142471516 -5.821612213468054 -2.172330981605617 84.000000000000000
5.360994901661504 -5.761579238384760 -2.303028081499013 85.000000000000000
5.362638451932774 -5.705735921637340 -2.434478676511529 83.000000000000000
5.367778836646895 -5.653698345589510 -2.567860856418066 78.000000000000000
5.368577432927887 -5.597487044759402 -2.698788456031350 77.000000000000000
5.367532326029513 -5.539581076963527 -2.829362864811755 81.000000000000000
5.375430574306091 -5.490712246598287 -2.964544006398094 85.000000000000000
5.368096839019397 -5.427075432641145 -3.092262048296182 22.000000000000000
6.133666605176471 -7.238103852228980 -1.269318951600001 31.000000000000000
6.180732903480513 -7.224809628586829 -1.438096869655297 18.000000000000000
7.388427755780522 -8.555633611688464 -1.906715710366541 41.000000000000000
6.851098284945249 -7.857220191106597 -1.941998753472056 0.000000000000000
7.810674303658202 -8.872480837651908 -2.410922376948938 14.000000000000000
7.088372976196765 -7.974102982148800 -2.364283016140208 16.000000000000000
5.794786289304361 -6.455512539282295 -2.076826838342387 21.000000000000000
5.419091070269260 -5.978677211035189 -2.076317600555481 45.000000000000000
5.364377876843212 -5.859696849328804 -2.187464931924899 81.000000000000000
5.365037261228720 -5.802286766079541 -2.319814533493063 83.000000000000000
5.366656384631382 -5.746225414220465 -2.451854142942043 80.000000000000000
5.366538582991638 -5.688446932869483 -2.583317852915098 77.000000000000000
5.367301188161050 -5.632059199668517 -2.714698349171448 78.000000000000000
5.368822775119845 -5.576670493494845 -2.847102424630764 80.000000000000000
5.374043385705374 -5.524930299198329 -2.981358562393423 83.000000000000000
5.348497009960563 -5.442575302088333 -3.098975607445310 25.000000000000000
6.114157660038067 -7.258459742119107 -1.277346577963107 24.000000000000000
6.148219126205507 -7.230243239319560 -1.443254751052140 30.000000000000000
6.203304571727788 -7.226938860022329 -1.614300809601571 4.000000000000000
7.547344438488620 -8.708596804384229 -2.156411283935338 14.000000000000000
7.862400095785524 -8.986100948106074 -2.445403542207083 13.000000000000000
7.083368538331743 -8.017685805992334 -2.379958921191939 13.000000000000000
5.763403068613978 -6.460420061508167 -2.080234048743988 20.000000000000000
5.726007059123102 -6.356729767550307 -2.209010145113012 22.000000000000000
5.365616816340727 -5.897847476393980 -2.202620104646904 46.000000000000000
5.366260328861024 -5.840249929126031 -2.335498843552651 83.000000000000000
5.365256954984592 -5.781199649449280 -2.466869356126698 79.000000000000000
5.367709416335084 -5.726017120397012 -2.600047607007991 77.000000000000000
5.368434903344363 -5.669424283874362 -2.731944175485594 78.000000000000000
5.369907984237151 -5.613826346659124 -2.864863345847750 79.000000000000000
5.369878180284430 -5.556517972557653 -2.996741622087058 62.000000000000000
5.297787508304666 -5.426211739764715 -3.087558529338454 22.000000000000000
6.112384187306177 -7.300043678442619 -1.289102726550282 6.000000000000000
6.125930002521703 -7.247637259336737 -1.450770747319599 30.000000000000000
6.162865107924218 -7.223517098177520 -1.617194606059287 24.000000000000000
7.563516786927275 -8.780649423231415 -2.178227150729488 20.000000000000000
7.898041840655139 -9.082359326161921 -2.475202649024992 12.000000000000000
7.080720328726628 -8.064249512168697 -2.396517354797252 10.000000000000000
5.729459572486499 -6.462301294229913 -2.082645190577891 25.000000000000000
5.712816062862092 -6.381731999918131 -2.219083890511083 27.000000000000000
5.661352062906018 -6.262032115984512 -2.339582569222191 13.000000000000000
5.367278806632983 -5.878278478776822 -2.351204018756709 81.000000000000000
5.363671663653242 -5.816224500550260 -2.481899039792335 78.000000000000000
5.366087728001891 -5.760875252965029 -2.615537194375681 77.000000000000000
5.369363167874268 -5.706855027456938 -2.749210953540063 75.000000000000000
5.370787534087913 -5.651047857289097 -2.882645205070193 79.000000000000000
5.370709535775246 -5.593519716721628 -3.015031718071842 30.000000000000000
6.967381392528017 -8.371345276507853 -1.483320192185095 44.000000000000000
6.113754307161969 -7.277078486780383 -1.460682364135534 20.000000000000000
6.135246624862823 -7.234967339580327 -1.623383025448794 30.000000000000000
6.181025373077036 -7.219645986051268 -1.794218819841017 15.000000000000000
7.359348060477449 -8.515012285257953 -2.323924677491279 10.000000000000000
7.088098520381926 -8.122637841033331 -2.416592201587385 7.000000000000000
5.718686711295719 -6.490304228174305 -2.093459654206999 23.000000000000000
5.696939253741743 -6.403828676932271 -2.228137656357067 30.000000000000000
5.676549689809945 -6.318355715194953 -2.361571653662433 15.000000000000000
5.612916460542809 -6.186201357453660 -2.474878900472925 22.000000000000000
5.369633681919535 -5.859738641532350 -2.500544175760123 76.000000000000000
5.369435042565223 -5.801353543383542 -2.633569514621515 77.000000000000000
5.367508749634757 -5.741594243902850 -2.765170765246876 75.000000000000000
5.368886003639111 -5.685607334395076 -2.899057143107215 78.000000000000000
5.371334671073313 -5.630586318148826 -3.033342309268936 22.000000000000000
7.282872444906409 -8.803253503145775 -1.565094473370406 44.000000000000000
6.109046401454990 -7.315618841605471 -1.472416051670475 0.000000000000000
6.117768618725778 -7.258384075562612 -1.632235197314770 25.000000000000000
6.148077678526073 -7.225218792608610 -1.798802451005894 29.000000000000000
6.201623284423224 -7.219742294741622 -1.973218141924173 3.000000000000000
7.100275341379469 -8.187041254194632 -2.438464594517190 3.000000000000000
5.794845747625491 -6.617734955831667 -2.136363923958277 11.000000000000000
5.680968814814502 -6.425897131883517 -2.237171288827998 27.000000000000000
5.686292777076595 -6.369080128534159 -2.381467776325744 8.000000000000000
5.602345357862937 -6.213668802603533 -2.486368939393984 21.000000000000000
5.367646901085677 -5.894884806248298 -2.515611231158004 28.000000000000000
5.372557152454130 -5.841910718652295 -2.651628329707875 73.000000000000000
5.370601686014609 -5.781910369929802 -2.783805669272776 75.000000000000000
5.369362605875710 -5.722950396235291 -2.916876406167036 77.000000000000000
5.371753173952195 -5.667716993521193 -3.051672970599176 20.000000000000000
7.291244772182253 -8.866681240433243 -1.581599649934879 43.000000000000000
7.232582994402732 -8.713721037778582 -1.758524638681920 47.000000000000000
6.107787449285444 -7.290832223838511 -1.643107409206465 7.000000000000000
6.125295407903485 -7.242672486647008 -1.806318747365181 30.000000000000000
6.163351428225553 -7.219505016400630 -1.975920669044220 24.000000000000000
7.124835007847040 -8.266368547558026 -2.464796370270922 0.000000000000000
5.786036707709650 -6.648919195930220 -2.148217107982128 31.000000000000000
5.677675103482383 -6.462472523396354 -2.251248165716842 19.000000000000000
5.700863695816215 -6.425685952103916 -2.403562598864248 5.000000000000000
5.560947598076157 -6.206877372249688 -2.484139910976396 51.000000000000000
5.467818874042139 -6.043194890628597 -2.578964186364162 1.000000000000000
5.370336530918986 -5.876946158818970 -2.667171796307841 56.000000000000000
5.370911119010827 -5.819533402877720 -2.801132757381613 72.000000000000000
5.372188088224791 -5.763098514922986 -2.936112166118340 78.000000000000000
5.377071066003922 -5.710333876875421 -3.072941549355004 19.000000000000000
7.289255582685915 -8.917963464049700 -1.595952600849063 41.000000000000000
7.349053579803082 -8.907961558353467 -1.802491707631519 38.000000000000000
6.970187344371008 -8.371205027130575 -1.890648242829425 24.000000000000000
6.115093478445805 -7.275101140878940 -1.817556364972351 19.000000000000000
6.132732967215994 -7.228074600948315 -1.981004774337489 31.000000000000000
6.176972567192802 -7.211201251617368 -2.152506077301457 15.000000000000000
5.779617516754956 -6.683055984651345 -2.161018293776136 19.000000000000000
5.676736569264369 -6.502006408474152 -2.266351823379954 18.000000000000000
5.605596322463536 -6.358220540865086 -2.379230426693590 7.000000000000000
5.527294092033165 -6.208498427413768 -2.485265236745580 84.000000000000000
5.482627654686538 -6.038354762169146 -2.740051416717502 11.000000000000000
5.373561379240046 -5.859997530212026 -2.819816137525417 71.000000000000000
5.372240878956247 -5.800574827322691 -2.953973529180945 76.000000000000000
5.374512197099385 -5.744886253080876 -3.089855107022384 18.000000000000000
7.294503344705001 -8.978537746050090 -1.611980426941129 40.000000000000000
7.356638174114988 -8.971544746203515 -1.820108689617784 37.000000000000000
7.464119744841160 -9.019378547204704 -2.041367937657457 27.000000000000000
6.099700623181920 -7.301509630397885 -1.827280335570060 0.000000000000000
6.119777361847476 -7.257487295291453 -1.991783924049566 23.000000000000000
6.151196527196535 -7.225825548994313 -2.159178181463105 27.000000000000000
5.869244371551583 -6.829174041377587 -2.210053487946526 8.000000000000000
5.673054335138153 -6.538676563564469 -2.280453311879668 19.000000000000000
5.718883407755176 -6.527751875176641 -2.443580165378330 4.000000000000000
5.501298848830947 -6.218598165615935 -2.489773449623361 52.000000000000000
5.370908308000455 -5.894966263871940 -2.835844264917134 22.000000000000000
5.374622362826476 -5.840869301370852 -2.973256844154088 75.000000000000000
7.294459453731120 -9.033057149312061 -1.626934483971303 41.000000000000000
7.363887887125697 -9.035251164821974 -1.837768095932283 36.000000000000000
7.486029434851173 -9.101401889530100 -2.064253605010716 32.000000000000000
6.997447643449058 -8.427838276541520 -2.112724416872895 0.000000000000000
6.104172014049808 -7.283894252260541 -2.001727390224991 5.000000000000000
6.125379814359704 -7.240371693409998 -2.165807902631696 27.000000000000000
5.761220828357264 -6.745504965683742 -2.184718133956512 14.000000000000000
5.838373780414360 -6.771625935968949 -2.363044177217767 10.000000000000000
5.704714781350554 -6.552828005077839 -2.453866010871029 10.000000000000000
5.462643415455656 -6.214226656959346 -2.488476234870415 24.000000000000000
6.362103439217702 -7.167330522179737 -3.058858122653784 9.000000000000000
5.352895562849283 -5.913222056867416 -2.843824537380095 42.000000000000000
5.379302996767756 -5.884003086290028 -2.993971100310567 40.000000000000000
7.299096980625440 -9.093834007390292 -1.643028397032868 39.000000000000000
7.368315202774507 -9.096009658108777 -1.854843220370373 37.000000000000000
7.500007186148843 -9.174481867397690 -2.085137566806250 30.000000000000000
7.553215915299280 -9.153456487542844 -2.298457671467859 21.000000000000000
7.005098664596424 -8.410882330841364 -2.314518333478898 16.000000000000000
6.114577086920028 -7.272745406157279 -2.177756943584559 16.000000000000000
5.854818895533062 -6.898131089250512 -2.235907685040813 40.000000000000000
5.811024221105836 -6.782439125751901 -2.368146323011124 8.000000000000000
5.697986140583591 -6.586619598695615 -2.467407587691202 12.000000000000000
5.451782479004707 -6.241422462882362 -2.499809881059908 31.000000000000000
6.252005952272646 -7.088454013834400 -3.025230117941834 11.000000000000000
5.435562642703523 -6.043455645118470 -2.905637042497142 84.000000000000000
5.486930720020497 -6.040838238278246 -3.072501367396071 11.000000000000000
7.303419028819722 -9.154717427195521 -1.659157411964453 38.000000000000000
7.379857005497388 -9.166105433174286 -1.873840379099555 35.000000000000000
7.516072855519996 -9.250781459651645 -2.106776498891336 30.000000000000000
7.551715156244311 -9.208309519085075 -2.316043609191574 21.000000000000000
7.095524750865704 -8.572482069723666 -2.362087143633442 17.000000000000000
6.106118231490315 -7.308118027551160 -2.190596959379647 0.000000000000000
6.115183780055201 -7.250195427123343 -2.351845574154388 24.000000000000000
5.715996901910751 -6.713692933912744 -2.345438681031076 8.000000000000000
5.698610185051577 -6.629191127565261 -2.484232467591640 14.000000000000000
5.448319344450872 -6.277292909676152 -2.514610515967018 38.000000000000000
6.252957981664177 -7.135049074539189 -3.045141570347714 8.000000000000000
7.309885354884406 -9.218809127551619 -1.675884950770026 38.000000000000000
7.386088147887576 -9.230180800121847 -1.891625826821117 34.000000000000000
7.531722574694204 -9.327256117565790 -2.128479357469375 28.000000000000000
