# This PCD file was generated using the MATLAB® pcwrite function
# from Computer Vision Toolbox®.
# .PCD v.7 - Point Cloud Data file format
VERSION .7
FIELDS x y z intensity
SIZE 8 8 8 8
TYPE F F F F
COUNT 1 1 1 1
WIDTH 637
HEIGHT 1
VIEWPOINT 0 0 0 1 0 0 0
POINTS 637
DATA ascii
7.288786983877598 -6.417208726809700 -1.052064855516964 54.000000000000000
7.250174485747735 -6.312069846502021 -1.204196071697856 55.000000000000000
7.239553119369575 -6.230859711199063 -1.359838921042707 54.000000000000000
7.247186746245953 -6.166643276848850 -1.517659698724276 52.000000000000000
7.262017038975150 -6.108095979041819 -1.675341170164371 46.000000000000000
7.340968325441255 -6.102892963602138 -1.849610099367902 42.000000000000000
7.447747188867662 -6.120074941046634 -2.034121069820295 37.000000000000000
7.501578773442386 -6.091330039805820 -2.206752875153418 30.000000000000000
7.504502440948992 -6.021250005636366 -2.365471513972352 29.000000000000000
7.508145052227417 -5.952129683205112 -2.523563771538488 31.000000000000000
7.551841438084723 -5.914490476702356 -2.696254679184374 37.000000000000000
7.647704387349628 -5.916945732385110 -2.889781099620326 33.000000000000000
7.683400375360899 -5.871831099568075 -3.063934433053220 17.000000000000000
6.422854622847174 -4.787455157611703 -2.830057880614424 47.000000000000000
7.340540060097886 -6.574209028548415 -0.909430192511040 52.000000000000000
7.287182499997783 -6.453544206118822 -1.063956010085110 55.000000000000000
7.254669863999647 -6.353422652858194 -1.217450515841908 54.000000000000000
7.238130348872786 -6.266843307697081 -1.372489711982944 53.000000000000000
7.248759798615851 -6.205102990340998 -1.531363530071118 52.000000000000000
7.179391108369795 -6.075220324504382 -1.669953688516420 27.000000000000000
7.348347860640844 -6.146363676065959 -1.865903877629304 41.000000000000000
7.460883314959473 -6.168631304339059 -2.052808805438914 38.000000000000000
7.505528749549145 -6.132372965197294 -2.223550315465923 29.000000000000000
7.505419373205702 -6.059670442519209 -2.381841758045135 29.000000000000000
7.506016799691785 -5.987980449313481 -2.539375108443855 30.000000000000000
7.504222886714617 -5.914576209617811 -2.696221639096382 30.000000000000000
7.602829612737035 -5.919948032667383 -2.890466600776835 32.000000000000000
7.638414792250885 -5.875201167043994 -3.064176024364095 17.000000000000000
6.429536467722676 -4.823961490426213 -2.849077104802381 10.000000000000000
7.335634967123879 -6.608175202669439 -0.920617249422445 54.000000000000000
7.285411546924102 -6.489927351086144 -1.075861315211656 55.000000000000000
7.253011653939593 -6.389611437636939 -1.229725019602204 55.000000000000000
7.245496729683919 -6.310676210776919 -1.386869461367546 53.000000000000000
7.253141403898322 -6.246205440965650 -1.545727454730284 51.000000000000000
7.282931798796799 -6.200193720194564 -1.707969041327837 40.000000000000000
7.358512851307255 -6.192461930370442 -1.883003945311526 41.000000000000000
7.476774802207961 -6.219823398825283 -2.072383035178011 35.000000000000000
7.509274618047231 -6.173498219658447 -2.240377299167622 27.000000000000000
7.512174835783793 -6.103052369735571 -2.400159371558849 28.000000000000000
7.506731325450359 -6.026299657564834 -2.556227150457535 30.000000000000000
7.504922151007614 -5.952717048072374 -2.713528929807776 30.000000000000000
7.521834378628422 -5.894406153331665 -2.877218045273831 36.000000000000000
7.590472277852085 -5.876043776086898 -3.063105636550824 16.000000000000000
7.050222800191638 -6.388142749118265 -0.896173356302072 21.000000000000000
7.283473799447218 -6.526357568316128 -1.087780448090822 55.000000000000000
7.254155823246796 -6.428479272730461 -1.242522246130592 54.000000000000000
7.246692696426424 -6.349390554322921 -1.400135904915940 53.000000000000000
7.254338579345238 -6.284804788296686 -1.559479576405655 51.000000000000000
7.299019376109913 -6.251539638804077 -1.725764842507062 45.000000000000000
7.368442881622713 -6.238676412316426 -1.900148973809739 40.000000000000000
7.492396939306109 -6.271165412566710 -2.092017321176733 33.000000000000000
7.665954804794582 -6.341383699939901 -2.303244168772249 22.000000000000000
5.688615474645526 -4.650434627516133 -1.829834898787961 1.000000000000000
7.507257064714572 -6.064683669760550 -2.573100726756113 29.000000000000000
7.508439385886827 -5.993323020338232 -2.731951896052934 31.000000000000000
7.510244576339261 -5.922998867646246 -2.890393540234270 36.000000000000000
7.539598550003514 -5.874333401054058 -3.060711812315166 17.000000000000000
6.476794116424482 -4.984504542990123 -2.765544509560463 10.000000000000000
6.827988534795121 -6.222890587221944 -0.878979697246108 17.000000000000000
7.281368934953184 -6.562834262957389 -1.099713085332389 56.000000000000000
7.252155227081531 -6.464771159780759 -1.254828440059015 53.000000000000000
7.247704708501529 -6.388169168137691 -1.413423905846994 52.000000000000000
7.163096962531885 -6.243063646746253 -1.553248920180494 30.000000000000000
7.302911906143174 -6.292756797774342 -1.740777290516244 45.000000000000000
7.375150171520251 -6.282461713412528 -1.916562226234909 39.000000000000000
7.510740006434645 -6.325175321800474 -2.112552414551738 32.000000000000000
7.740738223770023 -6.442924793383740 -2.342069994228778 18.000000000000000
5.637022843525170 -4.637037501330849 -1.825495185648743 4.000000000000000
7.510591840502180 -6.105569157928560 -2.591029807457571 25.000000000000000
7.502754518166238 -6.026784029691880 -2.747109917638347 28.000000000000000
7.522516989537096 -5.970624535646608 -2.912846854275117 36.000000000000000
7.503799853256273 -5.884144041106899 -3.064325809338372 19.000000000000000
6.452902587562606 -4.998409854717560 -2.771343919417111 44.000000000000000
6.800510223948889 -6.234020907387586 -0.886491974143645 55.000000000000000
6.899240862510691 -6.254972926011437 -1.053647576719396 7.000000000000000
7.255893272542372 -6.506405714100761 -1.268180389767677 56.000000000000000
7.248532354508745 -6.427011387002640 -1.426733099419194 52.000000000000000
7.259146685188083 -6.364798646370868 -1.587697576391178 50.000000000000000
7.309575978590570 -6.336632704941497 -1.756533226522494 45.000000000000000
7.384616476223701 -6.328897565862585 -1.933791896741764 38.000000000000000
7.525812630884393 -6.376822629194207 -2.132308936485897 35.000000000000000
7.773110570578193 -6.509940194800985 -2.368369632823411 19.000000000000000
5.618447418486351 -4.650604191732780 -1.831755785453275 2.000000000000000
5.707796355440559 -4.669214342205832 -1.981916797284594 1.000000000000000
7.508874585972644 -6.069943721863959 -2.766680622250871 29.000000000000000
7.564431682161086 -6.042264772674533 -2.947000126028835 20.000000000000000
7.497894391532638 -5.917397059420818 -3.080144109385349 20.000000000000000
6.443910998040265 -5.023872299307586 -2.783548485222704 64.000000000000000
6.781795385060638 -6.253147347674907 -0.895110944764117 72.000000000000000
6.827371486128839 -6.226200533687455 -1.054241672817456 23.000000000000000
7.250595732763266 -6.540150116066257 -1.280000773184788 50.000000000000000
7.246222405125646 -6.463282769351865 -1.439476536402856 53.000000000000000
7.265699923314160 -6.408819120707586 -1.602823166292974 50.000000000000000
7.313055279203560 -6.378019115064856 -1.771606799258870 44.000000000000000
7.396816430614679 -6.378008494454765 -1.951848953288038 34.000000000000000
7.534664123574383 -6.423544904881047 -2.150425864776041 35.000000000000000
7.796174878323241 -6.569674727547929 -2.392031613674793 17.000000000000000
5.587912686470881 -4.654182557358917 -1.834071026747273 1.000000000000000
5.650153528502179 -4.651116983145293 -1.974658429564919 2.000000000000000
7.508806960414885 -6.108348691880316 -2.784075841213554 30.000000000000000
7.570143433026380 -6.085445519046729 -2.967257528109359 17.000000000000000
7.497791804345652 -5.955412890830955 -3.098430466931876 21.000000000000000
6.434805828915256 -5.049337238227467 -2.795747377501704 72.000000000000000
6.763014907319138 -6.272222878037091 -0.903699912364290 21.000000000000000
6.799653988016801 -6.237371768924616 -1.061528642792739 73.000000000000000
6.857485350294123 -6.222176920357422 -1.222705623718511 11.000000000000000
7.252577528703902 -6.507526083796497 -1.454003940451135 52.000000000000000
6.882461141600909 -6.107242631561772 -1.531306655633657 27.000000000000000
7.322245887824359 -6.424674367034931 -1.788152799903736 44.000000000000000
7.408762179379943 -6.427249015045153 -1.969956615763520 37.000000000000000
7.546242378412686 -6.472923624401569 -2.169438111334934 31.000000000000000
7.833761414606323 -6.642193891136904 -2.420360801940226 16.000000000000000
5.584153405767039 -4.680049989684569 -1.845160923852937 1.000000000000000
5.592688917016679 -4.632738449517692 -1.967267428653057 8.000000000000000
7.508548638390165 -6.146815825626908 -2.801491129872054 30.000000000000000
7.578603384410239 -6.131127451501079 -2.988722622669350 34.000000000000000
6.425586993821116 -5.074804284946350 -2.807940393656369 72.000000000000000
6.872241239760541 -6.410718558220630 -0.929582653571017 14.000000000000000
6.786520482683069 -6.261914276918843 -1.071067377265838 55.000000000000000
6.817823387858093 -6.222808191017323 -1.227715956474823 28.000000000000000
7.244032280254535 -6.538612133882105 -1.465596017079738 46.000000000000000
6.833749828124863 -6.100435119947297 -1.533459694259029 31.000000000000000
7.331199560274674 -6.471441656943377 -1.804741501768722 43.000000000000000
7.045294720269895 -6.149177688262550 -1.887600609957297 54.000000000000000
7.569395565873805 -6.532641596367896 -2.191926216991318 27.000000000000000
7.530396647227615 -6.424463199802523 -2.342857855228576 23.000000000000000
5.559528050797853 -4.688448318768658 -1.849355621460392 1.000000000000000
5.559122827122685 -4.633850632375167 -1.968141689462355 23.000000000000000
7.546647906789854 -6.217101731680682 -2.833399270995419 27.000000000000000
7.563102894141506 -6.157611004045918 -3.000819443998751 28.000000000000000
6.428097978674528 -5.109687492743518 -2.825332918978026 57.000000000000000
7.305772043840400 -6.854909317568914 -1.000268509624765 54.000000000000000
6.770376478227911 -6.283735374924327 -1.080125956073111 17.000000000000000
6.798653037771259 -6.242040679900154 -1.236361202268669 79.000000000000000
6.845912486207912 -6.216098904796954 -1.397676871442278 14.000000000000000
6.837963134234860 -6.140848684943284 -1.547461664622191 30.000000000000000
7.339915636478088 -6.518320103836712 -1.821372414774814 42.000000000000000
6.883996194213365 -6.044998343305559 -1.858412071497855 32.000000000000000
7.583375444067623 -6.584870186118028 -2.211912635319515 27.000000000000000
7.325992666888396 -6.288719600896060 -2.295128150235431 19.000000000000000
5.567404657163129 -4.724336915553828 -1.864387859790344 2.000000000000000
5.522646598551274 -4.632338623711129 -1.967891618657929 28.000000000000000
7.581379693830476 -6.285217144743295 -2.864308534603047 22.000000000000000
7.517931123987128 -6.159847374266487 -3.001095789995366 21.000000000000000
6.430427556971286 -5.144639901981332 -2.842749674784226 24.000000000000000
7.305418429153170 -6.894585556604259 -1.012308044842665 54.000000000000000
7.009681495898320 -6.544078988729819 -1.130367867256316 48.000000000000000
6.779416717309151 -6.261220990147272 -1.244975777117140 40.000000000000000
6.811919239680442 -6.222103624067516 -1.403355537074370 38.000000000000000
7.084870043750511 -6.400782950446249 -1.616926122135205 37.000000000000000
7.342528820710005 -6.560069152166775 -1.836578132242896 42.000000000000000
6.823300692454588 -6.028192893280111 -1.855996255857194 24.000000000000000
7.608844795637881 -6.647519872545954 -2.235411465480335 21.000000000000000
7.296279750246350 -6.301922527427367 -2.301698995187810 26.000000000000000
5.542678732644607 -4.732640968072933 -1.868528280226674 4.000000000000000
5.500974266255457 -4.643106997203244 -1.972849597540956 28.000000000000000
7.539057847082830 -6.289640818059812 -2.866183727211959 24.000000000000000
7.505247098039717 -6.188627952974211 -3.014300259933077 18.000000000000000
6.441407209161603 -5.186772511183498 -2.864117330521247 0.000000000000000
6.051518797603595 -4.814937024974303 -2.821582124940180 0.000000000000000
7.301993103700566 -6.931579939754100 -1.023961059956834 54.000000000000000
7.267720067501358 -6.824860359380611 -1.184536236420473 55.000000000000000
6.774633762839220 -6.293837654390718 -1.256251949082044 13.000000000000000
6.795411826551123 -6.244024529542676 -1.412597530097830 74.000000000000000
6.837036533068993 -6.213959844584672 -1.573536938037723 17.000000000000000
6.874182323073335 -6.178763392237561 -1.733123288139389 6.000000000000000
6.888715192265883 -6.123044280259455 -1.887960736304444 59.000000000000000
7.666230995656271 -6.738735447077285 -2.268542019787856 25.000000000000000
7.251866162631155 -6.302260757431315 -2.303550846980928 27.000000000000000
5.517949206021312 -4.740851427867732 -1.872620703360203 3.000000000000000
5.511616649694195 -4.681262205153279 -1.989438632734668 4.000000000000000
5.644634785400584 -4.738927146309814 -2.159413726318698 0.000000000000000
7.510074590101092 -6.232035406673797 -3.034619307439086 17.000000000000000
6.501419236050258 -5.332031483229165 -2.767470357378498 0.000000000000000
6.028147982793914 -4.827606993617331 -2.826626719734092 17.000000000000000
7.301276257696755 -6.971363182850651 -1.036033002171310 54.000000000000000
7.264250398240604 -6.861703605393807 -1.196572514888609 55.000000000000000
7.204028500951090 -6.732374442994958 -1.348855706438864 50.000000000000000
6.775918580205522 -6.263225540927244 -1.421206958152902 30.000000000000000
6.808668437112319 -6.225323274208432 -1.580184876863870 48.000000000000000
6.836920604112865 -6.182420325153362 -1.737410595163844 16.000000000000000
7.464651708861338 -6.675362129038377 -2.061235384810223 27.000000000000000
6.819476636792920 -6.031183815167107 -2.032521632825055 7.000000000000000
7.189951964361623 -6.287049156445920 -2.299691208533245 27.000000000000000
5.502005639972443 -4.756566695599387 -1.879667845132794 4.000000000000000
5.510328085409250 -4.709505021750484 -2.001810890483161 2.000000000000000
5.607767069028030 -4.737708727116213 -2.158742346027343 0.000000000000000
7.505882568992623 -6.268192575119174 -3.051397172069466 18.000000000000000
6.473754777210122 -5.343389988047987 -2.772053845107930 22.000000000000000
5.993057988800199 -4.830769742275233 -2.826113875978136 21.000000000000000
6.209557617577897 -4.944082616428827 -3.063250769347257 8.000000000000000
5.739287052214087 -5.511952045051619 -0.823995622160092 41.000000000000000
7.263489680257251 -6.901323229868455 -1.209098565739974 55.000000000000000
7.252551698746633 -6.817843110011490 -1.371062793702828 55.000000000000000
6.776622793111028 -6.301215202596643 -1.434073390888019 9.000000000000000
6.788988312101594 -6.244589703179603 -1.588816269142289 58.000000000000000
6.802600451827980 -6.188568977254101 -1.742366524746688 39.000000000000000
6.965459837614697 -6.266872399014550 -1.937860569041608 19.000000000000000
7.680271413832374 -6.834120376902109 -2.305542383882933 23.000000000000000
7.151557125864391 -6.292092990992263 -2.303214377387455 24.000000000000000
5.456796222662460 -4.746827263590799 -1.876643256979811 5.000000000000000
5.485520364390491 -4.717680691453246 -2.005646834651214 1.000000000000000
5.570963699090123 -4.736328588041201 -2.157992346956709 1.000000000000000
7.513203458822087 -6.314214755699749 -3.072966287684813 18.000000000000000
6.457760826964467 -5.364351607051167 -2.781616964582067 51.000000000000000
6.035188236445993 -4.954508256292804 -2.730445913947084 5.000000000000000
5.958011449961010 -4.833783996281305 -2.825527886860835 48.000000000000000
5.958477694079655 -4.775304139340139 -2.955733064056382 21.000000000000000
5.708377214473661 -5.514285356967600 -0.829148104508864 81.000000000000000
5.764104502578593 -5.508903941455254 -0.969587874909716 0.000000000000000
7.251663806510220 -6.857367947991317 -1.384071119274966 55.000000000000000
7.256277320196624 -6.787442519151440 -1.549257726014368 50.000000000000000
6.780813498255368 -6.274509881439037 -1.600146883758393 21.000000000000000
6.782791691572580 -6.207845987167766 -1.750995450690557 77.000000000000000
6.846433914423637 -6.197278606252483 -1.919037397216412 18.000000000000000
6.951375367454677 -6.223446441900088 -2.101711418236458 30.000000000000000
7.089910762758986 -6.276368248167671 -2.299109173029184 21.000000000000000
5.365101619377970 -4.696086625102756 -1.857384995976569 18.000000000000000
5.498591261008992 -4.758545425342668 -2.023374305289530 1.000000000000000
5.548796860442963 -4.747253586394106 -2.162843680899424 2.000000000000000
7.508624327570192 -6.350487248891294 -3.089779346343382 18.000000000000000
6.444598317728612 -5.387713008857160 -2.792419212317677 67.000000000000000
6.017421525444063 -4.971812772787721 -2.738192823280950 25.000000000000000
5.943353053658475 -4.853262640201293 -2.834571612218479 30.000000000000000
5.917672715925736 -4.773703485284156 -2.951819889792402 45.000000000000000
5.674642293482245 -5.513720787691021 -0.833818875060089 83.000000000000000
5.738715475900691 -5.516896752371346 -0.975394745901565 78.000000000000000
7.256328878769478 -6.902409994478222 -1.398202943518296 54.000000000000000
7.266725666057788 -6.837740351455185 -1.565249175159822 51.000000000000000
6.876342489567213 -6.401102712571259 -1.636182761578129 23.000000000000000
6.765806998390363 -6.229730172360442 -1.760344750358275 48.000000000000000
6.820558638186504 -6.211435029501231 -1.926092089528555 51.000000000000000
6.870081690108522 -6.188366071021447 -2.092009307404299 19.000000000000000
7.028434316907823 -6.260354689556017 -2.294866927267560 18.000000000000000
5.448044144215602 -4.798335870546017 -1.898632106572903 5.000000000000000
5.459140559180555 -4.753991480219791 -2.021782718569786 1.000000000000000
5.526609889138162 -4.758100775843557 -2.167654063774290 2.000000000000000
6.437145041094430 -5.415941876618028 -2.805737213106136 72.000000000000000
5.990892029955311 -4.981831360950387 -2.741927967046025 35.000000000000000
5.902539818397659 -4.851275914992680 -2.831086308970823 21.000000000000000
5.885627821958545 -4.778970037428038 -2.952173186442923 56.000000000000000
5.643797249919861 -5.515794701163597 -0.838842903297516 82.000000000000000
5.701905919461013 -5.513756815885558 -0.979192861948552 88.000000000000000
5.752523380008371 -5.504357833620610 -1.118981502043924 6.000000000000000
7.268309178245477 -6.880010914597255 -1.579416191019707 50.000000000000000
7.313355514961971 -6.848784342834276 -1.754584890258491 46.000000000000000
6.757384230925921 -6.259584583497813 -1.771936567056003 21.000000000000000
6.803310250825429 -6.233437805393665 -1.935563679474965 49.000000000000000
6.829543001736053 -6.189555139578701 -2.094529436783594 29.000000000000000
6.958449208939893 -6.236273958488190 -2.287634525287151 19.000000000000000
5.484021689585221 -4.860048408219199 -1.923853315074949 3.000000000000000
5.445844519127488 -4.772105927308134 -2.029823266208089 3.000000000000000
5.492814901040236 -4.758830413783587 -2.167849984606561 4.000000000000000
6.432454251602967 -5.446636557178723 -2.820323831590838 66.000000000000000
5.961462782340380 -4.989330622697397 -2.744280858837972 30.000000000000000
5.861806510815338 -4.849108000107409 -2.827513401039370 24.000000000000000
5.859381059155361 -4.788821215542271 -2.955371545031802 69.000000000000000
5.612981319039000 -5.517743228140652 -0.843804705146384 83.000000000000000
5.668004244039397 -5.513226048253363 -0.983407560684767 85.000000000000000
5.724106638253489 -5.509611978561372 -1.123990675937905 78.000000000000000
7.278269304986931 -6.930525816154725 -1.595488588394771 49.000000000000000
7.320355825632620 -6.896501240698519 -1.770764022440690 45.000000000000000
6.751700426163885 -6.292127477092238 -1.784285057763827 8.000000000000000
6.788856244238391 -6.258054936981560 -1.945835373505706 16.000000000000000
6.794820979671298 -6.195829012851878 -2.098745982181191 44.000000000000000
6.865610822303481 -6.191046327509460 -2.272604982679776 13.000000000000000
5.496540576715852 -4.901419816894437 -1.941025880062053 3.000000000000000
5.455582457046384 -4.810565739729107 -2.046512476901199 5.000000000000000
5.461958103540118 -4.761934198524002 -2.169122487113166 2.000000000000000
6.436272218040624 -5.484740515935596 -2.838735882066691 42.000000000000000
5.937811745223952 -5.001573090309272 -2.749246133138073 11.000000000000000
5.815393322807624 -4.841962896258619 -2.821058633261517 29.000000000000000
5.836004668769109 -4.800940828801690 -2.959978490538418 73.000000000000000
5.582195076940826 -5.519566554217088 -0.848704410584586 85.000000000000000
5.636985843082565 -5.515328840675386 -0.988049788270328 88.000000000000000
5.690012146504471 -5.509246077332516 -1.127816222630197 81.000000000000000
5.747656668674319 -5.505689818171525 -1.270992700658045 43.000000000000000
7.324255399756844 -6.941611974815002 -1.786283860487369 45.000000000000000
7.410426047024029 -6.947767129485269 -1.973631605956861 36.000000000000000
6.823078942827378 -6.327886867444891 -1.970173985404369 18.000000000000000
6.774483602783829 -6.215144447918707 -2.107362191726489 46.000000000000000
6.833534184775861 -6.200150972483500 -2.277488630907214 38.000000000000000
8.484868780565195 -7.613219586259382 -3.016148754286932 6.000000000000000
5.419040536753657 -4.808251806375913 -2.045849023633803 8.000000000000000
5.529044565167862 -4.850810467145082 -2.209457853914264 8.000000000000000
6.445642870615229 -5.527859849364191 -2.859729614889210 9.000000000000000
5.792069615999175 -4.853856087843292 -2.825709582021084 34.000000000000000
5.824075733996200 -4.822477048983267 -2.970392727688763 78.000000000000000
5.548619678036515 -5.518460771092510 -0.853108660382147 84.000000000000000
5.603169033707016 -5.514522036335920 -0.992128767082345 90.000000000000000
5.661637457262390 -5.514262672685258 -1.132706704824108 81.000000000000000
5.719057808401232 -5.510980626680519 -1.275698364236976 80.000000000000000
5.683349505790551 -5.418785278952886 -1.397455006658091 3.000000000000000
7.422433894974077 -7.001103754275618 -1.992194091098511 37.000000000000000
6.811137747978550 -6.355266500757851 -1.981304187248076 18.000000000000000
6.765537373864621 -6.244980188042908 -2.119535442919642 26.000000000000000
6.810062173454224 -6.216987067881321 -2.285196926193527 64.000000000000000
8.427690089220439 -7.608908747474443 -3.015634499182961 8.000000000000000
5.445722580630881 -4.862165933899881 -2.069104155433077 13.000000000000000
5.497958260344734 -4.853939722972810 -2.210729321570997 36.000000000000000
5.924049755322370 -5.113023702671375 -2.643903007371046 1.000000000000000
5.783038084234376 -4.877741967427974 -2.837340976246362 47.000000000000000
5.809195509153136 -4.841615428524893 -2.979327370180180 82.000000000000000
5.520713957879437 -5.522838356168477 -0.858318056963407 85.000000000000000
5.569399859423240 -5.513573577759345 -0.996138348067375 91.000000000000000
5.624792233843375 -5.510856750611320 -1.135828420289303 81.000000000000000
5.681965958240034 -5.507914750708808 -1.278434178331346 81.000000000000000
5.651980814967904 -5.421251695809040 -1.401099182043285 5.000000000000000
7.437009837234390 -7.057275904204105 -2.011577861485618 35.000000000000000
6.801930228182433 -6.385316192064086 -1.993259215030059 18.000000000000000
6.765022679016663 -6.282781693464660 -2.134408195415194 9.000000000000000
6.795117028362623 -6.241628180855037 -2.295762666917585 26.000000000000000
8.373481113880098 -7.606946976546660 -3.016029796189174 8.000000000000000
5.463503815389792 -4.908567426085230 -2.089159611613292 2.000000000000000
5.481216534524709 -4.869655795653197 -2.217728056708977 43.000000000000000
6.498747821185331 -5.709168867883651 -2.773215389151552 3.000000000000000
5.868783774136666 -5.097707037357979 -2.634772091415333 18.000000000000000
5.923870098027766 -5.086886892821737 -2.790807911937133 1.000000000000000
5.782459357526844 -4.908898015770860 -2.853191204478092 48.000000000000000
5.791390286873209 -4.858330980853513 -2.986771271053341 69.000000000000000
5.484415306365460 -5.518647308070250 -0.862151167970698 84.000000000000000
5.535678978609203 -5.512483726055042 -1.000078704784024 90.000000000000000
5.590831619809901 -5.510071165221836 -1.139447915933275 85.000000000000000
5.650592591737693 -5.510202537007910 -1.282375671693244 80.000000000000000
5.617810372539833 -5.420857167275797 -1.403972289676147 5.000000000000000
5.671495038453564 -5.414463398970574 -1.545895898825216 11.000000000000000
6.798273554338035 -6.420745216676335 -2.006889021076171 18.000000000000000
7.271074826222887 -6.794157001474662 -2.310315456984313 20.000000000000000
6.797170385533033 -6.282049402258253 -2.312126739090966 5.000000000000000
8.316512742667028 -7.602145199765432 -3.015277791968817 8.000000000000000
7.595252224259909 -6.866490927589617 -2.922900954737325 36.000000000000000
5.467274482937337 -4.887877295333457 -2.225861917097722 35.000000000000000
5.511695203643148 -4.872768467000107 -2.366289806669195 1.000000000000000
5.825093083235006 -5.092097738886864 -2.630668202048862 30.000000000000000
5.877159572435229 -5.079269262721881 -2.784873985820843 35.000000000000000
5.778872891333993 -4.937673066402915 -2.867645165484099 32.000000000000000
5.784893045375273 -4.884594428486921 -3.000080952701667 57.000000000000000
5.456564539100707 -5.522783785921805 -0.867240845779239 83.000000000000000
5.507612760890989 -5.516867877370827 -1.004972885059411 91.000000000000000
5.556919784314776 -5.509143523342685 -1.142997878345528 84.000000000000000
5.613614357185936 -5.506834392336983 -1.284964133417931 83.000000000000000
5.586513394087016 -5.423061193245913 -1.407486906509819 4.000000000000000
5.637155443877159 -5.414241907268422 -1.548382081769388 3.000000000000000
5.691801397426626 -5.408460158051765 -1.692625053288234 0.000000000000000
7.279981871663429 -6.844187807175958 -2.329497200761527 22.000000000000000
8.821959492819071 -8.203718680606119 -3.021329263177658 10.000000000000000
8.256812384976445 -7.594479496629316 -3.013367952072315 8.000000000000000
7.600305802082824 -6.914055350500980 -2.943558106278004 36.000000000000000
5.458950560791432 -4.911187787784132 -2.236307064773288 1.000000000000000
5.625504588578864 -5.004943147760062 -2.429811970414116 2.000000000000000
5.795715614247182 -5.098795301747774 -2.632926696595679 35.000000000000000
5.836247252636041 -5.076378880002770 -2.781545518728767 56.000000000000000
5.812016004462815 -4.998192644452691 -2.900509653975850 17.000000000000000
3.206372353805104 -2.725053933880929 -1.672136772574056 0.000000000000000
5.425943890590228 -5.523976091749463 -0.871828557657348 85.000000000000000
5.476767530909707 -5.518327318754984 -1.009297287946237 91.000000000000000
5.528661706752032 -5.513663207072807 -1.147641830566187 85.000000000000000
5.587940312735548 -5.514397362299682 -1.290070072502750 83.000000000000000
5.555248842196716 -5.425138353974729 -1.410938744773991 3.000000000000000
5.608507750577724 -5.419328764434533 -1.552359673104812 2.000000000000000
5.665771088265661 -5.416523642314739 -1.697265332120593 5.000000000000000
7.277307584973612 -6.883629857677486 -2.345075328465284 18.000000000000000
8.766362108281035 -8.202344126309621 -3.022721657726444 9.000000000000000
8.202910977712467 -7.591795958641375 -3.013413614836300 9.000000000000000
7.599437631029351 -6.956526992562472 -2.962039819760149 35.000000000000000
5.935451990504184 -5.373522790537431 -2.446639836182420 6.000000000000000
3.101710037734038 -2.777063141017416 -1.347846858000715 0.000000000000000
3.114113290624418 -2.757155287941773 -1.423098426438271 0.000000000000000
3.165255563032908 -2.770864090039724 -1.517317835925475 0.000000000000000
3.217882861924369 -2.785240922050350 -1.615043929145438 0.000000000000000
3.199181586836117 -2.736699963331732 -1.677717045615513 14.000000000000000
5.395356390549423 -5.525044375949162 -0.876354986720581 84.000000000000000
5.445955277917227 -5.519661884169762 -1.013559961407819 92.000000000000000
5.494832102797664 -5.512468085501597 -1.151060280085525 85.000000000000000
5.551061087054418 -5.510744002257943 -1.292518993813373 84.000000000000000
5.524017297593666 -5.427088848500498 -1.414327941591874 3.000000000000000
5.577062850552656 -5.421570190146284 -1.555496909126687 2.000000000000000
5.622835754990481 -5.408233848230116 -1.696755938624843 15.000000000000000
5.680775825655243 -5.406425063571242 -1.843499403482316 3.000000000000000
8.708031348496647 -8.198075522888407 -3.023018980194742 9.000000000000000
8.149105551098527 -7.588880981610751 -3.013347003582864 10.000000000000000
5.910772912581796 -5.444584352199508 -2.318568698070770 24.000000000000000
5.916919960403229 -5.390499061941947 -2.454172374831242 20.000000000000000
3.100492452246540 -2.793586022788221 -1.355495365851364 2.000000000000000
3.107189622480444 -2.768602817922764 -1.428359578866601 0.000000000000000
3.155334222322063 -2.779953463053897 -1.521350941991318 0.000000000000000
3.247244734212341 -2.828872446872962 -1.639068734206468 3.000000000000000
3.177867667379406 -2.736217049294079 -1.675866745232741 29.000000000000000
3.163494225696623 -2.692485114898605 -1.740357489148007 0.000000000000000
5.359266174967519 -5.520286063421903 -0.879911270435224 84.000000000000000
5.415176573546899 -5.520871773364595 -1.017761042374359 90.000000000000000
5.466622858376379 -5.516752400723226 -1.155587068719355 86.000000000000000
5.517041765477146 -5.509720874029456 -1.295547007354385 85.000000000000000
5.490021163893433 -5.426147257483421 -1.416932447263219 4.000000000000000
5.545651223859815 -5.423684377831282 -1.558571228071092 3.000000000000000
5.577195432686942 -5.397034459879269 -1.695301195803151 25.000000000000000
5.648954378831014 -5.409125521561473 -1.846069207228757 6.000000000000000
5.677405133090486 -5.377937349711962 -1.984309657621730 0.000000000000000
7.923574213634114 -7.424729545643427 -2.949214616653399 13.000000000000000
5.886589365559196 -5.456245972229378 -2.323829066823990 6.000000000000000
3.102008572903153 -2.812685681289524 -1.364389266999792 28.000000000000000
3.108665062319523 -2.787614989030025 -1.437518766225017 13.000000000000000
3.139754982017574 -2.784026465902827 -1.522639579824601 1.000000000000000
3.206078515698177 -2.811110264095006 -1.627518243915652 38.000000000000000
3.142564146650987 -2.723483440249032 -1.666531888345692 38.000000000000000
3.156274305919739 -2.704006839745883 -1.745950605371855 1.000000000000000
5.339802282134511 -5.532528055751129 -0.886140451642796 85.000000000000000
5.384431988249434 -5.521957188096317 -1.021900668728459 91.000000000000000
5.432877894978261 -5.515290692262901 -1.158874608443376 83.000000000000000
5.483073584907765 -5.508555803020695 -1.298505690204603 85.000000000000000
5.456076736647375 -5.425063545544817 -1.419467565890828 9.000000000000000
5.511478584616739 -5.422921569808252 -1.560791292588307 2.000000000000000
5.551272959431074 -5.404706187247803 -1.699748087045455 41.000000000000000
5.597545272832822 -5.392794351044761 -1.842118347426853 37.000000000000000
5.667939279887641 -5.402137493445500 -1.994435965734961 9.000000000000000
7.662722289733537 -7.224950011734053 -2.870860574525505 20.000000000000000
7.575873838509946 -7.065991079872259 -3.009792292193311 25.000000000000000
3.080954741619944 -2.811321400963297 -1.363353901441349 49.000000000000000
3.079162775025359 -2.778801062258287 -1.432328614979939 35.000000000000000
3.126984931104441 -2.790542706715740 -1.525266089127189 38.000000000000000
3.170678756656363 -2.798085888054083 -1.618732709609789 39.000000000000000
3.118577785126295 -2.720335982507855 -1.663082902440463 49.000000000000000
3.146213655060580 -2.713109994870389 -1.749982226322524 20.000000000000000
5.339560581729927 -5.564777641820384 -0.895566073013002 83.000000000000000
5.348202790159584 -5.517224601885536 -1.024921269014471 93.000000000000000
5.404719671292841 -5.519340350978747 -1.163284730750816 83.000000000000000
5.454706242610669 -5.512857260719601 -1.302720472609288 83.000000000000000
5.444429534561525 -5.446089632691835 -1.427767052386588 10.000000000000000
5.477358032034777 -5.422016066946721 -1.562941700344485 2.000000000000000
5.533721131703119 -5.420482766296495 -1.706728161373417 54.000000000000000
5.568646995978566 -5.397890611295418 -1.845462430576055 62.000000000000000
5.649973685444328 -5.418289827847065 -2.001582547694613 9.000000000000000
5.779884330642848 -5.483575190863417 -2.179665169363525 1.000000000000000
7.537801559559488 -7.074499438419677 -3.013773273572879 22.000000000000000
3.062741669551973 -2.812436719825248 -1.363520869869103 54.000000000000000
3.063745038231700 -2.782553211340358 -1.433619184710533 51.000000000000000
3.125384002098107 -2.807058772058761 -1.533355760949553 34.000000000000000
3.135408727154528 -2.784888648476159 -1.609866866940198 54.000000000000000
3.091862070700917 -2.714632828514151 -1.658087314381935 66.000000000000000
3.124991002620837 -2.712523978954188 -1.747772553033531 46.000000000000000
5.341905499164562 -5.599949253469265 -0.905471146179951 81.000000000000000
5.339553024203632 -5.540883334964508 -1.033189900275086 90.000000000000000
5.373820381966058 -5.520446870152917 -1.167041068765376 84.000000000000000
5.423590455324090 -5.514236788877779 -1.306214074761219 84.000000000000000
5.457640202312913 -5.492204290802224 -1.442647375553534 12.000000000000000
5.448844604408837 -5.426499748314965 -1.566619595990782 7.000000000000000
5.507770249778844 -5.427987198259173 -1.711087914511007 4.000000000000000
5.539765458999007 -5.402874861538916 -1.848750358980997 69.000000000000000
5.631952857960813 -5.434393108744622 -2.008700710742147 8.000000000000000
5.750266286568747 -5.489417382020055 -2.182720879894387 76.000000000000000
6.310726815582289 -5.959937137535436 -2.539254295204904 3.000000000000000
3.044552255006414 -2.813477105797520 -1.363651033691746 65.000000000000000
3.048333015270441 -2.786246427716630 -1.434880020088276 69.000000000000000
3.090260101309194 -2.793369939495303 -1.524950126194459 14.000000000000000
3.114184304693639 -2.783958608449249 -1.608106520987065 77.000000000000000
3.081897385605097 -2.723541129839214 -1.662025336351587 89.000000000000000
3.106582907020523 -2.714269635410449 -1.747078414982210 53.000000000000000
5.338609969276398 -5.629418164053356 -0.914460895921084 81.000000000000000
5.344510065530051 -5.578854593738021 -1.044131017342240 89.000000000000000
5.345706572090174 -5.524270397758288 -1.171338472672776 91.000000000000000
5.392510082910722 -5.515490816143005 -1.309645777585822 84.000000000000000
5.440211131760085 -5.507675487504743 -1.449479067186917 63.000000000000000
5.464642007760373 -5.475251770203399 -1.583073523215272 9.000000000000000
5.467955043311142 -5.421649530030862 -1.711060495086123 5.000000000000000
5.508124890983416 -5.405022930825617 -1.851049243693467 83.000000000000000
5.619435269330332 -5.455843659558952 -2.017786216688150 10.000000000000000
5.717882498966634 -5.492474018506217 -2.184656697068275 96.000000000000000
5.733994133570230 -5.449184915021688 -2.321902460932040 34.000000000000000
3.046638561899785 -2.864169721548757 -1.303428279311341 0.000000000000000
3.031950053111544 -2.819616300469052 -1.366251365439802 77.000000000000000
3.035706919468656 -2.792437949220861 -1.437427493420561 75.000000000000000
3.074710332426879 -2.797197316687273 -1.526115180182972 14.000000000000000
3.098549138130699 -2.787928751646362 -1.609183182342230 80.000000000000000
3.060822343805228 -2.722566773948075 -1.659938776297683 105.000000000000000
3.088198043729185 -2.715939722221705 -1.746347121269283 57.000000000000000
3.120371064680034 -2.712240771410940 -1.836739071453478 0.000000000000000
5.340625245968872 -5.664698101298145 -0.924401105186006 79.000000000000000
5.343808379569167 -5.611163010779673 -1.054021664342984 89.000000000000000
5.345021704913178 -5.556479756377602 -1.181641100746292 85.000000000000000
5.361465697930840 -5.516619551955790 -1.313015723017071 82.000000000000000
5.408958915694026 -5.509073941950597 -1.452585195592669 91.000000000000000
5.455338155423212 -5.499110943559339 -1.592334274079905 16.000000000000000
5.455867879985672 -5.442709553427132 -1.719661127424147 7.000000000000000
5.493123877913289 -5.423436713312424 -1.858904053089831 20.000000000000000
5.590205873061740 -5.461039546192995 -2.020848676101754 16.000000000000000
5.679988377919687 -5.490042037009747 -2.184396131328545 99.000000000000000
5.737614717805092 -5.486792177033951 -2.338175561429348 86.000000000000000
3.058948626534432 -2.893880338962688 -1.316827203542023 4.000000000000000
3.022108657550235 -2.828307502705395 -1.370086103900147 82.000000000000000
3.020298073837591 -2.796021461451717 -1.438632521624038 78.000000000000000
3.056397888239445 -2.798430650993486 -1.525868225092073 11.000000000000000
3.082919504412684 -2.791839406733601 -1.610229814753540 88.000000000000000
3.053593939074183 -2.733860474453813 -1.665336891283138 114.000000000000000
3.080859512016654 -2.727292125725020 -1.751846548124238 64.000000000000000
3.110158077447313 -2.721258911445748 -1.840717976814029 2.000000000000000
3.130399863623017 -2.706082661811664 -1.925567272590416 0.000000000000000
5.339750393405813 -5.697141147833531 -0.933886758544357 78.000000000000000
5.340224911673762 -5.640639436816416 -1.063383579227339 88.000000000000000
5.344179123841386 -5.588735314353416 -1.191957666361077 83.000000000000000
5.349632180608818 -5.537470773260287 -1.321059032550269 85.000000000000000
5.377743042316728 -5.510346549680633 -1.455629304883895 91.000000000000000
5.429424867791400 -5.506232827198455 -1.596734686067301 91.000000000000000
5.465730988221523 -5.485873349058803 -1.735244755785571 12.000000000000000
5.455984634079749 -5.419896999993888 -1.859218164213904 6.000000000000000
5.558232577720545 -5.463408603264720 -2.022849733850506 24.000000000000000
5.647690866690874 -5.492823319819767 -2.186196663509630 102.000000000000000
5.699573231905360 -5.484578074239558 -2.337471352063715 91.000000000000000
3.043441615638856 -2.897375168763048 -1.318292935440696 25.000000000000000
3.009474037740776 -2.834369094506819 -1.372644838357256 85.000000000000000
3.007657551992860 -2.802119311974264 -1.441131295684466 78.000000000000000
3.040869051142308 -2.802131665106667 -1.526970053803093 8.000000000000000
3.067295667123028 -2.795690633731306 -1.611246464981489 94.000000000000000
3.040813514571470 -2.740183196996173 -1.667707773112346 114.000000000000000
3.059739270052377 -2.726395898413226 -1.749484782561679 57.000000000000000
3.105395992274698 -2.735077179094055 -1.847942790121802 35.000000000000000
3.111873785560503 -2.708004996424539 -1.924488109103579 1.000000000000000
5.344133173295414 -5.735440154167211 -0.944342556517436 77.000000000000000
5.341933170145593 -5.675916922343103 -1.073844074508703 87.000000000000000
5.340455189233007 -5.618171535955914 -1.201675066051139 81.000000000000000
5.345902054309848 -5.566835090246862 -1.331128207094245 83.000000000000000
5.352036514900588 -5.517134766007500 -1.460104488343943 91.000000000000000
5.398029398371789 -5.507665212260719 -1.599461948271044 91.000000000000000
5.447902178329579 -5.501416594511003 -1.742088777585920 47.000000000000000
5.465656594631212 -5.462913655067539 -1.875493638176617 11.000000000000000
5.518038697908801 -5.457483472521733 -2.021762368710296 35.000000000000000
5.615428411307859 -5.495475202594499 -2.187933283979534 102.000000000000000
5.669867669308733 -5.490205456364063 -2.340100138762832 94.000000000000000
3.033451330519249 -2.906090074812250 -1.322130667690878 46.000000000000000
2.994073540754382 -2.837777217840549 -1.373917062438512 86.000000000000000
2.995005581678179 -2.808174311806839 -1.443607495209394 72.000000000000000
3.039098142478856 -2.818527110277795 -1.534987755329227 7.000000000000000
3.057171458988386 -2.804522066006721 -1.615135490176664 100.000000000000000
3.022535655241080 -2.741487175789961 -1.667030376980444 109.000000000000000
3.030448772065139 -2.718042575425031 -1.742357253282390 55.000000000000000
3.078712633886478 -2.729523654914256 -1.842089339638908 58.000000000000000
3.112449249776441 -2.726564369114151 -1.935233941579988 17.000000000000000
3.118263948100898 -2.697862693902468 -2.011892351698648 0.000000000000000
5.340228166632435 -5.765074716321354 -0.953379590476875 77.000000000000000
5.340759038604021 -5.708361252912788 -1.083775206310516 86.000000000000000
5.342019594373963 -5.653382693442964 -1.212631343320882 79.000000000000000
5.347473632936519 -5.601930942989088 -1.342570465573443 82.000000000000000
5.348149691710978 -5.546455655030711 -1.470530700743651 87.000000000000000
5.369403647779918 -5.511776375169061 -1.602942811623643 93.000000000000000
5.419072646507479 -5.505788315254218 -1.745378663638505 91.000000000000000
5.455912730041226 -5.486747794328241 -1.885181933821843 18.000000000000000
5.497137150395380 -5.470491585528801 -2.027673781060835 54.000000000000000
5.574966788451365 -5.489888755167684 -2.186376628933747 98.000000000000000
5.629195340360491 -5.485016272549549 -2.338109559009239 96.000000000000000
3.017939117185452 -2.909482898926192 -1.323544009777511 52.000000000000000
2.986915985155056 -2.848982363731895 -1.378962069373133 88.000000000000000
2.987829632380140 -2.819364346109101 -1.448721771687012 72.000000000000000
3.029019054057295 -2.827266787496267 -1.538832701263651 22.000000000000000
3.047017079474255 -2.813325832707971 -1.619008547355504 105.000000000000000
3.012483527522833 -2.750203179070681 -1.670864886887361 120.000000000000000
3.009440995401893 -2.716940590207084 -1.739897331591621 59.000000000000000
3.062998603195441 -2.733566560165871 -1.842729881986425 54.000000000000000
3.091190437641844 -2.725995248367789 -1.932406681862763 68.000000000000000
3.110550825884358 -2.709264571563556 -2.017628072975956 1.000000000000000
5.346941731685377 -5.806420765043349 -0.964363011129520 75.000000000000000
5.344822907181372 -5.746651490070969 -1.094824525910147 85.000000000000000
5.340702039684770 -5.685773343682946 -1.222987819878584 79.000000000000000
5.343443344202088 -5.631369810550534 -1.352659337794421 81.000000000000000
5.344121171379311 -5.575806008675722 -1.480963287604101 87.000000000000000
5.351691670479687 -5.527028028366527 -1.609645127899055 91.000000000000000
5.390262508630594 -5.510048882184313 -1.748612994344609 91.000000000000000
5.435136417248958 -5.499525346175717 -1.891061366710508 97.000000000000000
5.487136010106298 -5.494384864066062 -2.037610701806536 90.000000000000000
5.545539344253191 -5.494969839322182 -2.189055468981872 99.000000000000000
5.602297640632090 -5.493067656159563 -2.341754229337869 92.000000000000000
3.010644589602494 -2.920782645448203 -1.328551050259578 58.000000000000000
2.976974635634371 -2.857549769072253 -1.382727498845931 87.000000000000000
2.977871514641646 -2.827946202215777 -1.452493552364083 72.000000000000000
3.007981931855605 -2.825712931089325 -1.537077463469164 46.000000000000000
3.042289650595057 -2.827173009293936 -1.625781798828511 105.000000000000000
3.002401628325169 -2.758891709420338 -1.674683551576866 95.000000000000000
2.988476491703976 -2.715747975874487 -1.737393792456482 56.000000000000000
3.039150137204279 -2.730236768451879 -1.838416065999386 56.000000000000000
3.069973865457019 -2.725334785386247 -1.929535377487177 84.000000000000000
3.108189441387231 -2.725389370084418 -2.026876211780037 27.000000000000000
3.122639476290868 -2.705743776387147 -2.111320278321627 0.000000000000000
5.345402064975737 -5.839070573380583 -0.973913549979706 73.000000000000000
5.343314494458177 -5.779198752915189 -1.104787756818783 83.000000000000000
5.344618715655689 -5.723983819076054 -1.234602779528073 78.000000000000000
5.344678397826560 -5.666569916585177 -1.364134232492525 80.000000000000000
5.342659990734253 -5.608029137347280 -1.492158643734436 86.000000000000000
5.347499943866708 -5.556333634812199 -1.620432315464055 83.000000000000000
5.358753461421453 -5.511402192710408 -1.750903541001195 93.000000000000000
5.408880942692942 -5.506695286464924 -1.894998145064552 97.000000000000000
5.457952437735464 -5.499057308792951 -2.040408758564897 95.000000000000000
5.507950414479303 -5.491781758343833 -2.188427597696391 100.000000000000000
5.545395209750646 -5.471416660371538 -2.332727094257563 55.000000000000000
3.000574436197903 -2.929407554942497 -1.332337956331446 64.000000000000000
2.972458079311096 -2.871358547713153 -1.389025938279343 85.000000000000000
2.970609418970626 -2.839105521958516 -1.457586880809395 71.000000000000000
3.011494289924586 -2.847237772206283 -1.547874416828904 64.000000000000000
3.032056874522335 -2.835936904443186 -1.629629707534519 102.000000000000000
2.984144076960473 -2.760018508633600 -1.673916951327541 93.000000000000000
2.972975876855423 -2.719422873162233 -1.738015440828358 55.000000000000000
3.023476156586560 -2.734137062033210 -1.838986257852129 64.000000000000000
3.051498011565433 -2.726994326482766 -1.928325135640516 93.000000000000000
3.086903412145325 -2.724902822533072 -2.023777638930928 63.000000000000000
3.114735746435608 -2.717155012320907 -2.117126795658584 1.000000000000000
5.351719773419319 -5.880570576590561 -0.984951349321393 71.000000000000000
5.347007760442551 -5.817621134966371 -1.115881866399714 83.000000000000000
5.342965070672962 -5.756476852433573 -1.244990964210231 77.000000000000000
5.345735695610509 -5.701828885824083 -1.375628303524510 79.000000000000000
5.346439037316570 -5.645999096531232 -1.504886647633631 82.000000000000000
5.348576442516322 -5.591324170282744 -1.632877234017131 82.000000000000000
5.351670343496183 -5.537865008623349 -1.761157483250309 83.000000000000000
5.374488246217597 -5.505431882902778 -1.896014734643816 97.000000000000000
5.420641254151625 -5.495358011194138 -2.040084489082228 94.000000000000000
5.475870660757936 -5.493887010407997 -2.189896349949178 100.000000000000000
5.524035573671699 -5.484584354502297 -2.338535746820689 71.000000000000000
2.998630674265545 -2.946017674185125 -1.339752940934493 40.000000000000000
2.965157764419546 -2.882529266943571 -1.394044639642591 79.000000000000000
2.957867454712415 -2.845028169011215 -1.459990012940428 54.000000000000000
3.001316741863167 -2.855902386157219 -1.551675022597633 43.000000000000000
3.029924562858584 -2.852326652217506 -1.637856468814008 92.000000000000000
2.976736665319130 -2.771147558482985 -1.679220067310578 86.000000000000000
2.952080788138385 -2.718065303963987 -1.735431941532540 61.000000000000000
3.005113758079916 -2.735524608206397 -1.837878238321581 67.000000000000000
3.041113497678847 -2.735835440441809 -1.932203182136418 97.000000000000000
3.071024171005239 -2.729092018369503 -2.024170767591867 52.000000000000000
3.104109087194423 -2.726204743148292 -2.121096526146974 11.000000000000000
5.347173768173880 -5.910384092248586 -0.994040529881955 58.000000000000000
5.347834925326254 -5.853192460822500 -1.126438470592762 81.000000000000000
5.346509080112885 -5.794818947226969 -1.256650319352907 77.000000000000000
5.349300255300725 -5.740027592196766 -1.387837893797179 77.000000000000000
5.344638998979000 -5.678324557097970 -1.516113516479183 84.000000000000000
5.349473774790979 -5.626373490910652 -1.645341202790913 82.000000000000000
5.347162810995142 -5.567152197929616 -1.772305356815798 83.000000000000000
5.350968155771030 -5.515173568143651 -1.900804121726912 94.000000000000000
5.394231550340512 -5.502543914988711 -2.043785811901947 94.000000000000000
5.443828993216538 -5.495864039414112 -2.191301976654471 100.000000000000000
5.494512187676352 -5.489564860016465 -2.340845459902988 93.000000000000000
2.980345882116885 -2.946574696140599 -1.339864165881326 3.000000000000000
2.957809899534508 -2.893688191693033 -1.399054411905400 63.000000000000000
