# This PCD file was generated using the MATLAB® pcwrite function
# from Computer Vision Toolbox®.
# .PCD v.7 - Point Cloud Data file format
VERSION .7
FIELDS x y z intensity
SIZE 8 8 8 8
TYPE F F F F
COUNT 1 1 1 1
WIDTH 637
HEIGHT 1
VIEWPOINT 0 0 0 1 0 0 0
POINTS 637
DATA ascii
2.383287573912939 -4.679610798356668 -2.644916466721745 17.000000000000000
2.395612648244398 -4.669191696871093 -2.756968069717438 17.000000000000000
2.410895553108277 -4.662609939104606 -2.873309448661191 14.000000000000000
2.420951273820485 -4.644108441973580 -2.984633262056947 21.000000000000000
2.405209363632088 -4.574409903672531 -3.063626274577104 25.000000000000000
2.648198222700324 -5.880703840504772 -1.242172497505583 2.000000000000000
2.316080549450337 -5.108115036228667 -1.182690012265441 22.000000000000000
2.281329188207327 -4.997558852482498 -1.258744871293273 78.000000000000000
2.294764226273650 -4.991837096141712 -1.360595293023672 76.000000000000000
2.310480684060408 -4.991555179435732 -1.464554505381095 77.000000000000000
2.327567743744568 -4.992903279524159 -1.569499678112971 76.000000000000000
2.342254096397467 -4.988836265966209 -1.674203828477767 76.000000000000000
2.351078916700843 -4.972759781375844 -1.775524734881398 50.000000000000000
2.273395833116300 -4.773626869236364 -1.808287006886372 39.000000000000000
2.253415104811568 -4.697588265689424 -1.883184762965148 15.000000000000000
2.262039556849808 -4.681492233817031 -1.981136923071583 19.000000000000000
2.302371037923669 -4.730420078413013 -2.109131926996815 42.000000000000000
2.263944475983972 -4.617820267695334 -2.164876759754201 39.000000000000000
2.255536250195904 -4.567421916364736 -2.248074122880134 47.000000000000000
2.270826407508186 -4.564679487253030 -2.355101824893113 13.000000000000000
2.352673376248550 -4.695232139973763 -2.536128375388092 20.000000000000000
2.363209224084024 -4.680321799061185 -2.643901287952496 17.000000000000000
2.377018128778164 -4.673177140463959 -2.757712136772990 17.000000000000000
2.390558184111899 -4.663570113666568 -2.872093550581460 17.000000000000000
2.400516899241267 -4.645185648851651 -2.983315086302444 23.000000000000000
2.386457253924768 -4.578579392384493 -3.064220703999941 24.000000000000000
2.636390328859624 -5.902634052235529 -1.247963653030411 1.000000000000000
2.296900639787403 -5.107627533899379 -1.183454446059143 23.000000000000000
2.260736275410931 -4.993471440277706 -1.258447642205269 78.000000000000000
2.274034188647373 -4.987861640184978 -1.360113512628305 77.000000000000000
2.287985007256825 -4.984188772653296 -1.462861198174602 78.000000000000000
2.308139915732885 -4.992669442693110 -1.569758569143375 75.000000000000000
2.325916367012001 -4.995643918124417 -1.676679724029672 75.000000000000000
2.341104201178255 -4.993393651647152 -1.782937732764511 78.000000000000000
2.251004672454758 -4.766578383498694 -1.805517232969496 37.000000000000000
2.242440174113051 -4.714373699947983 -1.889668405504675 12.000000000000000
2.254196823737832 -4.704980452621232 -1.990681195044143 14.000000000000000
2.286135055791958 -4.737190763034314 -2.111595174578090 34.000000000000000
2.246332319245035 -4.621178392578110 -2.165750995725134 39.000000000000000
2.236339933094686 -4.567513883573158 -2.247265143905476 47.000000000000000
2.251490931167460 -4.564892253894781 -2.354190157400653 14.000000000000000
2.337528494091373 -4.705440741348445 -2.540410196989675 17.000000000000000
2.351145059188036 -4.696932044543477 -2.651867696472871 15.000000000000000
2.360016513601453 -4.680266159695630 -2.760291058916862 17.000000000000000
2.371831544180211 -4.667590004562665 -2.872769164993667 17.000000000000000
2.380104413437446 -4.646195975031087 -2.981964108224730 27.000000000000000
2.366125712335436 -4.579636667307281 -3.062742742849911 23.000000000000000
2.034360757375642 -4.592424312965416 -0.971839101155191 0.000000000000000
2.272961588546073 -5.096355705583390 -1.181702221019210 23.000000000000000
2.241785642244204 -4.992868740323935 -1.259013453511842 77.000000000000000
2.258147564425956 -4.994425636882812 -1.362492618301047 75.000000000000000
2.271962007265193 -4.990809116759671 -1.465260726837404 79.000000000000000
2.288735123642080 -4.992372004491249 -1.569986402036368 79.000000000000000
2.304744591387934 -4.991984633101336 -1.675632952453546 75.000000000000000
2.321390081352249 -4.993314827472845 -1.782946752973634 79.000000000000000
2.236705549375777 -4.776580654965414 -1.809199141057110 25.000000000000000
2.236187289594142 -4.741347451496931 -1.900228078426680 9.000000000000000
2.244614305140614 -4.725096905864929 -1.998791097474619 11.000000000000000
2.266672945576731 -4.737220754210610 -2.111050279758102 32.000000000000000
2.227121162518516 -4.621162889465965 -2.165042465284395 39.000000000000000
2.218764979806883 -4.570833303528370 -2.248043788661264 48.000000000000000
2.233773669548130 -4.568302068970246 -2.354928321600395 14.000000000000000
2.325518839568776 -4.722072211011320 -2.548156227707664 15.000000000000000
2.334228190092313 -4.703930802997957 -2.654405725804811 13.000000000000000
2.346155564584919 -4.693638006052505 -2.766575561033295 16.000000000000000
2.356258584034763 -4.677815053950416 -2.877267420000677 16.000000000000000
2.359714081500492 -4.647139539875760 -2.980580404970079 30.000000000000000
2.347383352554167 -4.583687264990991 -3.063277077397826 22.000000000000000
2.037508067081665 -4.637801763086516 -0.982321578144729 5.000000000000000
2.249112520098186 -5.084993840200979 -1.179909537657736 20.000000000000000
2.224443914847813 -4.995764764245909 -1.260447416600775 74.000000000000000
2.237475321407524 -4.990320382675325 -1.361948113676692 76.000000000000000
2.254327373443305 -4.993863305339562 -1.466601984495874 78.000000000000000
2.269353620243644 -4.992011087053335 -1.570183254599174 77.000000000000000
2.286803730210836 -4.995209151989468 -1.676887064585590 76.000000000000000
2.303291950287746 -4.996627050321425 -1.784158152108689 78.000000000000000
2.246258231541106 -4.838016505895770 -1.832353744753970 8.000000000000000
2.234553372696105 -4.778551461649539 -1.914878887277080 6.000000000000000
2.239693633675300 -4.755346036842123 -2.011178882437924 8.000000000000000
2.250415402630360 -4.743891993010089 -2.113461443759691 31.000000000000000
2.207934157387136 -4.621084149232206 -2.164303130884859 38.000000000000000
2.199605366054884 -4.570803552187639 -2.247174919967605 49.000000000000000
2.214474533090773 -4.568392296124308 -2.353956323087681 14.000000000000000
2.321312797302576 -4.754858534362650 -2.564610538713033 8.000000000000000
2.325164804945252 -4.726895213335107 -2.665949412872187 10.000000000000000
2.332225337679236 -4.706981578882394 -2.772841392930503 13.000000000000000
2.342204858998449 -4.691137817955967 -2.883670988761961 15.000000000000000
2.344027981395279 -4.657318698013302 -2.985126357052855 28.000000000000000
2.327084941535433 -4.584616274673332 -3.061735666069077 23.000000000000000
1.980794750496791 -4.546449936400105 -0.963820072530054 45.000000000000000
2.058766597863655 -4.693743264211721 -1.089887271779981 6.000000000000000
2.181915318170734 -4.941562542111759 -1.247453881604389 35.000000000000000
2.218425977806269 -4.989689866291218 -1.362338144230364 75.000000000000000
2.233536760215641 -4.989811096559073 -1.465844044031068 79.000000000000000
2.251575710762056 -4.995092141143188 -1.571451978329565 78.000000000000000
2.267282462104326 -4.994895917802116 -1.676943948782400 73.000000000000000
2.285194348385846 -4.999884251785200 -1.785341496424630 79.000000000000000
2.298127392709695 -4.992325849063950 -1.890671072303496 74.000000000000000
2.281709401024911 -4.921524456368073 -1.971898383448165 12.000000000000000
2.244072374541714 -4.805922839954975 -2.032152758583326 5.000000000000000
2.234135861853120 -4.750518188095564 -2.115848268509597 31.000000000000000
2.190348480227331 -4.624271507284878 -2.165091813775817 39.000000000000000
2.182044567695151 -4.574010889415259 -2.247897214754872 49.000000000000000
2.193628321408352 -4.565148883307303 -2.351269117041529 14.000000000000000
2.421928031445829 -5.004705861633393 -2.698070393638624 11.000000000000000
2.364440465759751 -4.849282755125630 -2.733529228802756 9.000000000000000
2.326020883854895 -4.736168496125976 -2.788433041006132 9.000000000000000
2.331190063838295 -4.710712669942941 -2.893914136165870 12.000000000000000
2.320550035054990 -4.651932296017692 -2.979704255135710 24.000000000000000
2.306809211816337 -4.585478945195238 -3.060161777333096 20.000000000000000
1.965150935810868 -4.548525178342567 -0.965093001459129 55.000000000000000
2.031605243542859 -4.670961078189104 -1.085341762050850 9.000000000000000
2.052220143322087 -4.687249243381419 -1.183888091739829 7.000000000000000
2.143045780169296 -4.861165129066703 -1.327781748648657 20.000000000000000
2.214359798062678 -4.989217910330733 -1.466089808967667 75.000000000000000
2.232230166184183 -4.994609222184025 -1.571588751185130 79.000000000000000
2.250924263191418 -5.001494532579980 -1.679311883465587 73.000000000000000
2.265527472584513 -4.999621719153362 -1.785259627150855 77.000000000000000
2.264199364348384 -4.961201252097145 -1.878751546818815 74.000000000000000
2.294960436469022 -4.993103336160090 -2.000294895626366 77.000000000000000
2.295195144754176 -4.958248495431048 -2.096128599359450 41.000000000000000
2.213132361336762 -4.747013551226615 -2.113719824308524 32.000000000000000
2.171198999926551 -4.624071328660157 -2.164292782915712 42.000000000000000
2.161359795318479 -4.570554986045115 -2.245345174960635 49.000000000000000
2.174389567393542 -4.565107623063882 -2.350233690307021 16.000000000000000
2.394748785485439 -4.992445266392330 -2.690168120488537 5.000000000000000
2.438563345771784 -5.045831579097844 -2.842824033252372 9.000000000000000
2.454260280771520 -5.041949241015701 -2.966764285420819 35.000000000000000
2.327772852536658 -4.746002677604491 -2.913799603810177 7.000000000000000
2.298678649716216 -4.649570872729650 -2.976233721467937 20.000000000000000
2.285023881281023 -4.583201487249411 -3.056505519257276 23.000000000000000
1.949510752527825 -4.550552451245822 -0.966341665374642 43.000000000000000
1.968973396728788 -4.565450102975270 -1.061539033770024 24.000000000000000
2.018805054859038 -4.650272293184648 -1.175163711877959 10.000000000000000
2.043638608859608 -4.675365955816375 -1.277534506607006 8.000000000000000
2.090969617560015 -4.751684954126285 -1.396678973555058 8.000000000000000
2.198893042218671 -4.962432925533404 -1.561740326835515 48.000000000000000
2.226753033281363 -4.990586002920347 -1.675791835589302 77.000000000000000
2.245884448732461 -4.999295058759076 -1.785146480938967 77.000000000000000
2.151007953631221 -4.754229643805452 -1.800240338781661 38.000000000000000
2.240748109648027 -4.917757287305629 -1.969826178184556 39.000000000000000
2.289242386929248 -4.988752003247599 -2.108583112893476 72.000000000000000
2.195288075846626 -4.750169079445427 -2.114554322008825 34.000000000000000
2.152074408669591 -4.623808262156955 -2.163463171481897 42.000000000000000
2.145376836428707 -4.576955306349071 -2.247634835421055 50.000000000000000
2.155175624334491 -4.565003173220678 -2.349167524200770 16.000000000000000
2.372318018751376 -4.989825415143744 -2.687468240611060 62.000000000000000
2.394207424318761 -4.998425148600109 -2.814635472521958 6.000000000000000
2.425178521115174 -5.027002309350020 -2.956283633637204 9.000000000000000
2.363931899357655 -4.863221600889552 -2.983936600506214 33.000000000000000
2.286009776884302 -4.665822107809257 -2.984682120137380 21.000000000000000
2.263284795761893 -4.580848702158682 -3.052813636828189 23.000000000000000
1.935409204900310 -4.556144912768528 -0.968334004071220 52.000000000000000
1.940853067813340 -4.538744737286720 -1.056025368498148 33.000000000000000
1.999505330477924 -4.645356674502578 -1.174522796732665 15.000000000000000
2.017944579188642 -4.656354160497173 -1.272827406738182 10.000000000000000
2.037081237502677 -4.669244842749289 -1.372817770235265 8.000000000000000
2.063757035389752 -4.697858500075004 -1.478726618463445 6.000000000000000
2.162457234692118 -4.888667273890570 -1.641698813217294 25.000000000000000
2.224718438557126 -4.995430521897515 -1.783761690932582 75.000000000000000
2.130505203408836 -4.750176177854660 -1.798565499944323 39.000000000000000
2.106636807658336 -4.664074788134642 -1.867937828544057 6.000000000000000
2.193451120795599 -4.822172159213573 -2.037744794518203 11.000000000000000
2.178989710201938 -4.756641404589962 -2.116861448223411 36.000000000000000
2.134517237341028 -4.626825518429367 -2.164166764716814 42.000000000000000
2.124753778627838 -4.573369223679953 -2.245020116636762 51.000000000000000
2.139060105203640 -4.571403771110769 -2.351449218631019 16.000000000000000
2.354531966786447 -4.996888197669680 -2.689985791295228 70.000000000000000
2.370099450031792 -4.992686184317230 -2.809931184546492 70.000000000000000
2.388613013341345 -4.995998957714036 -2.936383198258812 16.000000000000000
2.346076689417893 -4.870311519417829 -2.986463773628599 32.000000000000000
2.264161919158568 -4.663337337719864 -2.981150059701795 14.000000000000000
2.249139710583938 -4.593836367472434 -3.059352544438458 17.000000000000000
1.922812883727663 -4.565315812496773 -0.971074737771427 23.000000000000000
1.970930027512355 -4.648754127197682 -1.082319680830325 24.000000000000000
1.977195932304589 -4.633207112783725 -1.172037582728680 15.000000000000000
1.996984185564017 -4.647931720878212 -1.270999953053233 15.000000000000000
2.014402663735323 -4.657427840689906 -1.369702090639638 12.000000000000000
2.031633336552487 -4.665097770389333 -1.468654070404966 9.000000000000000
2.052789071565772 -4.681381614757096 -1.572204568328937 21.000000000000000
2.111463177315038 -4.782789528058215 -1.707819539980545 8.000000000000000
2.111586492909017 -4.749505754378887 -1.798165056963915 30.000000000000000
2.072508905664955 -4.629110451924011 -1.853656726534698 7.000000000000000
2.091144729761886 -4.638067209528812 -1.959528075604609 6.000000000000000
2.159604608046757 -4.756317217739205 -2.116140463471367 37.000000000000000
2.115431594192588 -4.626441623119208 -2.163277855052813 41.000000000000000
2.107235511465917 -4.576348598654791 -2.245628643121407 51.000000000000000
2.118348262130474 -4.567893839880704 -2.348634179243057 16.000000000000000
2.332158767362183 -4.994128436672661 -2.687218011593622 71.000000000000000
2.350613220665421 -4.996537786100156 -2.810630470002469 71.000000000000000
2.365916356034234 -4.993570824860467 -2.933296134615809 67.000000000000000
2.317642851788422 -4.855239601266990 -2.975413252952064 24.000000000000000
2.252881309426492 -4.682644185236461 -2.991552312781433 12.000000000000000
2.248407438812988 -4.634583644385027 -3.084366131361388 13.000000000000000
1.938911701907514 -4.643272366125033 -0.988446835285415 40.000000000000000
1.950326951846980 -4.640004490581674 -1.080965821976423 31.000000000000000
1.948909322766104 -4.606621939483480 -1.165882823573973 14.000000000000000
1.979135604297168 -4.646570311146176 -1.271090320700388 20.000000000000000
1.993340280280396 -4.649073676402913 -1.367592219336295 16.000000000000000
2.011925724034489 -4.660420230883484 -1.467410696615036 12.000000000000000
2.023742124132385 -4.655811517740417 -1.563723417452021 48.000000000000000
2.046882700213365 -4.677506685107138 -1.670205503028077 8.000000000000000
2.075927432969755 -4.710727882968562 -1.783331743020953 7.000000000000000
2.047779655834546 -4.614595261527381 -1.847561921408643 10.000000000000000
2.008384314601942 -4.494299253039503 -1.898378958213942 6.000000000000000
2.134160135432032 -4.742408934261377 -2.109374792816725 29.000000000000000
2.097890681743719 -4.629347366565661 -2.163925517924416 41.000000000000000
2.086686765708042 -4.572628323638630 -2.242949967270041 50.000000000000000
2.102225608971357 -4.574191437926833 -2.350862858225009 16.000000000000000
2.311341859566863 -4.994554387243987 -2.686168513156954 73.000000000000000
2.326609248800652 -4.990639948054196 -2.805851441591462 74.000000000000000
2.343265806980436 -4.991065171116887 -2.930172318397042 68.000000000000000
2.308800164458060 -4.881179383229425 -2.989500565200556 33.000000000000000
2.256399060293793 -4.733222986066010 -3.021914533020690 10.000000000000000
1.923018444405318 -4.645212344114389 -0.989635458421054 60.000000000000000
1.937316103471126 -4.649227890393013 -1.083785190166016 46.000000000000000
1.946418613616309 -4.640982938488011 -1.175140819319604 39.000000000000000
1.959804824209051 -4.641577063012386 -1.270174562461493 32.000000000000000
1.975370441404969 -4.647749333063843 -1.367538575773325 22.000000000000000
1.990755812386580 -4.652141769410436 -1.465022952979160 16.000000000000000
2.005469135937423 -4.654691218217647 -1.563444660948998 52.000000000000000
2.022346329664648 -4.662565587474045 -1.664842774977484 12.000000000000000
2.040548044198712 -4.671789962836850 -1.768433833213349 8.000000000000000
2.023169140962245 -4.599983147811307 -1.841424901240903 13.000000000000000
1.987065791202441 -4.486566496246226 -1.894700666647340 7.000000000000000
2.098267059225734 -4.704708745761275 -2.092030345316615 25.000000000000000
2.080352421635961 -4.632199701357095 -2.164546079098485 41.000000000000000
2.070701798406118 -4.578819589182086 -2.245132787119743 51.000000000000000
2.080074825201911 -4.567253715345943 -2.346291162924992 16.000000000000000
2.293544749710496 -5.001446559718465 -2.688598294903080 72.000000000000000
2.307158000342848 -4.994360318401964 -2.806485875864303 75.000000000000000
2.322151192899781 -4.991684065855957 -2.928890579040784 69.000000000000000
2.299795298438185 -4.907123709414349 -3.003580277899224 25.000000000000000
2.255130587891392 -4.774480849144185 -3.046298516677584 10.000000000000000
1.910109279764488 -4.654364897274202 -0.992347692282955 83.000000000000000
1.919785731394468 -4.647577768757158 -1.084057022895215 64.000000000000000
1.931766583787639 -4.646601670796695 -1.177112899730007 50.000000000000000
1.943518186432508 -4.643671686543061 -1.271186188803364 39.000000000000000
1.955928524147724 -4.642808304578592 -1.366409402544263 32.000000000000000
1.969658392127693 -4.643786196693178 -1.462600279544228 22.000000000000000
1.987222758479644 -4.653510997488690 -1.563136943595276 44.000000000000000
2.002431853155344 -4.658003819343391 -1.663178611109234 16.000000000000000
2.015956647537645 -4.656966274012546 -1.762659331226114 13.000000000000000
2.003179306193485 -4.595601823209025 -1.839379392555020 19.000000000000000
1.968819566807700 -4.485588354131921 -1.893871862252358 5.000000000000000
2.034194420555428 -4.602453840252354 -2.045995040983124 12.000000000000000
2.062817016496557 -4.634998662720053 -2.165139568950595 41.000000000000000
2.051710021158490 -4.578302340376784 -2.244025327214088 51.000000000000000
2.060977047014107 -4.566839730060787 -2.345074090859246 17.000000000000000
2.271265714464420 -4.998475628041356 -2.685728476628829 72.000000000000000
2.284741914116624 -4.991543646115046 -2.803451874886963 73.000000000000000
2.301060047413559 -4.992234812725072 -2.927575487124622 70.000000000000000
2.286208945766519 -4.923554751682091 -3.011830218237054 29.000000000000000
2.259456878272192 -4.828337468096849 -3.078692564937360 9.000000000000000
1.895680794133471 -4.659851253628455 -0.994265870283603 86.000000000000000
1.903763809588128 -4.649488398604046 -1.085145607072562 77.000000000000000
1.914128474058161 -4.644978258601911 -1.177237937680964 66.000000000000000
1.928721651243646 -4.649298525704666 -1.273153569254079 51.000000000000000
1.939511149941687 -4.644923846925484 -1.367345953120441 44.000000000000000
1.954588358192682 -4.649518401640641 -1.464604718967781 34.000000000000000
1.967513816876104 -4.648751873280362 -1.561618199520601 46.000000000000000
1.981077685039194 -4.649876824466779 -1.660233936265154 21.000000000000000
1.994463463170037 -4.648990518284668 -1.759471129339446 17.000000000000000
1.983239499262447 -4.591151081929536 -1.837301508044472 26.000000000000000
1.953576310777887 -4.491391673903152 -1.895902009482797 7.000000000000000
2.013948411822022 -4.598284353664275 -2.043573536079840 13.000000000000000
2.042316185866995 -4.631013162713264 -2.162562758331462 41.000000000000000
2.034226247395216 -4.581059504858589 -2.244522529927724 51.000000000000000
2.041905559004161 -4.566363305725100 -2.343826753033432 17.000000000000000
2.251983697721514 -5.001980044121837 -2.686341203831603 73.000000000000000
2.265315059342207 -4.995137720549123 -2.804023329907355 72.000000000000000
2.279992637695468 -4.992717536441683 -2.926227122655065 69.000000000000000
2.295913016036161 -4.990791650931452 -3.051137184688466 65.000000000000000
1.881234315274225 -4.665297598173537 -0.996162522639227 68.000000000000000
1.889216604036370 -4.654972717265703 -1.087055483655383 73.000000000000000
1.900934900843517 -4.654112152619989 -1.180077359154886 73.000000000000000
1.912432157603210 -4.651298134975694 -1.274116518273257 64.000000000000000
1.924573965239024 -4.650555725938359 -1.369307303809516 55.000000000000000
1.936545221877304 -4.648117865635601 -1.464352727584214 46.000000000000000
1.947855011318149 -4.643924400731752 -1.560067631601599 57.000000000000000
1.964230679939305 -4.652173783897677 -1.661003588316516 28.000000000000000
1.975999413533479 -4.647889435339967 -1.758878652599567 22.000000000000000
1.961872689683056 -4.583179965247920 -1.833810501558393 31.000000000000000
1.933885275357781 -4.486877431176908 -1.893572987595057 7.000000000000000
1.992277856063121 -4.590646760626845 -2.039609586020519 18.000000000000000
2.026282990959229 -4.637066647915050 -2.164672294677235 41.000000000000000
2.015275876966406 -4.580422553327411 -2.243356497012206 53.000000000000000
2.024327511763049 -4.569135543335613 -2.344247962939582 18.000000000000000
2.228313455613880 -4.995585982061900 -2.681642004324357 73.000000000000000
2.244429793220018 -4.995425191685802 -2.802742595668969 73.000000000000000
2.260403801526276 -4.996347515411621 -2.926728917970657 70.000000000000000
2.277605870533117 -4.997702369478668 -3.053545238672644 67.000000000000000
1.866769985767662 -4.670703877156226 -0.998037630630632 53.000000000000000
1.876110296078379 -4.664043474428795 -1.089791092635130 64.000000000000000
1.884778303609225 -4.655995283629961 -1.181066748773959 68.000000000000000
1.896147211710876 -4.653248113228047 -1.275054409921668 66.000000000000000
1.908153890431504 -4.652575514272430 -1.370194808931836 64.000000000000000
1.922926394178682 -4.657307606020876 -1.467427662772877 56.000000000000000
1.931179315137452 -4.646084367839193 -1.560855694709001 77.000000000000000
1.945921405973258 -4.650914631625524 -1.660496001532876 39.000000000000000
1.956096229614777 -4.643247295506573 -1.756939979981601 28.000000000000000
1.949373879460161 -4.595864422954327 -1.838578713001199 39.000000000000000
1.918639016088386 -4.492583086362290 -1.895553095556777 7.000000000000000
1.973607046003356 -4.589735178991655 -2.038632437368822 20.000000000000000
2.005847184491773 -4.632952682984917 -2.162033882641362 44.000000000000000
1.994894137495532 -4.576378411990394 -2.240522709202976 54.000000000000000
2.008208108985567 -4.575169694613683 -2.346342357051320 17.000000000000000
2.211971754224296 -5.005529866762457 -2.685715493395179 71.000000000000000
2.223569015830896 -4.995645345378966 -2.801428995179121 74.000000000000000
2.237930090786318 -4.993479417519977 -2.923430898030169 70.000000000000000
2.254961732604234 -4.995005545289851 -3.050090357188479 69.000000000000000
1.852287948370877 -4.676070037218730 -0.999891175751260 42.000000000000000
1.864410983524158 -4.676713231713925 -1.093356772890890 48.000000000000000
1.872975524732744 -4.668669773268544 -1.184782356351049 53.000000000000000
1.882770271442031 -4.662337919361657 -1.277937882158797 56.000000000000000
1.893191418676034 -4.658120229901009 -1.372110118043882 61.000000000000000
1.904903677526166 -4.655801906050371 -1.467123236461420 61.000000000000000
1.914508096109237 -4.648193582994200 -1.561618123916257 90.000000000000000
1.927639632262324 -4.649595651342328 -1.659959555877818 49.000000000000000
1.939153166929861 -4.645506319809155 -1.757606334706122 40.000000000000000
1.930993378834381 -4.594683934620818 -1.837794360595097 45.000000000000000
1.901921109285081 -4.494812678497971 -1.896061992464829 7.000000000000000
1.952060912612117 -4.581949301365898 -2.034600401347769 21.000000000000000
1.988360262586543 -4.635525511202149 -2.162514901951157 43.000000000000000
1.978902607172762 -4.582312777335372 -2.242573985846140 54.000000000000000
1.986294826613967 -4.567880415010858 -2.341605725976688 18.000000000000000
2.188386204804616 -4.998989037811386 -2.680946552705302 70.000000000000000
2.204168931330052 -4.999055022932116 -2.801907957063635 75.000000000000000
2.219797893091556 -5.000206548139649 -2.925755934757315 70.000000000000000
2.235218077517925 -4.998611725015615 -3.050492578006623 69.000000000000000
1.843522475020459 -4.696002565260057 -1.004848640923304 31.000000000000000
1.849776196841942 -4.682088875747760 -1.095205816819852 36.000000000000000
1.858232750339701 -4.674084819941438 -1.186644909633022 43.000000000000000
1.869352432674773 -4.671395009003201 -1.280802151900479 47.000000000000000
1.879652248476875 -4.667202584095511 -1.375057621995536 54.000000000000000
1.892679121960490 -4.668470469077146 -1.471276051816751 57.000000000000000
1.899284772102559 -4.653788399998747 -1.563543054250962 72.000000000000000
1.910828819289056 -4.651730371031348 -1.660648601781531 54.000000000000000
1.923657654282892 -4.651203108593226 -1.759566671578987 51.000000000000000
1.914083094373204 -4.596907531358371 -1.838366409608101 48.000000000000000
1.898179611135278 -4.527933946894436 -1.909594809490041 6.000000000000000
1.936347774937762 -4.587729186752925 -2.036589846657622 32.000000000000000
1.969439700222444 -4.634662283363987 -2.161391400545269 44.000000000000000
1.960021925152351 -4.581494885522632 -2.241319849296846 54.000000000000000
1.970182886706086 -4.573807858745988 -2.343646104727398 18.000000000000000
2.167728726739604 -4.998950530958092 -2.679669710300450 70.000000000000000
2.183346211537221 -4.999145234030681 -2.800530351493160 74.000000000000000
2.197385175095549 -4.997198888382879 -2.922390402087857 70.000000000000000
2.214060831485833 -4.998964265063691 -3.048916350295050 68.000000000000000
1.830382364404197 -4.704960579261553 -1.007447441642933 24.000000000000000
1.837973397035398 -4.694702528881030 -1.098736527611702 24.000000000000000
1.849179607307145 -4.693946456606881 -1.192165023152035 33.000000000000000
1.855893800640976 -4.680419232984137 -1.283647149435771 38.000000000000000
1.864642114626280 -4.672668427967597 -1.376929753704544 45.000000000000000
1.876097084388418 -4.670426465099626 -1.472043601272154 50.000000000000000
1.886906433581557 -4.666422050397828 -1.567824402944880 59.000000000000000
1.895454366246943 -4.657331619565742 -1.662567571820325 55.000000000000000
1.906712040110037 -4.653363394447813 -1.760182466482540 55.000000000000000
1.898608278522412 -4.602548102674511 -1.840299314593530 55.000000000000000
1.904240112989303 -4.585177261952131 -1.933288149386852 24.000000000000000
1.922043695707504 -4.596880697773813 -2.040071538506820 39.000000000000000
1.950546663372355 -4.633737464034960 -2.160238141595928 45.000000000000000
1.942591990412593 -4.583973707353996 -2.241678257259971 56.000000000000000
1.949791268389782 -4.569705815318780 -2.340548391115357 19.000000000000000
2.149929311875593 -5.005440322630180 -2.681893944682753 69.000000000000000
2.165373769417138 -5.005699073904156 -2.802776698246811 74.000000000000000
2.176428708497673 -4.997347669044375 -2.920878352743210 72.000000000000000
2.192928373415622 -4.999248883768822 -3.047306966356507 68.000000000000000
1.821434860810406 -4.724865923274875 -1.012379896531158 17.000000000000000
1.828934391090336 -4.714578801777791 -1.103957297595567 8.000000000000000
1.835771197882848 -4.702922163664336 -1.194910553781551 24.000000000000000
1.843811707725385 -4.693017681179371 -1.287462399681089 28.000000000000000
1.852450944864540 -4.685267615856739 -1.380894226461456 36.000000000000000
1.860939611557396 -4.675898743206115 -1.473910005875560 41.000000000000000
1.871623464911444 -4.671940723049540 -1.569706815269727 47.000000000000000
1.881481588616272 -4.666412033272458 -1.665720795159859 52.000000000000000
1.891191060907628 -4.658969944574251 -1.762095180941396 53.000000000000000
1.880276868968470 -4.601200532188194 -1.839432673030791 54.000000000000000
1.891498542995907 -4.597699511530643 -1.938114667277263 53.000000000000000
1.904864928936849 -4.599158129898845 -2.040498492695294 48.000000000000000
1.933095509567157 -4.636142662630662 -2.160635777410706 46.000000000000000
1.923755024382466 -4.583037175787673 -2.240366231559330 56.000000000000000
1.930859199944708 -4.568866067120299 -2.339124111864433 19.000000000000000
2.127895026834503 -5.001975828989346 -2.678787143649030 69.000000000000000
2.143177592002879 -5.002394434590397 -2.799507051235229 72.000000000000000
2.156893599698673 -5.000665836962066 -2.921224261610083 69.000000000000000
2.173212269227058 -5.002668442711857 -3.047615606531753 70.000000000000000
1.812379350653909 -4.744763263104374 -1.017301659498524 12.000000000000000
1.821188832089881 -4.738094432480524 -1.110021795627524 4.000000000000000
1.825130302507460 -4.719125123767737 -1.199482157054942 20.000000000000000
1.831666040615552 -4.705591191787682 -1.291261031482762 21.000000000000000
1.840195903533498 -4.697841616275535 -1.384841935026597 27.000000000000000
1.849987979118676 -4.692041387227447 -1.479130858869881 33.000000000000000
1.859139345746966 -4.684514739840352 -1.573951252521511 38.000000000000000
1.864650680003557 -4.668406096083010 -1.666336809776838 43.000000000000000
1.877059912816099 -4.668035330961762 -1.765309103979110 46.000000000000000
1.836640950483552 -4.537211008714591 -1.813523168147017 51.000000000000000
1.809787635019173 -4.441108808814094 -1.871663769058310 47.000000000000000
1.887690999339710 -4.601383426475891 -2.040899128708924 53.000000000000000
1.915648891505698 -4.638494954309945 -2.161006682848103 46.000000000000000
1.904946130788437 -4.582039378327889 -2.239024647976600 55.000000000000000
1.913351711952274 -4.571301480115564 -2.339377695940217 19.000000000000000
2.107303019226641 -5.001742472711643 -2.677414839323689 70.000000000000000
2.121030675155190 -4.999014607965020 -2.796202035691101 74.000000000000000
2.134591968152530 -4.997443491936441 -2.917755931259641 69.000000000000000
2.152118442959943 -5.002821810657582 -3.045941584843753 69.000000000000000
1.804603975969340 -4.768320107751629 -1.022999433004316 9.000000000000000
1.810530726605988 -4.754306507972164 -1.114366239738588 8.000000000000000
1.814403274858409 -4.735311254072005 -1.204039901017442 15.000000000000000
1.819456866149937 -4.718139520663390 -1.295042924297907 16.000000000000000
1.826481732283521 -4.706794466295809 -1.387712626476297 19.000000000000000
1.836156453082363 -4.701016744499702 -1.482083347095372 24.000000000000000
1.845194041953655 -4.693509790615724 -1.576984715503950 29.000000000000000
1.854808523483327 -4.687999695776647 -1.673226880495191 36.000000000000000
1.862887242684782 -4.677065885561811 -1.768502706573051 35.000000000000000
1.790663669527899 -4.466050482316167 -1.784752283101613 55.000000000000000
1.798884561920918 -4.456828923205771 -1.877841921504332 32.000000000000000
1.873307691449865 -4.610412260928925 -2.044313351086622 55.000000000000000
1.898207008836968 -4.640794380007490 -2.161350891015411 44.000000000000000
1.887553457253255 -4.584351300390951 -2.239300136340614 56.000000000000000
1.894464067010710 -4.570342937638295 -2.337895491929653 19.000000000000000
2.088118287389288 -5.004753016771026 -2.677781406125554 68.000000000000000
2.101687826049688 -5.002115676602844 -2.796526960306052 75.000000000000000
2.115084758823008 -5.000635855058838 -2.918039326002064 70.000000000000000
2.131050183349338 -5.002907613905945 -3.044234636615365 70.000000000000000
1.802204932735826 -4.806563825980039 -1.031841832454370 4.000000000000000
1.803924334927022 -4.781468191178194 -1.121268447165629 7.000000000000000
1.806352148718851 -4.758756602430598 -1.210434431781409 11.000000000000000
1.812715038023744 -4.745140350063599 -1.302782886409271 11.000000000000000
1.816878238880174 -4.726512855175195 -1.393748074419225 14.000000000000000
1.825053534168412 -4.717115987570360 -1.487272791799636 16.000000000000000
1.833978072267850 -4.709584620922838 -1.582388425389859 21.000000000000000
1.842085125706820 -4.700514845027238 -1.677582362010355 26.000000000000000
1.852827485214537 -4.696591931832886 -1.775657212379634 20.000000000000000
1.829606303457734 -4.607255180910101 -1.840837981008856 39.000000000000000
1.800338337639027 -4.503663254108043 -1.897119701975629 51.000000000000000
1.858882607162097 -4.619405583444989 -2.047706890262252 50.000000000000000
1.879391197250378 -4.639636992273219 -2.160083634405785 39.000000000000000
1.870165790376309 -4.586610520675538 -2.239549027847935 57.000000000000000
1.876977928073482 -4.572668124129626 -2.338094113609166 19.000000000000000
2.067567247034770 -5.004391695816503 -2.676346284364542 65.000000000000000
2.080982249748845 -5.001876526553143 -2.794988388052250 75.000000000000000
2.095580096391933 -5.003769606831842 -2.918292956738903 69.000000000000000
2.110007753223386 -5.002925983822103 -3.042494844980816 70.000000000000000
1.876045767409039 -5.050688346028868 -1.084903456476573 0.000000000000000
1.835459312160617 -4.911103515797788 -1.152204569736415 6.000000000000000
1.813233610887154 -4.822264578513956 -1.227014346761581 7.000000000000000
1.807188706726497 -4.775771144400929 -1.311511705852317 7.000000000000000
1.808536963342435 -4.749825292118175 -1.400834660685772 10.000000000000000
1.815236540494039 -4.736780199310753 -1.493577465507835 11.000000000000000
1.822674590249561 -4.725641137280422 -1.587777433931340 15.000000000000000
1.830670598292950 -4.716541559571494 -1.683182960162271 20.000000000000000
1.844029259333424 -4.719621558369132 -1.784127920441680 10.000000000000000
1.804493797578124 -4.588236024470573 -1.832891791201144 38.000000000000000
1.806976764324910 -4.564406395090887 -1.922241720919429 39.000000000000000
1.848523692348255 -4.638671399993759 -2.055647781529487 36.000000000000000
1.860604074836310 -4.638418608287350 -2.158786995281417 38.000000000000000
1.851418981743236 -4.585437982089966 -2.238122040114781 57.000000000000000
1.859496887735872 -4.574940365249224 -2.338266019706463 19.000000000000000
2.045685497499250 -5.000646209587685 -2.673105372382010 63.000000000000000
2.060303223086391 -5.001571040384158 -2.793417576541390 73.000000000000000
2.073380243182768 -5.000338161353233 -2.914724110322268 71.000000000000000
2.087647147371480 -4.999657697998100 -3.038765586701294 72.000000000000000
2.007962743003452 -5.457195645746295 -1.172913171022362 0.000000000000000
1.870267080266008 -5.051956519599190 -1.185787659133161 25.000000000000000
1.864544130386383 -5.006181198266287 -1.274240556553906 67.000000000000000
1.831394950718545 -4.886220385734949 -1.342157545339158 11.000000000000000
1.808226081059450 -4.794782398440021 -1.414297066173208 5.000000000000000
1.809393557705022 -4.767195185622582 -1.503263455124359 7.000000000000000
1.814007363588716 -4.748809340107026 -1.595547284212600 9.000000000000000
1.821891587568597 -4.739634028827569 -1.691296637472720 13.000000000000000
1.832373358079168 -4.735611607692896 -1.789929210244352 12.000000000000000
1.790412052629134 -4.597062713082013 -1.836065111533729 24.000000000000000
1.795551340242626 -4.580163579187885 -1.928406848264578 32.000000000000000
1.843482553800457 -4.671686306794023 -2.069672226403631 26.000000000000000
1.844556470503419 -4.643963709367446 -2.160636131606180 39.000000000000000
1.834053723964554 -4.587587849147658 -2.238316479849204 57.000000000000000
1.840671679358626 -4.573806473117514 -2.336698122410215 20.000000000000000
2.022508718231273 -4.993504454900138 -2.668054674022059 60.000000000000000
2.040992879705431 -5.004489615289109 -2.793651330330110 71.000000000000000
2.053904935377084 -5.003346642704459 -2.914915588721513 70.000000000000000
2.069333904286872 -5.005984381713064 -3.040875131045949 72.000000000000000
1.992375798147868 -5.466666500639833 -1.175624110733056 0.000000000000000
1.850417705418433 -5.046360427554995 -1.184996519269548 25.000000000000000
1.850077326094702 -5.015236572986611 -1.276962021536969 77.000000000000000
1.861653704601873 -5.015013821794652 -1.377845365543870 75.000000000000000
1.862951217838300 -4.987867327540871 -1.471451080670057 49.000000000000000
1.820918084384397 -4.844306689766288 -1.527666856826920 6.000000000000000
1.809256562660941 -4.782682012112681 -1.606904932309972 6.000000000000000
1.814327943272186 -4.766269601148919 -1.700665811800025 8.000000000000000
1.817930137581463 -4.744537451222317 -1.793052812613695 32.000000000000000
1.801915477081377 -4.672301989414030 -1.865752055652705 22.000000000000000
1.806944657527294 -4.654912736782314 -1.959396442166659 24.000000000000000
1.834197742340329 -4.694389184559760 -2.079118280878217 20.000000000000000
1.825803833913321 -4.642631839202789 -2.159283669573765 37.000000000000000
1.815353347608080 -4.586297954591618 -2.236832424442404 59.000000000000000
1.821875605604613 -4.572611628146408 -2.335100892005114 20.000000000000000
2.002074148266781 -4.992933740718655 -2.666519785344760 58.000000000000000
2.021685962985648 -5.007350217055165 -2.793855699713998 73.000000000000000
2.034432859326200 -5.006296685194717 -2.915077433054257 71.000000000000000
2.047038057229166 -5.002577819657227 -3.037079246665947 72.000000000000000
1.971422602949987 -5.461347663213172 -1.175138554424081 1.000000000000000
1.833286233176671 -5.048039700862597 -1.185899138105751 25.000000000000000
1.831565001769128 -5.013293842604791 -1.276870585453102 76.000000000000000
1.842995012254414 -5.013157769904598 -1.377633680936448 75.000000000000000
1.854931997621926 -5.014995817550311 -1.479644631035173 76.000000000000000
1.865413542176257 -5.011407789765362 -1.580443064885438 74.000000000000000
1.863195549877243 -4.973792462074519 -1.671081951050972 38.000000000000000
1.828017868081438 -4.849714199681467 -1.730294441817041 7.000000000000000
1.804783716674860 -4.756953695295386 -1.797488046369389 43.000000000000000
1.787528478016186 -4.681134708449701 -1.868909784240178 17.000000000000000
1.797814022114231 -4.677650284546775 -1.968478741914405 20.000000000000000
1.826110950242962 -4.720535810481675 -2.090080491120582 14.000000000000000
1.808412248012941 -4.644659552567508 -2.159492250965533 36.000000000000000
1.798011344150126 -4.588338773850031 -2.236972620013903 62.000000000000000
1.804434720163604 -4.574717263804327 -2.335190205726022 20.000000000000000
1.981667131090104 -4.992297646165134 -2.664953206653201 56.000000000000000
2.002382689956896 -5.010152883333508 -2.794030717187253 71.000000000000000
2.014964233709172 -5.009188325876923 -2.915209675610171 71.000000000000000
2.028719261166298 -5.008790742245471 -3.039130378869744 72.000000000000000
1.955798193946027 -5.470724491262807 -1.177799204132336 1.000000000000000
1.814838554697832 -5.045992238562649 -1.185912032466063 24.000000000000000
1.815728246450533 -5.018607388070898 -1.278614413903536 76.000000000000000
1.827014843354776 -5.018520270410646 -1.379393728287459 73.000000000000000
1.837475377423940 -5.016789275560630 -1.480353201766591 77.000000000000000
1.850475352276252 -5.020466089726741 -1.583370207033709 78.000000000000000
1.860174668361806 -5.015031674045566 -1.684895104006408 79.000000000000000
1.870357093112161 -5.011481718767285 -1.787852154599571 73.000000000000000
1.788920609054940 -4.762281344780875 -1.799237462829893 36.000000000000000
1.778401334864451 -4.703952408325985 -1.877643318726034 13.000000000000000
1.785900201797258 -4.693425215354487 -1.974623056964340 15.000000000000000
1.819186686498699 -4.750137553341439 -2.102562489915885 15.000000000000000
1.791026615531249 -4.646634723836789 -2.159674374921571 38.000000000000000
1.780675363875600 -4.590327174899730 -2.237086425658063 61.000000000000000
1.786999755300556 -4.576770194096627 -2.335252976656807 20.000000000000000
1.958667629382020 -4.984927509499008 -2.659796767170574 54.000000000000000
1.981776898409028 -5.009595348307824 -2.792335719634174 72.000000000000000
1.994197581388469 -5.008752181975568 -2.913410644921065 69.000000000000000
2.009083251924506 -5.011717349389779 -3.039192277014064 73.000000000000000
1.933591173556249 -5.461585612591365 -1.176457296241722 2.000000000000000
1.795109382820609 -5.040206609912923 -1.185031490340868 25.000000000000000
1.798562374656794 -5.020215240246662 -1.279401549969383 75.000000000000000
1.807077411458117 -5.012909089756452 -1.378125424928716 75.000000000000000
1.820024464451008 -5.018530200670087 -1.481035304698058 75.000000000000000
1.834181247339569 -5.025884209717129 -1.585139445734631 78.000000000000000
1.841120701906712 -5.013332159719604 -1.684272904648090 78.000000000000000
1.853796299806135 -5.016989960635929 -1.789651087140558 84.000000000000000
1.763839842548500 -4.742825913796503 -1.791618084653883 32.000000000000000
1.769139053191920 -4.726765618144504 -1.886366295711995 11.000000000000000
1.775210213145236 -4.712662752752060 -1.982216556778855 12.000000000000000
1.808148375433229 -4.769381291084919 -2.110450556792868 48.000000000000000
1.773647133887071 -4.648557398232549 -2.159830076601306 39.000000000000000
1.763345603770466 -4.592263203193668 -2.237173876625776 62.000000000000000
1.768268796513054 -4.575401243823612 -2.333570851998202 21.000000000000000
1.937041913259397 -4.980814823945004 -2.656384067834710 50.000000000000000
1.962493421016269 -5.012278311103448 -2.792450841914649 67.000000000000000
1.974748364981805 -5.011523187410890 -2.913482493004665 72.000000000000000
1.986880569042847 -5.008106356173942 -3.035297733272659 73.000000000000000
1.915347920229477 -5.463466482089832 -1.177472013915227 3.000000000000000
1.779328624632504 -5.045402679191521 -1.186718774761077 25.000000000000000
1.781402540275445 -5.021771447613934 -1.280162691781654 76.000000000000000
1.791097412583033 -5.018171317790324 -1.379834295828624 77.000000000000000
1.801277013954552 -5.016591311288383 -1.480620388386189 77.000000000000000
1.812657032246700 -5.016830536729621 -1.582334303863682 79.000000000000000
1.816882483190630 -4.997232320917881 -1.678804090133432 68.000000000000000
1.835914641492328 -5.018890189794843 -1.790154935176055 82.000000000000000
1.639912964687091 -4.454381615295462 -1.682398850917636 9.000000000000000
1.757138429536067 -4.742547798036370 -1.892275065308398 7.000000000000000
1.767008842733735 -4.738861269325882 -1.992729188771990 9.000000000000000
1.793102501640766 -4.778231129296620 -2.113732881333488 45.000000000000000
1.756274000204868 -4.650427621572983 -2.159959391450549 38.000000000000000
1.744728910702853 -4.590743832998594 -2.235577797336295 63.000000000000000
1.750858137256928 -4.577344984227090 -2.333579370531952 21.000000000000000
1.914181868083339 -4.973287145976185 -2.651155736573963 49.000000000000000
1.945779548929775 -5.021523822837226 -2.796223246388754 39.000000000000000
1.955303266235532 -5.014235939045195 -2.913524855675032 68.000000000000000
1.966002529074101 -5.007664259901139 -3.033332938499005 73.000000000000000
1.895824227836479 -5.461590026207306 -1.177660767276003 3.000000000000000
1.760956522410469 -5.043181847573297 -1.186647790410962 25.000000000000000
1.762960223378813 -5.019606751800167 -1.279962229156119 78.000000000000000
1.772520265142574 -5.016087726757890 -1.379511445087634 74.000000000000000
1.783849774034225 -5.018223497508505 -1.481248430457075 77.000000000000000
1.797666175063115 -5.025753283699125 -1.585189027977863 84.000000000000000
1.661022433770918 -4.614999000499907 -1.550330513114736 7.000000000000000
1.749604114310843 -4.831745893816072 -1.723228673385540 38.000000000000000
1.661201309204773 -4.558403067326683 -1.721416767108719 3.000000000000000
1.665084550644658 -4.540263762431493 -1.811185911704235 4.000000000000000
1.758648280828409 -4.765061745064852 -2.003233084306165 6.000000000000000
1.775442333534898 -4.780115616897009 -2.113929802379793 42.000000000000000
1.738907411312552 -4.652245440271467 -2.160062355200800 38.000000000000000
1.726142586826683 -4.589164422184457 -2.233952926115428 63.000000000000000
1.732175646018939 -4.575859171656764 -2.331840554691412 22.000000000000000
1.892672493998448 -4.969025358171509 -2.647674039663911 46.000000000000000
1.923939599952126 -5.017470919884550 -2.792593415420323 45.000000000000000
1.933330308379529 -5.010328160725353 -2.909726729530386 52.000000000000000
1.946413817421247 -5.010402927715787 -3.033301790671136 73.000000000000000
1.875054770727418 -5.455945151244189 -1.177020014013089 6.000000000000000
1.740062491755120 -5.033521691817692 -1.184811336368670 25.000000000000000
1.745824637035313 -5.021056060148139 -1.280670284487841 77.000000000000000
1.756529578574175 -5.021253621142375 -1.381170486130740 75.000000000000000
1.766428843964716 -5.019803317060067 -1.481850126444044 78.000000000000000
1.778795545845256 -5.023795654363044 -1.584602041297458 80.000000000000000
1.631830659687018 -4.580366892166246 -1.538625305671511 21.000000000000000
1.645357041708194 -4.590599114884758 -1.637050998509376 8.000000000000000
1.658791589454065 -4.598774478804976 -1.736383527867179 6.000000000000000
1.611470077522979 -4.439583696369755 -1.770648692478534 13.000000000000000
1.766723405313919 -4.836694919285484 -2.032822340214209 7.000000000000000
1.756513891846589 -4.778479254887461 -2.112566912161628 42.000000000000000
1.721547563739278 -4.654010901335445 -2.160139003868543 38.000000000000000
1.710126028576590 -4.594346715647076 -2.235618756140629 64.000000000000000
1.714790132604918 -4.577694039525031 -2.331795034221021 23.000000000000000
1.864902649938501 -4.947941381953072 -2.635237785667298 44.000000000000000
1.902151948465860 -5.013344849808703 -2.788929432926561 72.000000000000000
1.915172085670654 -5.016201835921452 -2.911614504629031 63.000000000000000
1.926829477752745 -5.013083003318647 -3.033241000234037 73.000000000000000
1.856861231625448 -5.457651448034581 -1.177948656883000 7.000000000000000
1.724300994994405 -5.038563944918004 -1.186421279155774 24.000000000000000
1.728695680409344 -5.022453892066493 -1.281352467746565 77.000000000000000
1.736721904687116 -5.015400478184720 -1.379786602777558 74.000000000000000
1.746479616307275 -5.014053524736476 -1.480277068964088 78.000000000000000
1.759954776253318 -5.021777699624514 -1.583986086143766 80.000000000000000
1.616831021908276 -4.585168269387368 -1.540158884011090 40.000000000000000
1.626385419323570 -4.584734523446694 -1.634779439963601 26.000000000000000
1.633321308748682 -4.575288619556574 -1.727232338205716 13.000000000000000
1.609193733206029 -4.479612712517072 -1.786231081037914 9.000000000000000
1.678215862187961 -4.642539855424543 -1.950712487963149 19.000000000000000
1.738878624005082 -4.780253666470876 -2.112709164833139 41.000000000000000
1.702934154709039 -4.652280469486359 -2.158591600549115 37.000000000000000
1.691577337748257 -4.592655291477450 -2.233939006347465 64.000000000000000
1.696156997799708 -4.576091816571915 -2.329999812257212 23.000000000000000
1.846059899623279 -4.950223939952978 -2.635253648383643 40.000000000000000
1.884157767124876 -5.019110996656273 -2.790772350412530 73.000000000000000
1.893267943948739 -5.012158617516604 -2.907751448330850 70.000000000000000
1.904774388136319 -5.009194852233957 -3.029214000801649 73.000000000000000
1.838673204325122 -5.459303413147586 -1.178849901765240 8.000000000000000
1.704765443052338 -5.032469532152230 -1.185394951960776 25.000000000000000
1.710319646162108 -5.020119854373681 -1.281069613906709 78.000000000000000
