# This PCD file was generated using the MATLAB® pcwrite function
# from Computer Vision Toolbox®.
# .PCD v.7 - Point Cloud Data file format
VERSION .7
FIELDS x y z intensity
SIZE 8 8 8 8
TYPE F F F F
COUNT 1 1 1 1
WIDTH 633
HEIGHT 1
VIEWPOINT 0 0 0 1 0 0 0
POINTS 633
DATA ascii
-0.259754403057154 -8.891296410823106 -2.874452954037792 35.000000000000000
-0.273436000784558 -8.975596909568548 -3.076029400122583 27.000000000000000
-0.249149874955183 -7.875177172128591 -2.853753466470880 28.000000000000000
-0.264102594343603 -8.036712853611302 -3.072321651171936 19.000000000000000
-0.267513066460127 -8.894441065294005 -2.533151968454464 15.000000000000000
-0.279207622583288 -8.932648841192515 -2.713932162643976 19.000000000000000
-0.265371593670355 -7.863331055264649 -2.693224578935705 13.000000000000000
-0.274958679948445 -7.867414320186385 -2.849311081445342 42.000000000000000
-0.278077461447538 -8.694174692465202 -2.309545267435237 0.000000000000000
-0.295590955397058 -8.882550819361049 -2.527947176773247 31.000000000000000
-0.325315528461213 -9.433418533812896 -2.864136968243209 3.000000000000000
-0.282021128233680 -7.893936586989585 -2.548770143386223 12.000000000000000
-0.290760796652400 -7.851667307752337 -2.687600165110733 40.000000000000000
-0.326744726345920 -8.539915520059928 -3.091087962844905 8.000000000000000
-0.330652931454026 -9.754384542201805 -2.405276458491901 4.000000000000000
-0.304302207520193 -8.655114822594022 -2.297387118926981 20.000000000000000
-0.295538169484984 -8.101567387627972 -2.304006739161232 0.000000000000000
-0.300357607934525 -7.964077505043112 -2.416368928997006 16.000000000000000
-0.307116692175747 -7.878331663849238 -2.542090779609878 51.000000000000000
-0.319121443637822 -7.915570796078546 -2.707819136589249 7.000000000000000
-0.341573673680348 -8.216253394895645 -2.972211899632037 4.000000000000000
-0.343314921218518 -8.005862864839905 -3.055498429756772 5.000000000000000
-0.335465043769507 -9.755036219874906 -2.041449375648937 3.000000000000000
-0.338069060550254 -9.467527325446026 -2.156917163970711 2.000000000000000
-0.339479028471534 -9.163863726005467 -2.257762520822174 3.000000000000000
-0.319465996259761 -8.333934152261293 -2.210399742808218 21.000000000000000
-0.321152642554540 -8.093409322842447 -2.299997068064910 34.000000000000000
-0.325583532789205 -7.952140240451029 -2.411082113777120 42.000000000000000
-0.334519577214220 -7.919714907334947 -2.553780812637811 9.000000000000000
-0.350208656382738 -8.032338276837811 -2.746072049936192 4.000000000000000
-0.351391098550288 -7.828658019228947 -2.830346606658260 4.000000000000000
-0.351744071157017 -7.609599517494406 -2.902649701868067 3.000000000000000
-0.353715091757993 -7.435226263700883 -2.985413881095091 5.000000000000000
-0.356372727453634 -7.278670289109328 -3.070899103123445 6.000000000000000
-0.343483405832298 -9.163585086777941 -1.915763948741800 4.000000000000000
-0.348375239266177 -8.971933579372990 -2.042132840925285 4.000000000000000
-0.351141059274871 -8.736340383149631 -2.150598211251994 3.000000000000000
-0.345901149061453 -8.333382211464793 -2.208501146189453 13.000000000000000
-0.347208477054262 -8.096713337329895 -2.299229307086587 22.000000000000000
-0.354448228392144 -8.024276401769569 -2.431258661967846 4.000000000000000
-0.358037594410039 -7.869733190414189 -2.535997750922188 3.000000000000000
-0.358126960903236 -7.638521669070619 -2.609814512760016 4.000000000000000
-0.359366677949577 -7.456071601585656 -2.694057880374400 3.000000000000000
-0.361413175104088 -7.291721128959039 -2.779843070094697 4.000000000000000
-0.362121574158054 -7.108401448805163 -2.852669067409320 3.000000000000000
-0.362774740800829 -6.928429921831341 -2.921649757535808 2.000000000000000
-0.364319800229581 -6.770439917369704 -2.994354422650664 3.000000000000000
-0.366603435587174 -6.626434429192922 -3.069415689772626 6.000000000000000
-0.354987485019399 -8.748195358205269 -1.827073578199684 4.000000000000000
-0.354772076519608 -8.456844388103406 -1.923101601352851 4.000000000000000
-0.359272168601726 -8.289395881968121 -2.038817162199243 3.000000000000000
-0.361111905261897 -8.081653101999635 -2.140071337787088 3.000000000000000
-0.364072087025891 -7.900040416794743 -2.241698670307442 3.000000000000000
-0.362386047387495 -7.645046139220443 -2.314727172227748 3.000000000000000
-0.364541554406406 -7.477385280442767 -2.407969024495292 4.000000000000000
-0.366305747090719 -7.301409147761488 -2.493074518868855 3.000000000000000
-0.367585684832498 -7.136079525488050 -2.576910120709774 3.000000000000000
-0.367182158659437 -6.940221207968864 -2.644353011006925 2.000000000000000
-0.368528564593161 -6.785265409612083 -2.721536334168749 4.000000000000000
-0.370082063687138 -6.637073504911066 -2.797362786008387 2.000000000000000
-0.370984179235096 -6.481276144602180 -2.865073520202919 2.000000000000000
-0.372021467712130 -6.328679354241649 -2.930132020704326 3.000000000000000
-0.373021329615314 -6.183164334761177 -2.993949548170343 3.000000000000000
-0.376076727291739 -6.065813656806842 -3.068115867447828 5.000000000000000
-0.372677053955712 -5.862915141284996 -3.094662802236460 7.000000000000000
-0.363068061521571 -8.313233601347628 -1.734453421723311 3.000000000000000
-0.364981661264079 -8.097635430653490 -1.839682803954572 2.000000000000000
-0.367297766964172 -7.900655978984023 -1.941510610871634 2.000000000000000
-0.366591199892571 -7.659928902030220 -2.026752108177868 3.000000000000000
-0.370393483488826 -7.514973221976261 -2.130818185666894 2.000000000000000
-0.371362002475828 -7.334641738037586 -2.219167600194747 2.000000000000000
-0.373437240660330 -7.180108289167092 -2.310691148362763 3.000000000000000
-0.371665805233175 -6.952941979726200 -2.372593171148706 2.000000000000000
-0.372656685836595 -6.797286281692622 -2.453104604213726 4.000000000000000
-0.374384256418363 -6.655908017098937 -2.534590479044726 2.000000000000000
-0.375540162269408 -6.510316052362944 -2.609852579144662 3.000000000000000
-0.376499598921608 -6.364106576281205 -2.680942285418728 2.000000000000000
-0.375889574267905 -6.195751947063693 -2.737520929310521 2.000000000000000
-0.377187023351040 -6.059908300135554 -2.804386803449874 3.000000000000000
-0.378507174754171 -5.930985933472781 -2.870564086657465 3.000000000000000
-0.372181558657415 -5.680387849260437 -2.871941985724943 6.000000000000000
-0.367870489763178 -5.480966115524847 -2.891875817394286 7.000000000000000
-0.376041263415448 -5.457575880354025 -3.001842513921559 9.000000000000000
-0.370288403064198 -7.917392267753359 -1.650152167854677 2.000000000000000
-0.369758479033859 -7.672177827807614 -1.741362123649133 2.000000000000000
-0.373648774176556 -7.527435045417239 -1.848163475069435 3.000000000000000
-0.375506041399690 -7.357946656763430 -1.945254792847508 3.000000000000000
-0.377883090352192 -7.199092263668035 -2.039690895508659 2.000000000000000
-0.376069890499761 -6.982165302350151 -2.111008083385075 2.000000000000000
-0.377456413128331 -6.829582047382283 -2.196404269314262 3.000000000000000
-0.380102005544079 -6.698985769701623 -2.284481587300832 3.000000000000000
-0.379635938933828 -6.529877109239119 -2.355182687628455 2.000000000000000
-0.381023339871304 -6.393980460027447 -2.433462366929171 2.000000000000000
-0.379116573311601 -6.209406278985385 -2.487879475846318 2.000000000000000
-0.379682324122777 -6.069047188835795 -2.555332376117253 2.000000000000000
-0.382117654302200 -5.961360899592926 -2.632669049287282 2.000000000000000
-0.377638705762429 -5.747641530098893 -2.658635335918136 2.000000000000000
-0.368688223634137 -5.477523797631179 -2.649909062616603 7.000000000000000
-0.376893694511395 -5.458889622414965 -2.758778576350004 10.000000000000000
-0.385809489236239 -5.459218069067894 -2.879226478132261 9.000000000000000
-0.395569060785733 -5.457010801903371 -3.000359682781219 7.000000000000000
-0.375841518658680 -7.537202806820278 -1.569261291727056 2.000000000000000
-0.378080404160214 -7.367513423002048 -1.670597848039646 2.000000000000000
-0.380110436974600 -7.200776482745519 -1.766383339267572 3.000000000000000
-0.379783940949914 -7.005751013884865 -1.850608788925349 3.000000000000000
-0.380997817919250 -6.840933173306576 -1.936717320905243 3.000000000000000
-0.384179632273432 -6.729102376137691 -2.033024156670138 3.000000000000000
-0.383868600027314 -6.558910646869368 -2.107922205466020 3.000000000000000
-0.385056928629284 -6.414778104734936 -2.186160339208413 2.000000000000000
-0.382075599337385 -6.217380369840205 -2.241115698288835 2.000000000000000
-0.383095984424803 -6.087259329422821 -2.315402194667791 4.000000000000000
-0.385682903878841 -5.986340128401752 -2.397202654082980 3.000000000000000
-0.380619410030654 -5.770310487680058 -2.428297704252394 2.000000000000000
-0.369969016917035 -5.478597903232592 -2.418282022679918 7.000000000000000
-0.377938752358708 -5.464372908532090 -2.526423364356436 11.000000000000000
-0.386497548411570 -5.458950850042887 -2.639744544816389 11.000000000000000
-0.396336966718142 -5.461843951913429 -2.759094353906614 9.000000000000000
-0.404904841713783 -5.455074189662522 -2.875868156650183 9.000000000000000
-0.415093068097916 -5.456390913080837 -2.998849103984047 8.000000000000000
-0.381944249392173 -7.211779872886442 -1.499908549007661 2.000000000000000
-0.383230422964379 -7.039474119448456 -1.594654371495565 1.000000000000000
-0.382999345904294 -6.846968061240829 -1.678076240635356 3.000000000000000
-0.388033606312109 -6.761693045984950 -1.784643682153718 3.000000000000000
-0.388612148995214 -6.598073067229916 -1.866503789749309 3.000000000000000
-0.389504331872813 -6.456918357962692 -1.949365972324516 3.000000000000000
-0.387815722484081 -6.276832486527561 -2.015884148820658 3.000000000000000
-0.386711925121677 -6.107895614320984 -2.080231009173542 2.000000000000000
-0.389016859134115 -6.006314495173641 -2.163716263371066 3.000000000000000
-0.384358963414102 -5.799207993768876 -2.204565905626411 2.000000000000000
-0.371650647650078 -5.481589694643530 -2.193879261873620 8.000000000000000
-0.379529017775207 -5.471585802328885 -2.301393172063295 13.000000000000000
-0.387686538173890 -5.463343279669974 -2.410360005601583 12.000000000000000
-0.396281079982850 -5.456475890787848 -2.521588419805775 11.000000000000000
-0.405779567024904 -5.461888742562042 -2.639983770188580 11.000000000000000
-0.415801367734083 -5.464743564838567 -2.759380907585239 9.000000000000000
-0.424794992166081 -5.461467919079770 -2.878065562750977 8.000000000000000
-0.434334494521608 -5.452218966017292 -2.995389439366772 7.000000000000000
-0.385158864503213 -6.870725405855553 -1.427434428065135 2.000000000000000
-0.389474815317045 -6.765980368072145 -1.531183538017595 2.000000000000000
-0.390998283669332 -6.617302898884787 -1.620308207279910 3.000000000000000
-0.391929879301191 -6.471297090743409 -1.706552352858484 3.000000000000000
-0.392764832306247 -6.324471379697933 -1.787695039397142 3.000000000000000
-0.390644712631441 -6.146514777017161 -1.854286063260678 3.000000000000000
-0.392153983376455 -6.028975613686493 -1.934942971484060 3.000000000000000
-0.392395172363276 -5.891729695630861 -2.005303773079647 2.000000000000000
-0.372826828404675 -5.475997667502971 -1.971464861853675 8.000000000000000
-0.380842909881728 -5.470126819798637 -2.078260631709238 19.000000000000000
-0.389301742309998 -5.469782885521291 -2.187952316366326 17.000000000000000
-0.397829037594892 -5.467213475187055 -2.298356994372152 13.000000000000000
-0.406929945405038 -5.469948745861957 -2.412080582645584 12.000000000000000
-0.415947560634370 -5.466641227474460 -2.525097486608952 10.000000000000000
-0.424803079756242 -5.461179440696711 -2.638458159596465 10.000000000000000
-0.435003125824522 -5.464026415470637 -2.757840389065692 9.000000000000000
-0.444156856827839 -5.460745698695679 -2.876512663053902 8.000000000000000
-0.454420050107038 -5.458483515698189 -2.997665112535397 7.000000000000000
-0.392742319244355 -6.639173630501356 -1.377821096779265 2.000000000000000
-0.394014816053029 -6.492494022281789 -1.467820729982357 2.000000000000000
-0.394174560055435 -6.333338901521769 -1.549344627471931 3.000000000000000
-0.393247250418163 -6.169333460783705 -1.625529221420858 3.000000000000000
-0.395670391338556 -6.058564891526107 -1.711169306814857 3.000000000000000
-0.396420866493049 -5.935504557991676 -1.789295989675529 3.000000000000000
-0.375928714868941 -5.503662740482236 -1.765117004723639 6.000000000000000
-0.382400443794980 -5.471516374000213 -1.861059501905555 18.000000000000000
-0.390400022202262 -5.467756819610707 -1.967282182165305 20.000000000000000
-0.399088268897498 -5.469392289407854 -2.076769736440297 19.000000000000000
-0.408255015369661 -5.476453875734879 -2.189411973424359 17.000000000000000
-0.416660340789210 -5.470147314917729 -2.298387807466743 14.000000000000000
-0.425366723138227 -5.465546707095886 -2.408942992974298 11.000000000000000
-0.434532265523868 -5.462261903753922 -2.521884336169538 9.000000000000000
-0.444114329332426 -5.464009110237030 -2.638640351720625 9.000000000000000
-0.454496677350615 -5.466816801732557 -2.758069402058595 9.000000000000000
-0.463814014724221 -5.463498512153526 -2.876790671467356 7.000000000000000
-0.473640422943606 -5.454202448266888 -2.994151032107982 7.000000000000000
-0.395244653961466 -6.348982065936234 -1.316139958338385 2.000000000000000
-0.394365831294173 -6.180080343180947 -1.395774531554481 2.000000000000000
-0.396834385652972 -6.068782884718358 -1.483238608084672 3.000000000000000
-0.399367400262319 -5.967758396141838 -1.571057416164761 3.000000000000000
-0.381348888229053 -5.566038671697705 -1.570796782086124 4.000000000000000
-0.383711927834082 -5.479926080938201 -1.650718420534268 21.000000000000000
-0.391917264404128 -5.476286557972835 -1.755101818364972 23.000000000000000
-0.400892797759563 -5.478297074352812 -1.862134831273483 19.000000000000000
-0.408760952936423 -5.470731643508400 -1.967128304933461 20.000000000000000
-0.417614031382720 -5.472336822125992 -2.076668540233679 19.000000000000000
-0.426676472476756 -5.475661501750896 -2.187880779676515 17.000000000000000
-0.434926906983059 -5.465671775578581 -2.295300988372944 13.000000000000000
-0.444367422439345 -5.468394105063100 -2.408997199165196 9.000000000000000
-0.453989522347615 -5.468695622489047 -2.523660377738597 9.000000000000000
-0.463141661027897 -5.463192462939585 -2.637059710112841 8.000000000000000
-0.473393565719295 -5.462430398722834 -2.754677598385022 9.000000000000000
-0.483803804895626 -5.469724755750063 -2.878896485583224 8.000000000000000
-0.495360184129126 -5.477833604861249 -3.005957632008869 6.000000000000000
-0.397231796205433 -6.078360120955104 -1.258628277159729 2.000000000000000
-0.400850146914171 -5.988402135768863 -1.351096969146860 2.000000000000000
-0.385341824767966 -5.622016745734105 -1.372748844024205 2.000000000000000
-0.384459957498650 -5.484439111447244 -1.442558204686352 23.000000000000000
-0.393078243432792 -5.480720601755381 -1.545462772128115 27.000000000000000
-0.401094866986489 -5.475290428336709 -1.648072095826365 24.000000000000000
-0.410003125010926 -5.479266250121882 -1.754811328250577 26.000000000000000
-0.418852583239173 -5.477469988891278 -1.860614155140512 24.000000000000000
-0.426849335257809 -5.469900336137131 -1.965597608290384 21.000000000000000
-0.435863112750742 -5.471499272883693 -2.075124828480555 18.000000000000000
-0.444792295189668 -5.471113194684463 -2.184844210713770 17.000000000000000
-0.453774320001822 -5.468500343372305 -2.295277077183465 14.000000000000000
-0.463388552049879 -5.471187840103089 -2.409022762062910 8.000000000000000
-0.472552724834061 -5.464210864711005 -2.520394720718586 9.000000000000000
-0.482164362760935 -5.462322388075340 -2.635452078109985 8.000000000000000
-0.493866306353313 -5.475792880985735 -2.760234119779496 6.000000000000000
-0.504163548158362 -5.479422615554022 -2.882826896791323 7.000000000000000
-0.514949861280073 -5.476935755955035 -3.004301144277798 7.000000000000000
-0.386579018662962 -5.647523687630627 -1.168089405816415 2.000000000000000
-0.384319948770527 -5.485285426607036 -1.236300111473539 24.000000000000000
-0.392721532663327 -5.477713655231635 -1.336236097802876 30.000000000000000
-0.401838461958467 -5.483587052927837 -1.441060333037120 28.000000000000000
-0.410880840573316 -5.483701984971587 -1.545035104736600 25.000000000000000
-0.419325318674004 -5.482067148043646 -1.648849920841660 23.000000000000000
-0.427515797576945 -5.474596414962670 -1.752061738666774 24.000000000000000
-0.436807800386539 -5.476592468836624 -1.859068012689005 24.000000000000000
-0.445543874923560 -5.476525464804842 -1.966737269912331 19.000000000000000
-0.454107562269002 -5.470610476884074 -2.073555239702167 18.000000000000000
-0.463505739035926 -5.473921582760927 -2.184740015577336 15.000000000000000
-0.472641983522026 -5.471275628592529 -2.295224727860386 12.000000000000000
-0.482108297975193 -5.470278530216552 -2.407413631031299 8.000000000000000
-0.492714419895617 -5.477776681449561 -2.525450282344588 6.000000000000000
-0.503159297068326 -5.482942874090486 -2.644207284089895 6.000000000000000
-0.513766997247402 -5.481977163939246 -2.762167599293715 8.000000000000000
-0.524256261291679 -5.485534717343749 -2.884868149034352 5.000000000000000
-0.535899049446269 -5.489961154582145 -3.010281503444762 5.000000000000000
-0.392558027602346 -5.486403234423685 -1.133460958423484 37.000000000000000
-0.401691480932623 -5.488291325594155 -1.235678873961231 32.000000000000000
-0.410219652208261 -5.480696605582552 -1.335672323026131 28.000000000000000
-0.419212363705887 -5.482686187907887 -1.439537828276912 26.000000000000000
-0.428403337861401 -5.482793415031542 -1.543499578294717 24.000000000000000
-0.436686774156496 -5.477332905119180 -1.646154581980525 22.000000000000000
-0.445308094923858 -5.473676366734527 -1.750503851137495 22.000000000000000
-0.454758271990913 -5.475664522849615 -1.857496419178764 22.000000000000000
-0.463329920839809 -5.471838318893059 -1.963806201321341 19.000000000000000
-0.472347199872161 -5.469670442899191 -2.071959789389720 17.000000000000000
-0.481913184998011 -5.472974054927240 -2.183130476224074 16.000000000000000
-0.491859811985779 -5.477673826187774 -2.296685302615640 7.000000000000000
-0.502159535183196 -5.483911221842550 -2.412197651970904 6.000000000000000
-0.512294809072135 -5.484044733872321 -2.527134223875932 9.000000000000000
-0.522247177178446 -5.481962116718183 -2.642539164666407 5.000000000000000
-0.534058747717355 -5.491663941122278 -2.765861965421248 4.000000000000000
-0.544743507443683 -5.495116746975159 -2.888731633123975 7.000000000000000
-0.555882192058804 -5.492444641301533 -3.010480169472967 8.000000000000000
-0.409792723060265 -5.489383371624609 -1.132757751444724 34.000000000000000
-0.418785551836327 -5.487356165309539 -1.234155977424463 31.000000000000000
-0.427737390302589 -5.483629891712235 -1.335081995855382 27.000000000000000
-0.436581491267514 -5.481736525278567 -1.437990705432237 25.000000000000000
-0.445296480887146 -5.474157989187287 -1.539779644470767 23.000000000000000
-0.454335596217117 -5.476369334778938 -1.644583252712651 22.000000000000000
-0.463095511958571 -5.472706345967250 -1.748920752239399 21.000000000000000
-0.473029823523487 -5.478461805716353 -1.857179320734657 23.000000000000000
-0.482076766722533 -5.478358577064529 -1.964889129719500 20.000000000000000
-0.491250668780986 -5.476134775544506 -2.073161040656117 12.000000000000000
-0.501669631259526 -5.486783960663658 -2.187398763389052 7.000000000000000
-0.511807591816187 -5.491368425983483 -2.301195732455413 11.000000000000000
-0.521612338830135 -5.490190002820090 -2.413738656299494 8.000000000000000
-0.531919997979647 -5.490256982519165 -2.528786938761130 5.000000000000000
-0.542393360138468 -5.491695779410778 -2.646032295585138 6.000000000000000
-0.554420227920288 -5.501292572790907 -2.769522384713369 11.000000000000000
-0.563489726293743 -5.487008340999013 -2.883295821480804 6.000000000000000
-0.574786631295020 -5.484391909393499 -3.004906939102052 5.000000000000000
-0.426439257522045 -5.484501848562041 -1.130418078749455 34.000000000000000
-0.435874753556986 -5.486372989352326 -1.232608867774708 30.000000000000000
-0.444645647871312 -5.478764107575991 -1.332580241999017 26.000000000000000
-0.453945673217066 -5.480738074412664 -1.436418979772571 24.000000000000000
-0.463433714489737 -5.480828639707427 -1.540354054896820 22.000000000000000
-0.472637667635579 -5.482992670723466 -1.645278398303690 21.000000000000000
-0.481211584350007 -5.475483507524097 -1.748525026963860 22.000000000000000
-0.490982645322243 -5.477432326341122 -1.855555752960729 20.000000000000000
-0.501553266643494 -5.492328373367982 -1.968631341774344 7.000000000000000
-0.510892347201816 -5.489999220874889 -2.077152272791702 12.000000000000000
-0.520467573329771 -5.489431771009900 -2.187207428786611 13.000000000000000
-0.530429666542109 -5.490305539327916 -2.299514177750859 6.000000000000000
-0.541468806895036 -5.500060498214957 -2.416851267069427 6.000000000000000
-0.551589778873623 -5.496413226989599 -2.530408337406421 11.000000000000000
-0.561875103477910 -5.494194304192383 -2.646035017884618 7.000000000000000
-0.572624548943804 -5.489516609633098 -2.762407015359837 5.000000000000000
-0.582180458110399 -5.478848095761315 -2.877836940788515 7.000000000000000
-0.592878365239281 -5.469301814249786 -2.995484753537430 6.000000000000000
-0.443372466070112 -5.483479778138401 -1.128860655297255 31.000000000000000
-0.452637669971902 -5.481451494087469 -1.230164483997430 26.000000000000000
-0.462177746160760 -5.481599255125801 -1.331938938975064 26.000000000000000
-0.471304738177083 -5.479690845164485 -1.434822666810212 22.000000000000000
-0.480941248094315 -5.479772453714896 -1.538744088985852 22.000000000000000
-0.489959440228414 -5.478110981765711 -1.642510218655875 21.000000000000000
-0.500039194464574 -5.485802036777733 -1.750524726270525 10.000000000000000
-0.511034653251735 -5.498997566514156 -1.861572815295518 10.000000000000000
-0.520413651807906 -5.498739657694144 -1.969651697106280 17.000000000000000
-0.529550266133582 -5.492627398971294 -2.076881501604674 9.000000000000000
-0.539648390808359 -5.495727096113907 -2.188461400010829 7.000000000000000
-0.550883785685117 -5.507561125620322 -2.305496367862037 10.000000000000000
-0.560651539751262 -5.502580743358774 -2.416727335425273 10.000000000000000
-0.570177110841490 -5.491660184095523 -2.527004251023804 6.000000000000000
-0.580237759749073 -5.485873987866946 -2.640826902961678 6.000000000000000
-0.590748255581146 -5.477690872073399 -2.755271167876512 7.000000000000000
-0.601976902982836 -5.481210916235008 -2.877907347365682 5.000000000000000
-0.614775257186517 -5.489080445506663 -3.005160768728958 5.000000000000000
-0.460628363531051 -5.486314986537134 -1.128082168642324 30.000000000000000
-0.470037874844793 -5.484262629708113 -1.229442070452460 24.000000000000000
-0.479051345304204 -5.476638222594804 -1.329390682747498 26.000000000000000
-0.488658514820596 -5.478594847869760 -1.433201782300127 23.000000000000000
-0.498792498186185 -5.482503684170818 -1.538185748473376 15.000000000000000
-0.509373633796807 -5.496081561536288 -1.646580083121824 7.000000000000000
-0.518935391460958 -5.496065926110274 -1.752492338168381 17.000000000000000
-0.529050928800364 -5.497862560342471 -1.859891497458928 12.000000000000000
-0.539318099860206 -5.505096832601811 -1.970641735790824 6.000000000000000
-0.549342507563534 -5.506379292244776 -2.080806069609018 9.000000000000000
-0.559249210160873 -5.505667499116402 -2.191157162347736 16.000000000000000
-0.569177084643036 -5.502716344630294 -2.302219424133128 7.000000000000000
-0.577933468320546 -5.486817946733111 -2.408572549374923 6.000000000000000
-0.588345645413305 -5.483238521031162 -2.521912116431338 8.000000000000000
-0.599328627579081 -5.484677285022348 -2.639048365476473 6.000000000000000
-0.611959915801425 -5.494264955749397 -2.762418805589838 4.000000000000000
-0.622991266945248 -5.494089978480760 -2.883496694929133 7.000000000000000
-0.635201749710757 -5.494830759072063 -3.007153083286571 8.000000000000000
-0.477563137313509 -5.485196987537898 -1.126475680067907 28.000000000000000
-0.487456926354333 -5.487024215407560 -1.228693210073299 24.000000000000000
-0.496597109710690 -5.479375135836876 -1.328698397455045 21.000000000000000
-0.508143384294540 -5.500577961438482 -1.437600915113425 10.000000000000000
-0.517385352406123 -5.492855709562515 -1.539750808099178 13.000000000000000
-0.527441110159170 -5.498730810137246 -1.646044152798290 16.000000000000000
-0.537529255121893 -5.502480060893072 -1.753218605697039 6.000000000000000
-0.548187959922611 -5.507994733212207 -1.862010735603443 7.000000000000000
-0.558266408388067 -5.511399700423415 -1.971601369303179 18.000000000000000
-0.567307857198379 -5.501449503318417 -2.077661944975294 11.000000000000000
-0.576977480680117 -5.497054957316655 -2.186462847392657 7.000000000000000
-0.586654807836070 -5.490475614881650 -2.295847046044834 8.000000000000000
-0.597092151863987 -5.489233361668678 -2.408396575177359 9.000000000000000
-0.608461180410470 -5.492847373738637 -2.525109645291874 5.000000000000000
-0.619626889609048 -5.494185794619142 -2.642417259230390 5.000000000000000
-0.632064668984671 -5.500110801726098 -2.764167039626438 10.000000000000000
-0.642038952697165 -5.489291478530245 -2.879807119748605 6.000000000000000
-0.653175789168755 -5.479581600095134 -2.997656897702376 5.000000000000000
-0.494492412632860 -5.484031404552485 -1.124845237235167 30.000000000000000
-0.505609792537333 -5.497511990485470 -1.229657127885184 10.000000000000000
-0.516340254043509 -5.505291136599605 -1.333606479937805 10.000000000000000
-0.525559297921991 -5.499379421572241 -1.435923884457494 22.000000000000000
-0.535298912876242 -5.495483579762651 -1.539135893426110 11.000000000000000
-0.545527423371144 -5.501328631222112 -1.645480817769045 5.000000000000000
-0.556166633406554 -5.508840647650787 -1.753914876690336 12.000000000000000
-0.567005471210515 -5.514299457909992 -1.862823202590868 18.000000000000000
-0.576081896392541 -5.506402857406545 -1.968510406524133 7.000000000000000
-0.584449437893326 -5.489022065206997 -2.071683282313412 9.000000000000000
-0.594650041553612 -5.488393824007065 -2.181747134908491 13.000000000000000
-0.605671250550730 -5.492874407065219 -2.295593405737224 7.000000000000000
-0.616678639027885 -5.495238411940803 -2.409789669680121 5.000000000000000
-0.628645439541215 -5.502397966647703 -2.528273230482666 9.000000000000000
-0.639576922272389 -5.500050132265570 -2.644028347628304 6.000000000000000
-0.649686783308925 -5.484572121512238 -2.755169636796335 5.000000000000000
-0.660206257319899 -5.477395125404107 -2.872398011765600 7.000000000000000
-0.672757732529795 -5.478241393643716 -2.995775069375191 6.000000000000000
-0.513964002586786 -5.510134781286573 -1.128786824914671 9.000000000000000
-0.523459873276991 -5.504059516770425 -1.229721349297372 21.000000000000000
-0.532495165589640 -5.492440187364791 -1.329107101344311 19.000000000000000
-0.543349882190211 -5.501984872362985 -1.435227288554936 6.000000000000000
-0.554774277347763 -5.513396697846689 -1.542785258344951 7.000000000000000
-0.565194776997577 -5.519131689771911 -1.649449682472950 18.000000000000000
-0.574451969677854 -5.511354404368484 -1.753374336524104 12.000000000000000
-0.584265642057643 -5.505466481358844 -1.858513514114235 7.000000000000000
-0.592652921423186 -5.490114063788233 -1.961379637225599 13.000000000000000
-0.602737202746702 -5.487717457852055 -2.069898781875783 10.000000000000000
-0.614332412304551 -5.498171785261918 -2.184354986475836 7.000000000000000
-0.625958301383409 -5.506231590380521 -2.299910841320766 7.000000000000000
-0.636308710974759 -5.501187173864457 -2.411151364482709 10.000000000000000
-0.646345156727832 -5.490203872513476 -2.521443113895791 5.000000000000000
-0.656564631392209 -5.480765404223932 -2.633550734021823 6.000000000000000
-0.668936780960328 -5.483200689631555 -2.753292171256524 7.000000000000000
-0.680914508865858 -5.486578785979183 -2.876044620109215 4.000000000000000
-0.693656080411099 -5.487311472317278 -2.999586312791130 5.000000000000000
-0.530213991055341 -5.501064855289860 -1.125503701275087 30.000000000000000
-0.540970672209545 -5.506669204637379 -1.228889336965497 8.000000000000000
-0.552057912900926 -5.514373730508598 -1.333009535254781 5.000000000000000
-0.562336940891907 -5.516095644866023 -1.437515217866724 15.000000000000000
-0.572375819310064 -5.512085582421001 -1.541039406873058 17.000000000000000
-0.582158690012253 -5.510182900370383 -1.645410484988183 8.000000000000000
-0.590717422209805 -5.494855200618691 -1.746778535284750 10.000000000000000
-0.601882735291419 -5.500356370682195 -1.855454922237109 15.000000000000000
-0.612037106802526 -5.500007699226635 -1.963596162235131 6.000000000000000
-0.622703948219104 -5.501249818979776 -2.073700610514287 6.000000000000000
-0.633657436037024 -5.504195820390084 -2.185461650213823 13.000000000000000
-0.644619506766658 -5.504849482752987 -2.298063938129242 7.000000000000000
-0.654246754362638 -5.492510457299485 -2.406099345592728 5.000000000000000
-0.664839525831723 -5.485188849141271 -2.517910978201595 8.000000000000000
-0.676072349127279 -5.482937848943919 -2.633385411094197 5.000000000000000
-0.689518178389679 -5.492433180482456 -2.756736918823695 4.000000000000000
-0.701241413513597 -5.492181767231550 -2.877811653959093 7.000000000000000
-0.713715613525819 -5.489345969768549 -2.999551107615148 6.000000000000000
-0.548350178393920 -5.511453535365729 -1.126186489601065 5.000000000000000
-0.559681174547858 -5.520884512134693 -1.230628776897406 8.000000000000000
-0.569362955006878 -5.513034771311585 -1.331267604869607 28.000000000000000
-0.579795819431560 -5.514745608828354 -1.435758223963234 12.000000000000000
-0.588740305224930 -5.499228352587895 -1.536057413997628 7.000000000000000
-0.598652050282433 -5.497375634893651 -1.640213660341321 18.000000000000000
-0.608557979782700 -5.493478183018852 -1.744984423408616 10.000000000000000
-0.619468757318523 -5.495197492582685 -1.852373336079749 5.000000000000000
-0.631489119982478 -5.509844648367479 -1.965779601633920 10.000000000000000
-0.641462278348932 -5.503559754168472 -2.073261242041742 12.000000000000000
-0.651273698803907 -5.495381646214049 -2.180671257136217 7.000000000000000
-0.661947576119578 -5.492408097933298 -2.291598283344213 8.000000000000000
-0.672574662443044 -5.487426006539669 -2.402620058642587 7.000000000000000
-0.685104014924182 -5.494572426543304 -2.520984398643672 4.000000000000000
-0.696961296886595 -5.495802777776079 -2.638350389624336 6.000000000000000
-0.709709115094042 -5.498054119666365 -2.758365071772071 8.000000000000000
-0.720687365139785 -5.490686971384966 -2.875859228820366 5.000000000000000
-0.732395440284132 -5.480863782986388 -2.993772388041408 6.000000000000000
-0.565752156892340 -5.513989584621433 -1.125246354207838 25.000000000000000
-0.576452371715164 -5.515622694721880 -1.228010159816646 22.000000000000000
-0.586249993884472 -5.507779348984572 -1.328568247238182 8.000000000000000
-0.596414188244780 -5.505646295297032 -1.431973808120243 11.000000000000000
-0.606292498890527 -5.497821252727094 -1.534265582893448 15.000000000000000
-0.616347596800014 -5.495958439395505 -1.638407907804456 7.000000000000000
-0.628553506365533 -5.511002196673100 -1.749180173081053 6.000000000000000
-0.640084054927294 -5.516366031973781 -1.858153439281502 16.000000000000000
-0.650125418983052 -5.512135297730207 -1.965259626387522 8.000000000000000
-0.658900414983371 -5.494655766000941 -2.068591853480855 7.000000000000000
-0.668833586706891 -5.486519457417189 -2.175859801704925 13.000000000000000
-0.680103511487971 -5.487256131807608 -2.288172930003662 6.000000000000000
-0.692705849238152 -5.496851967768301 -2.405488942163943 4.000000000000000
-0.704973484195805 -5.500285406579488 -2.522367307263067 7.000000000000000
-0.716075797064818 -5.494279483358934 -2.636403689042912 7.000000000000000
-0.728059180305613 -5.489414026537690 -2.752838439724349 6.000000000000000
-0.738702940035038 -5.478581484492070 -2.868352642923156 7.000000000000000
-0.752453390480055 -5.482787130531104 -2.993680540144114 5.000000000000000
-0.583171821927732 -5.516475843907602 -1.124279720395859 9.000000000000000
-0.592774930840380 -5.506431361168624 -1.224506245841904 7.000000000000000
-0.602682454065925 -5.498610500857575 -1.324915249900863 23.000000000000000
-0.613406544821868 -5.500351058865410 -1.429169912924234 12.000000000000000
-0.624707579759730 -5.504025252356294 -1.534584784629045 5.000000000000000
-0.637114368147716 -5.521163790615915 -1.644521717427727 10.000000000000000
-0.646887011568214 -5.513309020369290 -1.748531052106016 15.000000000000000
-0.657693790935314 -5.511102818867810 -1.855017142031960 7.000000000000000
-0.665601469595221 -5.488167318449134 -1.955374687465176 11.000000000000000
-0.676740646872850 -5.489423471188741 -2.065300958899760 11.000000000000000
-0.688650960423253 -5.496077480226480 -2.178347122488855 6.000000000000000
-0.700562859839509 -5.500388533002329 -2.292365081183617 7.000000000000000
-0.712433499536315 -5.502579775269020 -2.406731876536891 9.000000000000000
-0.722984350247119 -5.491499212937233 -2.517098731398412 5.000000000000000
-0.734224652595792 -5.485541177852206 -2.630995276622221 6.000000000000000
-0.747318994390480 -5.487823203548213 -2.750848379540579 6.000000000000000
-0.760044801629551 -5.491051072541842 -2.873712932471331 3.000000000000000
-0.773510547411448 -5.491622446828562 -2.997362229449742 7.000000000000000
-0.598488197419262 -5.499424541300082 -1.119320147275221 12.000000000000000
-0.609902804150968 -5.504960341196941 -1.222707737498066 21.000000000000000
-0.620803575993793 -5.504860332954153 -1.324964767343343 6.000000000000000
-0.632575016131971 -5.514249164599266 -1.431338184945099 6.000000000000000
-0.644058707932573 -5.517834069972464 -1.537007337974461 17.000000000000000
-0.654430376254038 -5.515830487694401 -1.641523351541777 10.000000000000000
-0.663410666400825 -5.500410799249090 -1.743052301914548 8.000000000000000
-0.674810048722917 -5.502025019553033 -1.850591279120007 15.000000000000000
-0.685119689399222 -5.497844053612766 -1.957472291847898 7.000000000000000
-0.696432617003384 -5.499014102519294 -2.067578658786104 6.000000000000000
-0.708535704247026 -5.505577333455443 -2.180800628473137 12.000000000000000
-0.719676074090726 -5.502462587531222 -2.291939750778925 7.000000000000000
-0.730269211992435 -5.493697684252848 -2.401581277419284 5.000000000000000
-0.740938174253931 -5.482663965697109 -2.511808603612086 8.000000000000000
-0.753791518309548 -5.487492142161444 -2.630713275262242 5.000000000000000
-0.768554797640565 -5.500372747619976 -2.755943243294959 3.000000000000000
-0.780480153190516 -5.496424460450585 -2.875356131166402 7.000000000000000
-0.792621866485435 -5.486462450780609 -2.993406145671443 6.000000000000000
-0.616318774819935 -5.505712761194904 -1.119098815574407 11.000000000000000
-0.628350484674825 -5.515084554174191 -1.223468033386317 5.000000000000000
-0.639862557338114 -5.518786758166954 -1.326843105117481 12.000000000000000
-0.650926793901247 -5.520395773423728 -1.431476445404144 17.000000000000000
-0.660745625733003 -5.508616321058116 -1.533002754546401 7.000000000000000
-0.669393803935681 -5.491408458554191 -1.632840799518438 12.000000000000000
-0.680791884218729 -5.495042947099136 -1.739954430414189 13.000000000000000
-0.692344103322607 -5.496665706423611 -1.847410553835026 6.000000000000000
-0.704704904534217 -5.507463291579213 -1.959536447589808 7.000000000000000
-0.715708412224503 -5.504829809559211 -2.068426028761817 13.000000000000000
-0.726049548309156 -5.496561494125550 -2.175913554049512 7.000000000000000
-0.737331153677740 -5.493487757147437 -2.286908619050505 8.000000000000000
-0.748543865410007 -5.488404231101757 -2.397998556626206 7.000000000000000
-0.761836122672595 -5.495429646435229 -2.516410682554012 3.000000000000000
-0.774888251334947 -5.500122719794398 -2.635545914064968 6.000000000000000
-0.787849458275272 -5.498669258253666 -2.753893538144029 7.000000000000000
-0.799422271513232 -5.491192346160156 -2.871451662361871 4.000000000000000
-0.811184898274459 -5.477767137650779 -2.987525773359059 6.000000000000000
-0.634638735632304 -5.515844268905932 -1.119639083103396 7.000000000000000
-0.646409393880686 -5.521273971908395 -1.223336675911291 24.000000000000000
-0.657170700337608 -5.517201407382805 -1.324975207689171 12.000000000000000
-0.666059755886939 -5.499567915423933 -1.424611225993774 7.000000000000000
-0.676905188755295 -5.495526575083685 -1.527914601011829 20.000000000000000
-0.687538278295401 -5.493599451614595 -1.632066230610270 8.000000000000000
-0.699104265391840 -5.497199051106226 -1.739229662416023 5.000000000000000
-0.712278886826000 -5.510076579176888 -1.850527189475538 13.000000000000000
-0.723374712521267 -5.509544024016433 -1.958907264959113 11.000000000000000
-0.733043779523736 -5.495726164242021 -2.063661005341537 8.000000000000000
-0.744006359484699 -5.491188504712052 -2.172465728789418 14.000000000000000
-0.755937659419980 -5.491792319271245 -2.284905113361164 6.000000000000000
-0.768820018650622 -5.497604191122327 -2.400743205067191 4.000000000000000
-0.782313283912106 -5.504525973157998 -2.519324460374973 8.000000000000000
-0.794010436734472 -5.498381200980120 -2.633487344770267 6.000000000000000
-0.806094874583943 -5.489818729579721 -2.748265884066750 6.000000000000000
-0.818331667798580 -5.485907800500468 -2.867522429883699 5.000000000000000
-0.832859058001544 -5.489908680559007 -2.993010602825796 3.000000000000000
-0.653023708938944 -5.525921238824293 -1.120147533976759 26.000000000000000
-0.662644157842888 -5.511895068228506 -1.219742381371973 6.000000000000000
-0.673054707159306 -5.503980060627957 -1.320303318703914 13.000000000000000
-0.683453540979382 -5.497925955336177 -1.422709192689610 18.000000000000000
-0.695402170502606 -5.501523407093108 -1.528123039047214 7.000000000000000
-0.708143486394760 -5.514768018345384 -1.636912492014040 7.000000000000000
-0.718915111130208 -5.510657076109047 -1.742066489120872 17.000000000000000
-0.730309368643745 -5.508377372431330 -1.848556990995325 9.000000000000000
-0.739544518999340 -5.492875347165590 -1.951607113360302 10.000000000000000
-0.751338099695811 -5.494004991863657 -2.061663456852913 11.000000000000000
-0.763980340850508 -5.500522545989207 -2.174829133485746 6.000000000000000
-0.777119989469118 -5.508356918448630 -2.290490030745958 6.000000000000000
-0.789162952855856 -5.506744425126166 -2.403453280216137 8.000000000000000
-0.800231773104262 -5.495532077634176 -2.513955507364480 5.000000000000000
-0.812066658702551 -5.489433556050463 -2.627977734976237 7.000000000000000
-0.825348912687068 -5.488009095087992 -2.746164478788144 5.000000000000000
-0.839354853140106 -5.494623691921813 -2.870910990379478 3.000000000000000
-0.853543460535342 -5.495025734177342 -2.994663877917873 7.000000000000000
-0.667695852774928 -5.504798834964088 -1.114319538895907 8.000000000000000
-0.679301774928296 -5.506350290880175 -1.216986266439790 24.000000000000000
-0.690796419950346 -5.506162185750064 -1.319315841790684 13.000000000000000
-0.702800331339793 -5.511609165029458 -1.424756858636573 5.000000000000000
-0.714436309141645 -5.511290824752165 -1.529362679413443 12.000000000000000
-0.725381422488004 -5.509239546350764 -1.633819271778282 15.000000000000000
-0.736286425266426 -5.505137407119453 -1.738891724260741 8.000000000000000
-0.747821048105012 -5.502866103501845 -1.845300064201362 15.000000000000000
-0.758702545399890 -5.498593090593261 -1.952255227085788 7.000000000000000
-0.771185776518282 -5.503372803916363 -2.063817889061348 5.000000000000000
-0.784020828284558 -5.509797541738182 -2.177158329077577 11.000000000000000
-0.796302054583677 -5.510212124687436 -2.289948772093685 7.000000000000000
-0.806905859875935 -5.497656570793717 -2.398203319759719 5.000000000000000
-0.818092537829475 -5.486489650262667 -2.508565310512837 8.000000000000000
-0.832230930512117 -5.494736871998668 -2.629289330940440 5.000000000000000
-0.847868425874827 -5.507409444661382 -2.754671730217442 5.000000000000000
-0.860444412846290 -5.503277771402678 -2.874263937634603 7.000000000000000
-0.872610311864738 -5.489646255981543 -2.990598473184783 4.000000000000000
-0.684661616264641 -5.503099876880196 -1.112414588314569 28.000000000000000
-0.696908704241191 -5.508512742987145 -1.215920070687671 6.000000000000000
-0.709547907572017 -5.516013454257958 -1.320148983753490 6.000000000000000
-0.721232286425649 -5.517549135235339 -1.424784730856205 19.000000000000000
-0.732012034910310 -5.509531342779088 -1.527389525851654 13.000000000000000
-0.741560797130284 -5.496056634731706 -1.628449892376518 9.000000000000000
-0.753107119213788 -5.495787540971919 -1.734500784516210 15.000000000000000
-0.766347214962807 -5.504826862325451 -1.844540366036721 5.000000000000000
-0.779486366324151 -5.515465224064527 -1.956849602511551 6.000000000000000
-0.790566950355256 -5.508969543702852 -2.064547035928310 13.000000000000000
-0.801441794696933 -5.500579618285808 -2.172173775877914 7.000000000000000
-0.812793327129222 -5.493712226407253 -2.281777592316497 8.000000000000000
-0.825136705660376 -5.492153140074993 -2.394516089512935 6.000000000000000
-0.839744941636274 -5.502623782261892 -2.514681678440058 4.000000000000000
-0.853544421491561 -5.507129046655242 -2.633987012881187 7.000000000000000
-0.867180541820442 -5.505484104689645 -2.752507707690874 6.000000000000000
-0.877669405831910 -5.487294527418816 -2.864751155585104 5.000000000000000
-0.890513010495699 -5.477258827337806 -2.982720623271305 6.000000000000000
-0.702612222428382 -5.509134463456849 -1.112056441214323 4.000000000000000
-0.715034599949210 -5.514499833883016 -1.215681332825205 11.000000000000000
-0.726838410465998 -5.514232277598310 -1.318182200518659 23.000000000000000
-0.737647487016561 -5.508070870563439 -1.420819295247875 10.000000000000000
-0.748539583040223 -5.500078120601847 -1.523274486065733 18.000000000000000
-0.759760596817228 -5.498040400653906 -1.627566154815639 11.000000000000000
-0.772523706923105 -5.505298050868165 -1.736051984633226 5.000000000000000
-0.786497268112412 -5.518011046449875 -1.847528115755989 10.000000000000000
-0.797142804453115 -5.509860671778098 -1.953458145674393 11.000000000000000
-0.808354170835547 -5.503376769417327 -2.061075366969991 7.000000000000000
-0.819904130411042 -5.498685644713182 -2.170077739980780 13.000000000000000
-0.832500554524874 -5.499122602438315 -2.282703973376273 6.000000000000000
-0.846125071600979 -5.504754965654434 -2.398716559185574 4.000000000000000
-0.859826074647020 -5.507885184782934 -2.515821120947546 9.000000000000000
-0.871550950812373 -5.498022537230946 -2.628399345654812 5.000000000000000
-0.884202284367734 -5.489338412643570 -2.743237159232618 6.000000000000000
-0.898230102499840 -5.492323535525381 -2.866210889672480 5.000000000000000
-0.912955088615438 -5.492634724627628 -2.989962673343258 3.000000000000000
-0.721619429642972 -5.522894997881036 -1.113236830662003 21.000000000000000
-0.733715405826912 -5.524307654666688 -1.216265859030535 16.000000000000000
-0.743600317869105 -5.508544940297242 -1.315270013339695 9.000000000000000
-0.754532725929952 -5.502388446556921 -1.417824301067528 24.000000000000000
-0.766075129857277 -5.498222367171195 -1.521254645531952 10.000000000000000
-0.780127406905404 -5.515175657363435 -1.631151341053570 4.000000000000000
-0.792548610285696 -5.518530461717492 -1.738760548042868 15.000000000000000
-0.803449163454886 -5.508588802344280 -1.842936474334060 9.000000000000000
-0.814213578035245 -5.500473338417783 -1.948720940180554 10.000000000000000
-0.825550950474033 -5.494025361903214 -2.056192342884215 11.000000000000000
-0.838919996077016 -5.500423881305930 -2.169408759579795 6.000000000000000
-0.853381450281505 -5.511790356887366 -2.286633149860041 7.000000000000000
-0.866063071672868 -5.510033985593543 -2.399717532020945 8.000000000000000
-0.877649235148332 -5.498684148276576 -2.510352257659362 5.000000000000000
-0.888341701607205 -5.481725111034159 -2.619377565041579 7.000000000000000
-0.904030292123534 -5.490849892496186 -2.742792862940556 5.000000000000000
-0.920004386750936 -5.504309033789321 -2.871297614129247 4.000000000000000
-0.933741703591693 -5.497517409707744 -2.991490056967252 7.000000000000000
-0.736553281997408 -5.505492879706376 -1.108121570172359 9.000000000000000
-0.748247952429383 -5.503077975619483 -1.210005700786987 12.000000000000000
-0.759797193431864 -5.498955403936203 -1.311416673057760 20.000000000000000
-0.772462951423475 -5.504336578468115 -1.416783617782213 6.000000000000000
-0.786325257336562 -5.515414981531456 -1.524488822908504 6.000000000000000
-0.798408731770238 -5.517049426484802 -1.630206466297064 15.000000000000000
-0.808777588344373 -5.505252610618153 -1.733106028456969 7.000000000000000
-0.820903868084843 -5.502877352471132 -1.839580844383755 15.000000000000000
-0.833486952636317 -5.505971664580302 -1.949249991310466 7.000000000000000
-0.847248029928301 -5.514294474064126 -2.062384840200406 5.000000000000000
-0.859674828350620 -5.513155936002215 -2.173065764035657 11.000000000000000
-0.871459468123987 -5.506114428980057 -2.282945091410368 6.000000000000000
-0.881961480518654 -5.489855563401795 -2.389630481866954 5.000000000000000
-0.896001151649938 -5.493034739197256 -2.506504995050700 7.000000000000000
-0.909753396226827 -5.493943190592083 -2.623980368943454 4.000000000000000
-0.925660041130267 -5.502921114719963 -2.747619459354571 6.000000000000000
-0.938875078984386 -5.498695029120071 -2.867202567450072 6.000000000000000
-0.950350419992480 -5.478023672915682 -2.979757493185561 5.000000000000000
-0.754043945506342 -5.507487202736042 -1.106899471471530 23.000000000000000
-0.765883603173456 -5.505041453507152 -1.208836176476324 11.000000000000000
-0.779751834984090 -5.516306726184470 -1.313972289848958 5.000000000000000
-0.792061600990356 -5.517744363956075 -1.418675281474785 13.000000000000000
-0.804461920145253 -5.517271978371080 -1.523466749134183 13.000000000000000
-0.814457737652964 -5.503677550920103 -1.624748598730066 8.000000000000000
-0.826059269547462 -5.499486846375937 -1.729811119669647 16.000000000000000
-0.839470713849168 -5.504627680730509 -1.838711238102662 6.000000000000000
-0.852800971198230 -5.511413466700667 -1.949747702292247 6.000000000000000
-0.865009738346263 -5.508546955117064 -2.058835737944297 13.000000000000000
-0.877000041874971 -5.503736498109394 -2.167984198726977 6.000000000000000
-0.888321839314414 -5.493079277453854 -2.276204815345949 9.000000000000000
-0.901894278089504 -5.495027542447453 -2.390577130923267 6.000000000000000
-0.917916631221582 -5.508924317058558 -2.512480433167134 4.000000000000000
-0.931255297420903 -5.506096662990804 -2.628544675067752 7.000000000000000
-0.943733805981270 -5.493702290927214 -2.741814297524395 5.000000000000000
-0.955878223276111 -5.482512677930074 -2.857601714480611 5.000000000000000
-0.968055927757500 -5.465433158224869 -2.971788033105609 6.000000000000000
-0.930512984514551 -5.174540940322946 -2.932349167914957 6.000000000000000
-0.935861181220386 -5.128437910694711 -3.026561158416274 21.000000000000000
-0.772094433648733 -5.513316424536315 -1.106430381211008 6.000000000000000
-0.785737498059581 -5.522433917158714 -1.211034357381379 5.000000000000000
-0.798147954703376 -5.522035307943142 -1.313738901088078 22.000000000000000
-0.809497080510373 -5.515749271414270 -1.416590431824995 10.000000000000000
-0.820338833961678 -5.503809572149122 -1.518205648459420 14.000000000000000
-0.831573477034234 -5.497857878170152 -1.621514200904694 14.000000000000000
-0.845046591387024 -5.505000823453532 -1.730053811926412 5.000000000000000
-0.858638298164911 -5.510078034398677 -1.839066156439641 9.000000000000000
