# This PCD file was generated using the MATLAB® pcwrite function
# from Computer Vision Toolbox®.
# .PCD v.7 - Point Cloud Data file format
VERSION .7
FIELDS x y z intensity
SIZE 8 8 8 8
TYPE F F F F
COUNT 1 1 1 1
WIDTH 632
HEIGHT 1
VIEWPOINT 0 0 0 1 0 0 0
POINTS 632
DATA ascii
-2.325830870692242 -5.517821688051696 -2.669323993036684 10.000000000000000
-2.355567721954834 -5.522107015216366 -2.799108933175469 4.000000000000000
-2.358475049294667 -5.460673418022036 -2.896566461098736 33.000000000000000
-2.385722634548948 -5.456803525213852 -3.025561567414305 27.000000000000000
-2.227270653829721 -4.910511051100274 -3.092701513500940 3.000000000000000
-1.966822236719536 -4.119561140996010 -3.046140229001485 79.000000000000000
-1.972914122977006 -5.528349824455468 -0.961073400839437 7.000000000000000
-2.002679424699220 -5.545027212450112 -1.070519656556643 8.000000000000000
-2.021243213712967 -5.530299635009363 -1.174043362927700 27.000000000000000
-2.043017385597007 -5.524675834064291 -1.280945311344088 19.000000000000000
-2.074044646678454 -5.542644768473649 -1.394212241409512 4.000000000000000
-2.097209311361129 -5.540616612528643 -1.503271318595488 16.000000000000000
-2.117213744718282 -5.529244334354244 -1.611011809450039 15.000000000000000
-2.145242673875962 -5.537405539588200 -1.725378149948419 5.000000000000000
-2.169494916194886 -5.536355809238655 -1.838540769772031 13.000000000000000
-2.189209567904934 -5.522461398556959 -1.948662507783686 11.000000000000000
-2.222356727824789 -5.541802310705897 -2.071704062685276 5.000000000000000
-2.243837686540354 -5.530646313781537 -2.185378637288270 12.000000000000000
-2.264794866275129 -5.517510951263850 -2.299008724728402 7.000000000000000
-2.298182476001916 -5.532857654678723 -2.426754927894610 7.000000000000000
-2.323783669141137 -5.528685533013327 -2.547924986353033 11.000000000000000
-2.350766164083372 -5.525203854125539 -2.671554755597765 5.000000000000000
-2.360635223699534 -5.482667459892483 -2.777915561147450 11.000000000000000
-2.377851571505773 -5.454551476803303 -2.892256228412421 38.000000000000000
-2.434077876384958 -5.515904226819640 -3.057395207075218 4.000000000000000
-2.368050835627864 -5.301940185560910 -3.069265304371148 2.000000000000000
-2.246835455207076 -4.907947222289077 -3.090660851735327 3.000000000000000
-1.988447579762559 -4.126559836948454 -3.051490805265578 70.000000000000000
-1.999087197771872 -5.548977237132123 -0.961809751195193 6.000000000000000
-2.019688531060702 -5.539590653995575 -1.066704093770500 28.000000000000000
-2.037000757344190 -5.521147984736027 -1.169424151120755 31.000000000000000
-2.067105270739638 -5.537473939908123 -1.281312672425750 3.000000000000000
-2.092884482292896 -5.540706293884625 -1.391209656624371 19.000000000000000
-2.112054853024113 -5.527744286407425 -1.497358808671909 19.000000000000000
-2.141907964587654 -5.541582948794816 -1.612273144619895 4.000000000000000
-2.168760735851110 -5.545993520894745 -1.725813644871326 17.000000000000000
-2.186168653234811 -5.527028543903720 -1.833309055911475 14.000000000000000
-2.214468816980238 -5.534299700770865 -1.950804623910261 4.000000000000000
-2.239365704963664 -5.532417315480282 -2.066266170367833 14.000000000000000
-2.262395763277435 -5.524724289194481 -2.181220515832557 11.000000000000000
-2.293480954714209 -5.535692822096172 -2.304875287245735 4.000000000000000
-2.317090784234388 -5.526824544757551 -2.422518678788992 11.000000000000000
-2.339976612039168 -5.515821014818229 -2.540529863551952 7.000000000000000
-2.371444519068465 -5.522424335271488 -2.668867991149318 9.000000000000000
-2.372674572869125 -5.459883514978906 -2.765173299111992 4.000000000000000
-2.411698124354020 -5.481315288816056 -2.905379641557820 7.000000000000000
-2.459645652758895 -5.522638460680203 -3.060193408181918 8.000000000000000
-2.385776334663582 -5.292596052267760 -3.063102072814245 2.000000000000000
-2.269314845321440 -4.911629724037663 -3.092560037695863 3.000000000000000
-2.004319631255718 -4.121503172830693 -3.047938715281110 71.000000000000000
-2.013253552660538 -5.536111279108305 -0.956716278752237 32.000000000000000
-2.035317324630870 -5.530411617947327 -1.062155696746321 40.000000000000000
-2.060931013406982 -5.534017768807588 -1.169448884089918 4.000000000000000
-2.088529353272075 -5.542868980012463 -1.279940862280955 22.000000000000000
-2.107563598242461 -5.527793673899748 -1.385441726727331 20.000000000000000
-2.128228457609606 -5.518455623188220 -1.492411192373926 4.000000000000000
-2.163889470631443 -5.546640015602043 -1.611394084701982 16.000000000000000
-2.183884938052734 -5.533054939723630 -1.719538778668964 16.000000000000000
-2.208467186889340 -5.531860051640367 -1.832763228979275 5.000000000000000
-2.235550462762366 -5.535471659039934 -1.949171013638529 15.000000000000000
-2.257758838890225 -5.526487661736873 -2.062114242733214 15.000000000000000
-2.289543976660385 -5.539588309570438 -2.185257362282230 4.000000000000000
-2.315104622220086 -5.536542785246668 -2.303512225994957 11.000000000000000
-2.337421630738524 -5.524154209965633 -2.419752959430908 10.000000000000000
-2.367698860568297 -5.530008876406425 -2.545589898732657 6.000000000000000
-2.367401841099728 -5.462541545752242 -2.638596669384754 41.000000000000000
-2.367082811155560 -5.397201907690751 -2.732242034072240 4.000000000000000
-2.454521017167376 -5.527690719427210 -2.928884068487846 10.000000000000000
-2.477964556234930 -5.513004881271502 -3.053924170165335 8.000000000000000
-2.409317268290127 -5.296091014041405 -3.064373716064813 1.000000000000000
-2.291842018200448 -4.915238482496142 -3.094418656840072 3.000000000000000
-2.021640558719424 -4.119393151801570 -3.046577343878034 71.000000000000000
-2.030075358040354 -5.530625990063825 -0.952887295910626 30.000000000000000
-2.052273505789332 -5.524882511371387 -1.058296127262007 6.000000000000000
-2.084954017386061 -5.546802096955855 -1.169424321019468 13.000000000000000
-2.107220731957459 -5.540882864529427 -1.276845279731596 16.000000000000000
-2.124973273997449 -5.522117316795652 -1.381479252230072 10.000000000000000
-2.159835120679265 -5.548888742216236 -1.498180889607895 10.000000000000000
-2.178844173695551 -5.533657799130993 -1.605263040398580 13.000000000000000
-2.201785523353606 -5.527221741086200 -1.715466214769187 6.000000000000000
-2.232242195683607 -5.540164657324553 -1.833350580096874 10.000000000000000
-2.255220645680351 -5.533054872305562 -1.946262988229697 14.000000000000000
-2.279012394311973 -5.527498345956825 -2.060543749115018 5.000000000000000
-2.309573739290874 -5.537007825779408 -2.182399935858590 13.000000000000000
-2.330942736854829 -5.523558625190781 -2.296389790863962 10.000000000000000
-2.363581451114006 -5.535072807627535 -2.422931228535397 4.000000000000000
-2.363383023827990 -5.469679859061243 -2.516355881440747 34.000000000000000
-2.389347261832016 -5.463054219776659 -2.637509858589401 44.000000000000000
-2.377232108556409 -5.371110818481871 -2.717852107388381 2.000000000000000
-2.471185009292717 -5.514732631288662 -2.920943795290656 7.000000000000000
-2.500661798379067 -5.513080558730805 -3.053036737917186 4.000000000000000
-2.404838325358158 -5.238373218606130 -3.030238051948829 2.000000000000000
-2.370924394539777 -5.103877066685488 -3.081267986322860 1.000000000000000
-2.312936860855893 -4.915628263116162 -3.094256915084407 3.000000000000000
-2.041924381426897 -4.123206434461149 -3.049608748569651 71.000000000000000
-2.046876293673003 -5.525093074421236 -0.949035277206262 15.000000000000000
-2.081648782656389 -5.552487594527061 -1.060752496244179 7.000000000000000
-2.099324514125715 -5.533813079774367 -1.163947328064706 23.000000000000000
-2.124512066697957 -5.535189072949843 -1.272881143371772 17.000000000000000
-2.153644361976380 -5.545444422757549 -1.384747672406256 5.000000000000000
-2.174627209537776 -5.535863031771695 -1.492193349737701 14.000000000000000
-2.195157102041328 -5.524229888920708 -1.600157939614904 11.000000000000000
-2.229701154054467 -5.546305151954763 -1.719107886378345 7.000000000000000
-2.250324757764881 -5.534215539018580 -1.829207711627009 14.000000000000000
-2.270550035625576 -5.520024288616774 -1.939616041592139 6.000000000000000
-2.307555270552039 -5.545903647700188 -2.065440728700114 11.000000000000000
-2.326686279024160 -5.527436124480598 -2.176782223555591 12.000000000000000
-2.355494737441922 -5.531162558776809 -2.297820987428957 4.000000000000000
-2.382490171868587 -5.528856313538983 -2.418601340690467 5.000000000000000
-2.383715566124978 -5.466858729844536 -2.513591002477544 44.000000000000000
-2.429046049145499 -5.503670497301763 -2.655771516576832 6.000000000000000
-2.410912425835764 -5.398064278867221 -2.730301689588246 1.000000000000000
-2.490746783325241 -5.508299675275818 -2.916463466034038 5.000000000000000
-2.521894206899003 -5.509836282617239 -3.050313057370323 7.000000000000000
-2.364231793050844 -5.103591246319468 -2.951553560282940 28.000000000000000
-2.383608480017396 -5.085040332854331 -3.069328171967585 1.000000000000000
-2.335547073984273 -4.919092632026998 -3.096036747640636 3.000000000000000
-2.060766412046599 -4.123968163388794 -3.050395446878362 69.000000000000000
-2.073338226820586 -5.545408423321369 -0.949594658662778 4.000000000000000
-2.097270875309774 -5.543145557673824 -1.056121300807023 28.000000000000000
-2.116435088172358 -5.528122310838310 -1.159995790494330 30.000000000000000
-2.147432893257739 -5.544035888990813 -1.272241341309321 3.000000000000000
-2.173945751898140 -5.546894711108100 -1.382524839445936 17.000000000000000
-2.190781365890504 -5.526409974638469 -1.487163003535042 18.000000000000000
-2.221489825599946 -5.539859082832677 -1.602293449126033 4.000000000000000
-2.249083344448765 -5.543906736719911 -1.716070570890006 17.000000000000000
-2.266932469358095 -5.524676029986896 -1.823871690404303 11.000000000000000
-2.300397466836704 -5.542100813904620 -1.945290225927490 6.000000000000000
-2.323055118436302 -5.532806217874774 -2.058593275067499 12.000000000000000
-2.348163434845363 -5.528204411932681 -2.175230668950597 6.000000000000000
-2.381592023236390 -5.542116430734821 -2.300630544662901 9.000000000000000
-2.343635652894221 -5.389799063764833 -2.356196506814066 1.000000000000000
-2.408502521345159 -5.474101191590037 -2.515447425192293 12.000000000000000
-2.461601407768256 -5.527405304028189 -2.665868172711167 10.000000000000000
-2.438831914806371 -5.411639368747010 -2.735974092338840 0.000000000000000
-2.384620292732345 -5.226392885053139 -2.766185002951727 1.000000000000000
-2.364791726482183 -5.120389963923036 -2.833850861939928 15.000000000000000
-2.378187796021947 -5.087833936608601 -2.941728852281613 49.000000000000000
-2.402181865595057 -5.078878816803673 -3.065046859157161 1.000000000000000
-2.356701161912399 -4.919345239264524 -3.095801358350728 3.000000000000000
-2.081137182873281 -4.127650018290324 -3.053354442669595 67.000000000000000
-2.090175552314534 -5.539754013927940 -0.945678394421644 34.000000000000000
-2.111444080635358 -5.530083551845402 -1.050772955475565 29.000000000000000
-2.137768453376125 -5.533369261822085 -1.158320617131696 4.000000000000000
-2.168998757759590 -5.549159666695270 -1.270722386030794 20.000000000000000
-2.185671396639219 -5.526536476381064 -1.374858218560276 22.000000000000000
-2.214097750275422 -5.534932172092302 -1.486954270501585 3.000000000000000
-2.242140681395521 -5.541064610576266 -1.600235028441294 17.000000000000000
-2.264095086406532 -5.530772629031913 -1.709702771145095 19.000000000000000
-2.295204515324388 -5.543375656942271 -1.827842049755501 5.000000000000000
-2.321585360387725 -5.543001063504673 -1.943511416076442 14.000000000000000
-2.341437981817104 -5.526641432145158 -2.054321945995988 10.000000000000000
-2.375591496036923 -5.542735547824925 -2.179080469105025 6.000000000000000
-2.397371467135494 -5.528969167171976 -2.293428437302164 9.000000000000000
-2.297881771089008 -5.237388819136954 -2.288033593126654 3.000000000000000
-2.457303262223110 -5.535195209740695 -2.542026488361463 10.000000000000000
-2.480834771551423 -5.520955995164479 -2.661399582121933 8.000000000000000
-2.456337778154441 -5.401957977202505 -2.729886212308038 1.000000000000000
-2.368480755515189 -5.144854288630596 -2.722026682366201 1.000000000000000
-2.374066736220839 -5.094795330621491 -2.818831614525278 39.000000000000000
-2.396586994028120 -5.081666004770941 -2.937454918123953 42.000000000000000
-2.423757753096620 -5.079005537243888 -3.064566055243377 1.000000000000000
-2.379393236532688 -4.922664402179946 -3.097502059636579 3.000000000000000
-2.100042662316469 -4.128287512748569 -3.054073841369097 66.000000000000000
-2.105585812979104 -5.530360091326924 -0.941110856615513 16.000000000000000
-2.131214912597420 -5.531690904421204 -1.048197850725755 7.000000000000000
-2.164852422305816 -5.553177667684476 -1.159661925203650 17.000000000000000
-2.183433128812039 -5.536012757880393 -1.265005342515036 14.000000000000000
-2.204506709296515 -5.524260189480066 -1.371683464795107 8.000000000000000
-2.238936208373628 -5.546973233660246 -1.487665486556139 12.000000000000000
-2.256971526194726 -5.527892611976256 -1.594014680109494 18.000000000000000
-2.286380226593792 -5.535379135264479 -1.708808733685421 4.000000000000000
-2.314763191899512 -5.540781083442212 -1.824771862671091 18.000000000000000
-2.335387016950276 -5.526301298847003 -1.935556104953306 14.000000000000000
-2.368724793116039 -5.541308916141879 -2.057780928661726 5.000000000000000
-2.394173715537515 -5.536444282030202 -2.174732381651672 10.000000000000000
-2.416078234705757 -5.522636413002562 -2.289051553276882 6.000000000000000
-2.359375299768849 -5.329846416889580 -2.326856542034756 8.000000000000000
-2.462808404971810 -5.498433289718290 -2.523654120302129 5.000000000000000
-2.503068504217262 -5.521124270876676 -2.660119329791813 4.000000000000000
-2.449543299685343 -5.339365610071006 -2.697074063676731 1.000000000000000
-2.371533504577168 -5.105966562229064 -2.700457424598034 26.000000000000000
-2.390788266079939 -5.085381095135803 -2.812772046222348 36.000000000000000
-2.492668199371324 -5.238756846185181 -3.027534963363892 2.000000000000000
-2.445356360585354 -5.079064058014022 -3.064049047312215 1.000000000000000
-2.399079313406095 -4.919649606450063 -3.095223771836647 3.000000000000000
-2.117448215310001 -4.125892017682834 -3.052561565947780 68.000000000000000
-2.126619240117857 -5.535678186218675 -0.939028022043677 18.000000000000000
-2.158145700590777 -5.551593311206500 -1.049058073696966 7.000000000000000
-2.179135812908721 -5.539994309550578 -1.154091053186815 17.000000000000000
-2.199246719923119 -5.526468208136817 -1.260104364471629 14.000000000000000
-2.230622529660585 -5.540007814687781 -1.372960503207916 6.000000000000000
-2.256544643348288 -5.540947001275234 -1.483512251932937 17.000000000000000
-2.277622837738044 -5.528982029152355 -1.591896959707002 6.000000000000000
-2.311671210494741 -5.547013862006186 -1.710063574631363 15.000000000000000
-2.329861174533223 -5.527545004537529 -1.818190619878696 15.000000000000000
-2.361043064122811 -5.537594250507715 -1.937395562630789 4.000000000000000
-2.391628388706053 -5.545446662571792 -2.057312558389380 15.000000000000000
-2.409721793545679 -5.523200697824368 -2.167651016483832 11.000000000000000
-2.443823359763220 -5.536782626699246 -2.293152749154971 4.000000000000000
-2.451825444868164 -5.489883541735411 -2.395102228732564 13.000000000000000
-2.378414694707351 -5.263265303189509 -2.414287035180692 2.000000000000000
-2.526848016514536 -5.524554331391961 -2.660406461602225 9.000000000000000
-2.369014183001026 -5.118449724880663 -2.584349089153598 18.000000000000000
-2.386577546236408 -5.093242416446322 -2.692735654146583 47.000000000000000
-2.431997834271059 -5.127652267034580 -2.835296238927427 12.000000000000000
-2.543850392974220 -5.299445504395285 -3.061876307774289 1.000000000000000
-2.474657918583486 -5.094866990909214 -3.073033441232901 1.000000000000000
-2.420302841793689 -4.919701093763201 -3.094881468171366 3.000000000000000
-2.139467187966994 -4.132349667483606 -3.057611874856049 66.000000000000000
-2.151981989832803 -5.551977915256821 -0.938775129589495 4.000000000000000
-2.175141771880052 -5.545718717758077 -1.045019701120618 19.000000000000000
-2.194800490517309 -5.530428405132150 -1.149266053850217 23.000000000000000
-2.223764480089290 -5.538674105250364 -1.260143123983261 4.000000000000000
-2.250982708271090 -5.541209989866317 -1.370607418362488 19.000000000000000
-2.269702981869426 -5.524095672617436 -1.476455002315463 13.000000000000000
-2.305715609423776 -5.547855718929875 -1.594875684934924 7.000000000000000
-2.329596649666533 -5.540821963855992 -1.705806382539795 15.000000000000000
-2.350883037759226 -5.528367615482495 -1.816225881012695 5.000000000000000
-2.385285879185053 -5.545297276439988 -1.937960110649247 14.000000000000000
-2.405511404166255 -5.528671660982679 -2.049079927546295 14.000000000000000
-2.434299754698969 -5.530595631471881 -2.168662413889419 4.000000000000000
-2.464073307403384 -5.533738002779971 -2.290122802893087 10.000000000000000
-2.479729344062485 -5.503750015935850 -2.399519564888265 14.000000000000000
-2.376644169502800 -5.213338540314957 -2.389963965342374 3.000000000000000
-2.387895986885580 -5.175131731197002 -2.490856142087226 11.000000000000000
-2.380833162579473 -5.099062556607586 -2.573429325970375 45.000000000000000
-2.403094204673293 -5.083745973741021 -2.686724607758972 37.000000000000000
-2.637300134498572 -5.512034150706505 -3.046918364843246 5.000000000000000
-2.578479153529797 -5.324776431889854 -3.075780422137223 1.000000000000000
-2.488620646772449 -5.078975961702549 -3.062906210922161 1.000000000000000
-2.443098186890551 -4.922806897537615 -3.096466938103518 3.000000000000000
-2.156911797120057 -4.129836761194798 -3.056037274859126 69.000000000000000
-2.167382683367046 -5.542421689263230 -0.934125324688927 31.000000000000000
-2.189215962430041 -5.532468204503785 -1.039581182975229 31.000000000000000
-2.216260156689848 -5.535407944168413 -1.147446647782071 3.000000000000000
-2.245433819310244 -5.543535774697616 -1.258484039527523 21.000000000000000
-2.265450493151651 -5.527913753337343 -1.364656586377241 22.000000000000000
-2.300615676501442 -5.550271551533553 -1.480877176970842 3.000000000000000
-2.326469436190938 -5.548793128286300 -1.592674097846816 16.000000000000000
-2.345995748633879 -5.531036021330276 -1.700435378995248 10.000000000000000
-2.377966549132559 -5.543201116279946 -1.818844819020946 9.000000000000000
-2.400498405337953 -5.531948993749181 -1.931158133485545 11.000000000000000
-2.425391270512531 -5.525743661239040 -2.045976093506025 5.000000000000000
-2.460474131218485 -5.541347772950631 -2.170974875216138 14.000000000000000
-2.481254822631328 -5.523804331093848 -2.284238213706622 10.000000000000000
-2.500055081667218 -5.500590143026718 -2.396504259764046 9.000000000000000
-2.366834423998688 -5.146689834376359 -2.358002238782196 2.000000000000000
-2.379593468723245 -5.112351743347255 -2.459369548462363 41.000000000000000
-2.398738343005780 -5.092824986176990 -2.569150058280991 46.000000000000000
-2.441319982153999 -5.119831926788760 -2.704798289368371 1.000000000000000
-2.672598767603645 -5.537408831496143 -3.060023408451642 5.000000000000000
-2.607080526820273 -5.337211808789193 -3.082233805991319 1.000000000000000
-2.514963330543960 -5.088292733942801 -3.067986391711040 1.000000000000000
-2.464378181610928 -4.922719618879134 -3.096050343890176 3.000000000000000
-2.179037852536879 -4.136153108393209 -3.061008902492878 74.000000000000000
-2.182738810075640 -5.532825615478534 -0.929457904207694 14.000000000000000
-2.206144929825271 -5.526505272734155 -1.035501819915274 5.000000000000000
-2.240707301955696 -5.547600394397870 -1.147094002703800 16.000000000000000
-2.261224865348884 -5.533828706432558 -1.253501478336137 24.000000000000000
-2.287300371653267 -5.532605647406495 -1.363133067649882 4.000000000000000
-2.319721867832563 -5.547655579454104 -1.477589938938120 17.000000000000000
-2.339712590535545 -5.531853918328132 -1.585333157404822 17.000000000000000
-2.372948600071436 -5.545982067428930 -1.702651417400441 5.000000000000000
-2.396036185260387 -5.536842371268030 -1.814493635881339 12.000000000000000
-2.418696707838588 -5.525546306049523 -1.926776649015980 7.000000000000000
-2.454474225239343 -5.543543841566047 -2.050531139551626 10.000000000000000
-2.475960939916634 -5.527942424818876 -2.163814680580278 10.000000000000000
-2.504568867278329 -5.527465400930261 -2.283969577419768 3.000000000000000
-2.528129386415587 -5.514273497197056 -2.400817694797359 10.000000000000000
-2.365911725305537 -5.100242643980116 -2.335322393287165 1.000000000000000
-2.391138037404290 -5.092818481157227 -2.448704719655221 49.000000000000000
-2.430679102171738 -5.116128693021997 -2.579767876903394 6.000000000000000
-2.482953453900798 -5.162270953318781 -2.726212895260255 1.000000000000000
-2.692421299757099 -5.530436510926842 -3.055251797024534 7.000000000000000
-2.629515467338547 -5.336799384416993 -3.081269338683940 1.000000000000000
-2.538255350161218 -5.091215477006422 -3.069215004535887 1.000000000000000
-2.482535791871667 -4.916337575275420 -3.091681886613032 2.000000000000000
-2.198091721328746 -4.136478970152663 -3.061560143800999 80.000000000000000
-2.200973187754671 -5.530534514576537 -0.926002705105502 17.000000000000000
-2.234829090746699 -5.549742026846789 -1.036863718433032 6.000000000000000
-2.256349169120805 -5.537873140786399 -1.142188033365978 22.000000000000000
-2.276970317682813 -5.524080726398704 -1.248500821233928 9.000000000000000
-2.310696492726630 -5.540824408582177 -1.362454620073941 12.000000000000000
-2.335807544035099 -5.537822204447120 -1.472369637408063 17.000000000000000
-2.365007493601158 -5.543352627224571 -1.586129000255909 4.000000000000000
-2.392386038122312 -5.543152881820261 -1.699390824197060 17.000000000000000
-2.414081760298898 -5.530432428350240 -1.810117788997238 13.000000000000000
-2.446107184832125 -5.540010914071915 -1.929656630666897 5.000000000000000
-2.472874940577082 -5.537010457186750 -2.046070557256143 11.000000000000000
-2.494479559589975 -5.521368198860276 -2.159326038235600 5.000000000000000
-2.531040440365094 -5.537860629181826 -2.286471067167555 8.000000000000000
-2.550070816131294 -5.514347230578348 -2.399195167827821 10.000000000000000
-2.386612656659041 -5.100700378453015 -2.334127604978816 2.000000000000000
-2.415129023704670 -5.099794522254002 -2.450785920811405 28.000000000000000
-2.579255915317492 -5.382316790464252 -2.712792083884483 1.000000000000000
-2.510715164029068 -5.175278425701275 -2.732073677920387 0.000000000000000
-2.707478570921007 -5.513757342327327 -3.045123274669686 6.000000000000000
-2.648808049464474 -5.329951816072224 -3.076593823604379 1.000000000000000
-2.555262859624283 -5.081475398180133 -3.062815615722696 1.000000000000000
-2.507004068484807 -4.922342094215269 -3.095109514721097 2.000000000000000
-2.209257130287645 -4.121980082810195 -3.051150459939537 75.000000000000000
-2.226570272700304 -5.546529595259409 -0.925579963935473 3.000000000000000
-2.251802217440064 -5.543651121905247 -1.032716327037920 22.000000000000000
-2.270451837667772 -5.524470901503694 -1.136516480861584 19.000000000000000
-2.307703953574487 -5.550451282824973 -1.251636137079502 6.000000000000000
-2.331134266343644 -5.541768981525455 -1.359965289145572 17.000000000000000
-2.353368116575230 -5.531522758696630 -1.468079860875549 7.000000000000000
-2.388863097203746 -5.551206423555059 -1.585857605808035 19.000000000000000
-2.411822240263470 -5.540264753045607 -1.696100217419654 17.000000000000000
-2.438279865913548 -5.538000484379433 -1.810303270309640 3.000000000000000
-2.468978241891362 -5.543927606569419 -1.928843470628066 13.000000000000000
-2.489693917383449 -5.526968416466071 -2.040308878853983 10.000000000000000
-2.522350083974645 -5.535318891779764 -2.162852473050148 5.000000000000000
-2.548193347909810 -5.527751490660367 -2.280498655814180 10.000000000000000
-2.570459965210035 -5.510978435231653 -2.396069334068631 6.000000000000000
-2.440464594902785 -5.171290320479537 -2.365001687597839 5.000000000000000
-2.622681245075623 -5.490847984355876 -2.637338715338549 7.000000000000000
-2.625098761370787 -5.431303373190085 -2.736270483966008 1.000000000000000
-2.538590573453214 -5.188184492359553 -2.737875741083648 0.000000000000000
-2.741533856385156 -5.535600057217243 -3.056270295773984 4.000000000000000
-2.674446257895456 -5.335761340146361 -3.079227847144232 1.000000000000000
-2.580190927549901 -5.087402427093068 -3.065864857131955 1.000000000000000
-2.531539764732953 -4.928262374516979 -3.098490017330391 3.000000000000000
-2.228302658365485 -4.122203707670036 -3.051650021741141 75.000000000000000
-2.243375719916288 -5.540442983608679 -0.921445019885303 31.000000000000000
-2.265763193944892 -5.530216316268457 -1.027190656228326 33.000000000000000
-2.296525930252520 -5.540080146445447 -1.136792251310150 4.000000000000000
-2.326499722128642 -5.547804882931745 -1.248197109375772 19.000000000000000
-2.347021504937886 -5.531871469155496 -1.354801868947085 15.000000000000000
-2.381632960196083 -5.550174332824339 -1.470389512396477 7.000000000000000
-2.402000496697027 -5.534128470190634 -1.578452308209757 15.000000000000000
-2.428159840884581 -5.530263739539216 -1.690623186358535 5.000000000000000
-2.464100586450976 -5.548987540655093 -1.811585375715566 15.000000000000000
-2.485644056287506 -5.533854918821424 -1.923153494362458 14.000000000000000
-2.515876074999010 -5.537596799475942 -2.042166805547816 4.000000000000000
-2.542461991305863 -5.532040271560978 -2.159633639438079 12.000000000000000
-2.565297910284404 -5.517597614269085 -2.274506363697973 6.000000000000000
-2.601938959742764 -5.531127711574847 -2.403157066864655 8.000000000000000
-2.504356659341037 -5.261670733648542 -2.404877296969765 12.000000000000000
-2.665671204331431 -5.533557416515377 -2.656464445183842 5.000000000000000
-2.655340274819293 -5.447338774533887 -2.743131841596798 0.000000000000000
-2.560178773970885 -5.188018583708635 -2.736776903659262 0.000000000000000
-2.764550918603992 -5.534851719381919 -3.054942661147804 8.000000000000000
-2.701754643492706 -5.344656824605407 -3.083644154821442 1.000000000000000
-2.600370171587767 -5.083829216785489 -3.063193670872749 1.000000000000000
-2.552929262933540 -4.927895578430674 -3.097924038213498 2.000000000000000
-2.247372118148736 -4.122366008540011 -3.052116815294192 73.000000000000000
-2.261652994632522 -5.537968998851185 -0.917893838977546 23.000000000000000
-2.288690688590742 -5.538612718508362 -1.025701753111232 4.000000000000000
-2.319678826534540 -5.548339232997584 -1.135527145121210 26.000000000000000
-2.339190777858114 -5.530670314061774 -1.241489581889187 25.000000000000000
-2.372074303618825 -5.543460860461643 -1.354881982550919 3.000000000000000
-2.399224992410647 -5.543746464566889 -1.466032254895593 16.000000000000000
-2.422805921291841 -5.534753299279158 -1.576088000040505 12.000000000000000
-2.455369911193995 -5.544879917843137 -1.692655102465674 9.000000000000000
-2.477474519390302 -5.531889937023959 -1.803687814014622 12.000000000000000
-2.502262096408713 -5.523738918690813 -1.917444330095853 4.000000000000000
-2.535827896631051 -5.534338650370592 -2.038890036682202 14.000000000000000
-2.559400018563113 -5.521858288716441 -2.153715065720783 10.000000000000000
-2.601447180395197 -5.548119306189511 -2.285266884173727 5.000000000000000
-2.620807278159682 -5.524241904279822 -2.398487980737882 11.000000000000000
-2.524075649492231 -5.258393353134384 -2.401917038399223 14.000000000000000
-2.691326721652037 -5.539749784780763 -2.658043791840757 10.000000000000000
-2.680892063132689 -5.453447163631887 -2.744987391466031 0.000000000000000
-2.585011025336336 -5.194260415693281 -2.739056905734426 0.000000000000000
-2.779516243765748 -5.518008374441346 -3.044735954107931 7.000000000000000
-2.727535564624988 -5.350286188124260 -3.086177481751920 1.000000000000000
-2.623780227228278 -5.086462985664800 -3.064267549459065 1.000000000000000
-2.575957762836820 -4.930557664451435 -3.099268739815883 3.000000000000000
-2.269698449174731 -4.128347686118065 -3.056905352204649 69.000000000000000
-2.276917490377534 -5.528126930216427 -0.913106448027157 10.000000000000000
-2.313200799344489 -5.550568062414188 -1.024839619852601 12.000000000000000
-2.335261046278873 -5.538405680060579 -1.130519512792771 20.000000000000000
-2.364087594934862 -5.542340461173123 -1.241231668915353 4.000000000000000
-2.395669219641825 -5.551375596896273 -1.354036178336929 19.000000000000000
-2.413682348704231 -5.530142260125285 -1.459769879922872 18.000000000000000
-2.448322566803225 -5.545935632413565 -1.576708777805090 4.000000000000000
-2.476406496291735 -5.545320791949350 -1.690338480748259 14.000000000000000
-2.497068868401811 -5.528745425793091 -1.800334714221352 7.000000000000000
-2.531513575267256 -5.541338509184929 -1.921340819548088 10.000000000000000
-2.552594494945645 -5.524132055026501 -2.033047560437747 15.000000000000000
-2.589067248770262 -5.538968294502645 -2.158429293222190 3.000000000000000
-2.616989672515939 -5.534436651036564 -2.277805963994319 11.000000000000000
-2.641257187525388 -5.520662727088847 -2.395251035502838 6.000000000000000
-2.550240787610912 -5.268376962666426 -2.405007298211665 15.000000000000000
-2.707349625879810 -5.526058956783319 -2.650081208077086 9.000000000000000
-2.709748750550871 -5.466001907524125 -2.750081608940109 0.000000000000000
-2.609909746820278 -5.200416316234770 -2.741288976246705 0.000000000000000
-2.807390179993713 -5.526735784562120 -3.048641655707572 3.000000000000000
-2.745245051708597 -5.340000137896326 -3.079534402038187 1.000000000000000
-2.643977251651386 -5.082759329185620 -3.061528685857202 1.000000000000000
-2.597400284794422 -4.930050131160778 -3.098627674437743 3.000000000000000
-2.290465557474305 -4.131314866935739 -3.059475281851392 71.000000000000000
-2.307306181880129 -5.554766048184315 -0.914313038842027 6.000000000000000
-2.330158695986712 -5.544256146956099 -1.020580339050783 18.000000000000000
-2.352335605994450 -5.532050022853808 -1.126230767389126 13.000000000000000
-2.389072583710007 -5.553920092219563 -1.240922156706470 13.000000000000000
-2.409982876420945 -5.537729540076741 -1.347916197810260 17.000000000000000
-2.437469095579590 -5.537859270427902 -1.459121348288127 3.000000000000000
-2.469203586371059 -5.546413909074398 -1.574265034318667 15.000000000000000
-2.491132904020627 -5.531636523073637 -1.683707287833478 16.000000000000000
-2.524609955827791 -5.542994133048926 -1.802627141679717 5.000000000000000
-2.549723461580458 -5.534568060309791 -1.916770892742498 16.000000000000000
-2.577326814830476 -5.531080545200289 -2.033508911232668 5.000000000000000
-2.612434359708742 -5.542315355476960 -2.157763475605580 12.000000000000000
-2.634074333321769 -5.524102740134853 -2.271722985526643 9.000000000000000
-2.673037127322472 -5.540512587945418 -2.402167516801023 6.000000000000000
-2.573248420004680 -5.271614765597707 -2.405009424529486 13.000000000000000
-2.731438882107898 -5.528804981198321 -2.650000210035043 3.000000000000000
-2.727298312935182 -5.455610794690883 -2.743628759346501 0.000000000000000
-2.631605490715952 -5.200026301732386 -2.740069160171885 0.000000000000000
-2.835351188255766 -5.535364656201962 -3.052491730066893 8.000000000000000
-2.769459732629563 -5.342312301381818 -3.080161045115643 1.000000000000000
-2.670729307836685 -5.091496690250098 -3.066288051934208 1.000000000000000
-2.617222289032867 -4.926385463218086 -3.096009327760993 3.000000000000000
-2.309639206601288 -4.131279801902259 -3.059834952039831 68.000000000000000
-2.321062131301761 -5.541156124345599 -0.908864889994215 29.000000000000000
-2.344014644450821 -5.530633340584929 -1.014965121868960 24.000000000000000
-2.381783257346103 -5.554557121228165 -1.127788855255829 5.000000000000000
-2.404788186134679 -5.543837441644060 -1.235752483490338 17.000000000000000
-2.424227135474127 -5.524050948847664 -1.341783853743264 11.000000000000000
-2.461321453584585 -5.545492749085434 -1.458426162671650 13.000000000000000
-2.483760750841173 -5.532692901410703 -1.567781168167454 16.000000000000000
-2.515352954651100 -5.538979309420641 -1.683464203165014 4.000000000000000
-2.544256326052150 -5.539709203474300 -1.799199179714617 15.000000000000000
-2.566299866537407 -5.524284655090247 -1.910978818444755 9.000000000000000
-2.603738929736521 -5.541378317415474 -2.035184003733364 10.000000000000000
-2.629363767543802 -5.531950261998474 -2.151751955199040 12.000000000000000
-2.664113531879761 -5.540769026577935 -2.276733116412581 3.000000000000000
-2.691929904107976 -5.533427923086780 -2.397395422405898 10.000000000000000
-2.597934283176840 -5.278097039279187 -2.406483971325537 14.000000000000000
-2.757209171031350 -5.534761374336297 -2.651452076944935 8.000000000000000
-2.751368536547859 -5.458208418709614 -2.743707716580248 0.000000000000000
-2.654967165682197 -5.202792416482521 -2.740511707718359 0.000000000000000
-2.853507990982488 -5.524744679844636 -3.045728873016685 7.000000000000000
-2.797016232744345 -5.350857750525218 -3.084383492273430 1.000000000000000
-2.690965881315618 -5.087653658010925 -3.063475621205968 1.000000000000000
-2.641998457362493 -4.931913835830384 -3.099175062373700 3.000000000000000
-2.327185253391587 -4.128254935194945 -3.057992803529027 55.000000000000000
-2.336289199700982 -5.531158978529895 -0.904000624772284 35.000000000000000
-2.371753770390305 -5.549624176681779 -1.015310568362433 4.000000000000000
-2.395777283403028 -5.540851602350377 -1.121969130173049 21.000000000000000
-2.420456987552525 -5.533714283030034 -1.230564994300403 20.000000000000000
-2.455785213421451 -5.549623125443708 -1.345161013069053 5.000000000000000
-2.477293921032266 -5.535289684347745 -1.453024066961738 14.000000000000000
-2.499845023504164 -5.522467464427899 -1.562282933017176 6.000000000000000
-2.539638336621388 -5.546237203830108 -1.683173787228681 14.000000000000000
-2.560674848235954 -5.529400537627991 -1.793482092492443 15.000000000000000
-2.599021104925219 -5.548528571750049 -1.917112407926736 4.000000000000000
-2.623736579285606 -5.537856430411669 -2.031769799624654 13.000000000000000
-2.647875622316717 -5.524945363901465 -2.147043878136765 4.000000000000000
-2.684465007057141 -5.537064367672894 -2.273360027389604 11.000000000000000
-2.710795987230489 -5.526289692159819 -2.392597616387514 9.000000000000000
-2.622685968488449 -5.284493260822933 -2.407910564578925 15.000000000000000
-2.774790389181174 -5.524197394751958 -2.644987228688159 8.000000000000000
-2.778788390987262 -5.467234427216136 -2.747013432070740 0.000000000000000
-2.675056550426121 -5.199037920636823 -2.737519525373772 0.000000000000000
-2.881573322843320 -5.533201159846466 -3.049484564602916 4.000000000000000
-2.819674838616155 -5.349847708296404 -3.083100274481950 1.000000000000000
-2.717848169515186 -5.096217125245572 -3.068138253048045 1.000000000000000
-2.660185338172916 -4.925035999438681 -3.094551723723952 3.000000000000000
-2.348054903653812 -4.131023654707223 -3.060455151391157 43.000000000000000
-2.359220698664313 -5.539320222711662 -0.902082682048320 6.000000000000000
-2.393378864767352 -5.554015969884394 -1.012950253444888 25.000000000000000
-2.412846181831035 -5.534325404507931 -1.117593673855360 28.000000000000000
-2.445570081916492 -5.545071103693218 -1.230133907109888 3.000000000000000
-2.473196703659988 -5.542966922101481 -1.340698238043970 17.000000000000000
-2.494819125740706 -5.528591657525877 -1.448532986912505 14.000000000000000
-2.530359110000555 -5.543920330429125 -1.565724798389494 6.000000000000000
-2.557522126295482 -5.539403809796512 -1.678591673254974 19.000000000000000
-2.585164236767910 -5.536437709771103 -1.793378753850033 4.000000000000000
-2.617244715130165 -5.541568759403024 -1.912444975922616 13.000000000000000
-2.640456824279410 -5.527420172909057 -2.025812921084841 8.000000000000000
-2.681146835702146 -5.548486244290232 -2.154190344961754 9.000000000000000
-2.701516080377368 -5.526554125148783 -2.267189089878360 11.000000000000000
-2.737901802211033 -5.535812374960684 -2.395005442724865 4.000000000000000
-2.640871910406017 -5.277551253885892 -2.403254525728792 14.000000000000000
-2.793983463203617 -5.516869498059823 -2.640072602926269 4.000000000000000
-2.801298753786513 -5.466412710697057 -2.745367255644276 0.000000000000000
-2.698480127191387 -5.201656157802608 -2.737882798650694 0.000000000000000
-2.908053217532125 -5.538375081819156 -3.051430473906576 7.000000000000000
-2.844024418377570 -5.351913631838233 -3.083592966819101 1.000000000000000
-2.733102100477997 -5.082896248372149 -3.059631127545785 1.000000000000000
-2.685046372166446 -4.930409549450473 -3.097633234261828 3.000000000000000
-2.365623445533974 -4.127883011918871 -3.058552525926529 55.000000000000000
-2.386899429938311 -5.558305824689726 -0.901888834935012 8.000000000000000
-2.408756744209678 -5.543859302179215 -1.007918143931026 16.000000000000000
-2.431473512200875 -5.531351942040308 -1.113920218306703 6.000000000000000
-2.469176889252854 -5.552753719770514 -1.228857850670418 22.000000000000000
-2.488980453957109 -5.532698754344910 -1.335351936191261 23.000000000000000
-2.523599582484489 -5.546637329707876 -1.450501802816945 3.000000000000000
-2.548068932614398 -5.537093036011174 -1.561156438414125 19.000000000000000
-2.572124346681180 -5.525525364079131 -1.671868953036721 8.000000000000000
-2.611353439684465 -5.546862270969080 -1.794351180774781 15.000000000000000
-2.633800113060699 -5.531108945592154 -1.906564133836548 14.000000000000000
-2.673611399188650 -5.551164805071485 -2.032366943508030 5.000000000000000
-2.699708112787214 -5.541337007420656 -2.149405563392161 11.000000000000000
-2.725156143930522 -5.529469709112410 -2.266519959586953 4.000000000000000
-2.763429778555957 -5.541899256185148 -2.395914959526877 11.000000000000000
-2.667377714094008 -5.287100542653324 -2.406102238523865 12.000000000000000
-2.826536937607229 -5.535707219161579 -2.647672661804011 4.000000000000000
-2.825504018697143 -5.468764600381089 -2.745312511526691 0.000000000000000
-2.725306031874515 -5.210620763616062 -2.741583901762183 0.000000000000000
-2.926182351959201 -5.527564840422945 -3.044572183082967 8.000000000000000
-2.865045816663600 -5.347610846602246 -3.080419890489027 1.000000000000000
-2.761764123362461 -5.094406033762455 -3.066076008528272 1.000000000000000
-2.389928583340591 -4.136348548900999 -3.065263128760111 23.000000000000000
-2.398986967943244 -5.540874256225265 -0.895762247663189 24.000000000000000
-2.424087952888364 -5.533663153589093 -1.002868734816232 18.000000000000000
-2.461256838960451 -5.553499291769941 -1.115274131763655 9.000000000000000
-2.483222856441162 -5.538884262786955 -1.222795718302615 14.000000000000000
-2.507944368286726 -5.529506451564011 -1.331701711229237 5.000000000000000
-2.542775367642848 -5.543347004836799 -1.446866066253428 16.000000000000000
-2.565753077060431 -5.530215514189545 -1.556564009018641 16.000000000000000
-2.604686773408974 -5.550034433228322 -1.676741065999261 6.000000000000000
-2.627750755860625 -5.536378365398014 -1.788545934614688 15.000000000000000
-2.658573203811462 -5.537825931170836 -1.906592897298087 4.000000000000000
-2.690346733619403 -5.540598024803766 -2.026342513111740 14.000000000000000
-2.718242499338858 -5.534135128828242 -2.144595554098078 8.000000000000000
-2.755521492884313 -5.545758280181975 -2.271317327025369 7.000000000000000
-2.778964876266529 -5.527892820220219 -2.388132991404517 12.000000000000000
-2.692290464124874 -5.293249952088877 -2.407392988586070 11.000000000000000
-2.842395980230459 -5.521688983566121 -2.639552966002817 6.000000000000000
-2.848061567067347 -5.467794437016548 -2.743587670318699 1.000000000000000
-2.743761063074376 -5.203448672978833 -2.736793952133004 0.000000000000000
-2.949342194275854 -5.526229756817005 -3.042936295083149 5.000000000000000
-2.889453299282148 -5.349523177398166 -3.080830635680472 1.000000000000000
-2.780357175357924 -5.087187336226244 -3.061253825407985 1.000000000000000
-2.410932008008764 -4.138904269682474 -3.067608563549628 14.000000000000000
-2.415733232105549 -5.534300885411079 -0.891382443757466 36.000000000000000
-2.453721621449455 -5.555918434141941 -1.003671538698398 4.000000000000000
-2.476746050649524 -5.543196478902508 -1.110083689131054 18.000000000000000
-2.498814391646539 -5.528557044119845 -1.217508786831936 14.000000000000000
-2.536655335764324 -5.547579354683125 -1.333146282683168 8.000000000000000
-2.560313976645992 -5.536464946280688 -1.442280222285658 22.000000000000000
-2.591623102334130 -5.540844373951448 -1.556880637396011 4.000000000000000
-2.622571675643238 -5.543018187614102 -1.672065542343686 17.000000000000000
-2.647414622743602 -5.532781097933823 -1.784957461014002 7.000000000000000
-2.686739492810943 -5.551334923805686 -1.908938831263411 14.000000000000000
-2.707032545732337 -5.529987948201979 -2.020299009821757 14.000000000000000
-2.745134462590792 -5.543813524811966 -2.146316002924147 4.000000000000000
-2.772559484651140 -5.535062373157377 -2.265052412048874 10.000000000000000
-2.801176766016812 -5.527169104193982 -2.386086842336438 4.000000000000000
-2.715575632285948 -5.296012431852699 -2.407135498262703 9.000000000000000
-2.859877711495849 -5.510902658208250 -2.632980700089254 4.000000000000000
-2.872336174305071 -5.469988728166949 -2.743448234522576 0.000000000000000
-2.775812753919915 -5.221852962892756 -2.745453548888358 0.000000000000000
-2.979340179661099 -5.537499668016526 -3.048241053554301 6.000000000000000
-2.912193585273261 -5.348219092536136 -3.079392319943207 1.000000000000000
-2.805753896056454 -5.092313500437819 -3.063865579300559 1.000000000000000
-2.425152808658802 -4.129763588300117 -3.061297528729422 15.000000000000000
-2.437236822468525 -5.538547009009204 -0.888723635445089 4.000000000000000
-2.472268948140881 -5.552816021442983 -0.999860230264462 26.000000000000000
-2.492187942537121 -5.532853929214347 -1.104875855944892 26.000000000000000
-2.525742903004129 -5.543175138767346 -1.217692969872078 3.000000000000000
-2.552407420662753 -5.537145720507331 -1.327717450669786 23.000000000000000
-2.577826730381203 -5.529533135966321 -1.437670562536012 7.000000000000000
-2.615925637823453 -5.547871910657236 -1.556160120398417 17.000000000000000
-2.638768525056634 -5.532467286586419 -1.666316414736872 18.000000000000000
-2.677088536097490 -5.549884004103924 -1.788026988299340 6.000000000000000
-2.701606982672835 -5.537258580313750 -1.901786298697919 14.000000000000000
-2.732080281502458 -5.536380248397970 -2.020457146433522 4.000000000000000
-2.767047644576545 -5.543248373542183 -2.144057089227181 12.000000000000000
-2.789547237342177 -5.524322326214884 -2.258768037386839 8.000000000000000
-2.831900296888885 -5.542999687332858 -2.391175270595716 6.000000000000000
-2.738902086125044 -5.298696335615286 -2.406835371511109 8.000000000000000
-2.880723697903281 -5.506599182391880 -2.629505736981674 2.000000000000000
-2.898361601119318 -5.475333892438058 -2.744885206247463 0.000000000000000
-2.797733031908375 -5.220938571232218 -2.743952316930535 0.000000000000000
-2.997427909036634 -5.526503061805545 -3.041290160110048 11.000000000000000
-2.941824135080572 -5.359364156658979 -3.085124080904435 1.000000000000000
-2.829494770128224 -5.094256319821143 -3.064566509929155 1.000000000000000
-2.774811578522176 -4.932687812916511 -3.097953460593653 2.000000000000000
-2.446199160876493 -4.132193844975239 -3.063576291342502 7.000000000000000
-2.463596047379432 -5.553573364169348 -0.887759767124639 14.000000000000000
-2.485963986717444 -5.538852760479604 -0.994081060312176 18.000000000000000
-2.514091369887543 -5.536806577813977 -1.102505103721909 3.000000000000000
-2.546229095334774 -5.543431780922747 -1.214693987935362 23.000000000000000
-2.571405973880032 -5.533761660854299 -1.323967219516086 19.000000000000000
-2.610219532012343 -5.554270190349210 -1.441267722284596 7.000000000000000
-2.631967686875931 -5.537301501495011 -1.550488367186952 19.000000000000000
-2.664953885198803 -5.542751332858458 -1.666827061173289 4.000000000000000
-2.695131410037494 -5.542684258491368 -1.783248130042847 15.000000000000000
-2.719776739136306 -5.530009590928324 -1.896974542131189 8.000000000000000
-2.758884748612815 -5.546089147381521 -2.021807635055451 13.000000000000000
-2.782180289601695 -5.529102267734086 -2.136540415973828 15.000000000000000
-2.820124882408583 -5.540335578802219 -2.263411876322613 3.000000000000000
-2.852493688359945 -5.538789897925768 -2.387607636212898 11.000000000000000
-2.765698755242494 -5.307882824350707 -2.409480092927286 8.000000000000000
-2.908439679981636 -5.515270835900936 -2.632221539796545 5.000000000000000
-2.922726925559929 -5.477360810448213 -2.744654781711735 0.000000000000000
-2.821396786331696 -5.223148231878634 -2.744092331154380 0.000000000000000
-2.998182998278800 -5.483852084519452 -3.016929734671261 27.000000000000000
-2.959454058131276 -5.348518576271979 -3.078200239926552 1.000000000000000
-2.855006144332454 -5.099209844202051 -3.067083122547678 1.000000000000000
-2.465559948777319 -4.131654954814719 -3.063667324195003 3.000000000000000
-2.481981931024980 -5.550431631636052 -0.883861073132800 17.000000000000000
-2.501217088901417 -5.528456069059245 -0.988934055773956 11.000000000000000
-2.542588480249957 -5.555001303877193 -1.102936232981267 11.000000000000000
-2.561788220772162 -5.532940409082365 -1.209325242214218 28.000000000000000
-2.593717509711004 -5.537400499210940 -1.321877903271322 3.000000000000000
-2.627780340743333 -5.547198699371253 -1.436583819516544 18.000000000000000
-2.647960858454524 -5.526689852645476 -1.544798551513536 8.000000000000000
-2.692908724090280 -5.556414636370202 -1.668327004052099 18.000000000000000
-2.713147263331315 -5.535433320811935 -1.778444792036786 15.000000000000000
-2.749808517506706 -5.546691036781318 -1.900354614154254 5.000000000000000
-2.775545223209174 -5.535300294151378 -2.015674420011423 14.000000000000000
-2.809215987442345 -5.538533034852649 -2.138125664628774 4.000000000000000
-2.847400183743962 -5.549542069233687 -2.265257383923589 10.000000000000000
-2.869638560910226 -5.527885297556390 -2.381151542173872 7.000000000000000
-2.790855364625833 -5.313685956303093 -2.410579161016390 8.000000000000000
-2.920667932935456 -5.494547138015131 -2.620907204319196 3.000000000000000
-2.943664199595786 -5.472859705661557 -2.741151532141957 0.000000000000000
-2.850311537031960 -5.234848243926560 -2.749215161627316 0.000000000000000
-3.019532189119816 -5.479119163163979 -3.013438991371575 37.000000000000000
-2.985737198850320 -5.353234247784507 -3.080236430494985 2.000000000000000
-2.871872011238953 -5.088644875229753 -3.060271309028058 3.000000000000000
-2.821614543979286 -4.936432317729994 -3.099790853860215 3.000000000000000
-2.488421878002524 -4.136838816257804 -3.068015835255927 8.000000000000000
-2.492230382699305 -5.529187797471761 -0.877071274093421 29.000000000000000
-2.534444025087933 -5.557537456134749 -0.990815274082599 4.000000000000000
-2.554721224135716 -5.537337288522680 -1.096225898292319 23.000000000000000
-2.580618374088636 -5.529521111067326 -1.205489564275393 6.000000000000000
-2.619408341802920 -5.548035181209249 -1.321431635370415 19.000000000000000
-2.643636125847395 -5.536562101263397 -1.430967551333158 17.000000000000000
-2.680775864848386 -5.550970866861238 -1.548838015321222 6.000000000000000
-2.704017779089763 -5.535268893782553 -1.659363168173180 17.000000000000000
-2.739649434124145 -5.545363592001737 -1.779145753052531 3.000000000000000
-2.774841142400624 -5.552992839349531 -1.900155562203695 14.000000000000000
-2.793871604979469 -5.527863958308168 -2.010757447661698 8.000000000000000
-2.838058648504925 -5.551234092582730 -2.140954730253207 6.000000000000000
