# This PCD file was generated using the MATLAB® pcwrite function
# from Computer Vision Toolbox®.
# .PCD v.7 - Point Cloud Data file format
VERSION .7
FIELDS x y z intensity
SIZE 8 8 8 8
TYPE F F F F
COUNT 1 1 1 1
WIDTH 631
HEIGHT 1
VIEWPOINT 0 0 0 1 0 0 0
POINTS 631
DATA ascii
-5.124764995246783 -5.589390673439975 -0.896655810863596 3.000000000000000
-5.188884748087374 -5.589714408696810 -1.029069434136243 5.000000000000000
-5.249199137796658 -5.584575615431227 -1.162724218069672 13.000000000000000
-5.324753209319204 -5.594087743341291 -1.301310716025799 13.000000000000000
-5.393144752796355 -5.595634025425098 -1.440862772400632 25.000000000000000
-5.463157299712787 -5.597182398481225 -1.582991319220308 25.000000000000000
-5.350464764927209 -5.412889077407446 -1.669857070217565 13.000000000000000
-5.420046843892605 -5.413698306473602 -1.812000788215789 6.000000000000000
-5.477255056744966 -5.401050552238725 -1.951518889358606 8.000000000000000
-5.577501395415916 -5.428647066992785 -2.109351845037747 6.000000000000000
-5.837036238488103 -5.607392885598905 -2.334508294504734 14.000000000000000
-5.907431088690241 -5.599484921091793 -2.490415738554845 12.000000000000000
-5.480768660530074 -5.126275181068294 -2.429613479077402 13.000000000000000
-6.062194307478404 -5.592702386756461 -2.817824726902828 9.000000000000000
-6.146549105936311 -5.593427224141038 -2.989603648738644 9.000000000000000
-5.490719039567947 -4.928521674605214 -2.789663515815596 49.000000000000000
-5.525698307823637 -4.892593128533819 -2.927932835557988 44.000000000000000
-5.026413359650176 -4.386573964686783 -2.771157445953281 55.000000000000000
-5.062117804514948 -4.354462966080095 -2.900347498188744 60.000000000000000
-5.088428102048491 -4.312280168815748 -3.025411574632719 55.000000000000000
-5.008624219606548 -4.183587108614112 -3.088637617366031 30.000000000000000
-4.961097287220829 -5.586224445267944 -0.501751087513501 15.000000000000000
-5.024326721645972 -5.586784417892388 -0.628952193850251 135.000000000000000
-5.094240791559727 -5.593931194536892 -0.759908249985478 49.000000000000000
-5.163181593130424 -5.598565093680682 -0.892103541176357 41.000000000000000
-5.233001818368082 -5.604346180447931 -1.026007728360280 27.000000000000000
-5.301761249693775 -5.607447273529606 -1.162014942171953 12.000000000000000
-5.369496284186179 -5.607903289328950 -1.299351511964476 4.000000000000000
-5.427236430408665 -5.597732308334919 -1.436552029224290 4.000000000000000
-5.450804931470119 -5.551384505648512 -1.565551554407148 6.000000000000000
-5.381721264587355 -5.412056044877229 -1.665553841037910 59.000000000000000
-5.448782236971963 -5.409812360244834 -1.806999269784312 7.000000000000000
-5.517259224709592 -5.407773089111881 -1.950606281142929 6.000000000000000
-5.584547170212882 -5.402657223336021 -2.096290015909632 6.000000000000000
-5.678043555935695 -5.421535285749663 -2.254551068897851 7.000000000000000
-5.934953762777841 -5.591249091142358 -2.484518753096637 6.000000000000000
-5.386997426539160 -5.007673225134773 -2.371803448165294 25.000000000000000
-6.112511260515418 -5.604367950421332 -2.822386572807203 5.000000000000000
-6.199923699574488 -5.607044659694429 -2.996063467893631 6.000000000000000
-5.505647584947029 -4.911140336130044 -2.779568540116150 57.000000000000000
-5.537931462129376 -4.872714760730726 -2.916263016484366 43.000000000000000
-5.037012735612084 -4.368137903975573 -2.760168464629206 62.000000000000000
-5.075605524266611 -4.338406764054945 -2.890783857647707 61.000000000000000
-5.060159107485498 -4.260994307736238 -2.991039504314670 20.000000000000000
-5.016342433885527 -4.163166981883852 -3.075648430323519 20.000000000000000
-5.064875249157942 -5.599438084943247 -0.623785093885998 3.000000000000000
-5.116305326808075 -5.585674315759765 -0.752466770785919 5.000000000000000
-5.182772391701230 -5.587180533918502 -0.884233010705695 14.000000000000000
-5.250097262338382 -5.589876106267933 -1.017575477574940 26.000000000000000
-5.321785356628415 -5.595674675434658 -1.154075190217085 16.000000000000000
-5.395202793002448 -5.601624055221077 -1.292691288106779 30.000000000000000
-5.466875466643134 -5.605322853157700 -1.433606760615838 24.000000000000000
-5.344486997174563 -5.410823680447976 -1.521506436442330 7.000000000000000
-5.410249307371218 -5.408333540843615 -1.660335732035912 10.000000000000000
-5.480307360990945 -5.408550727085295 -1.802851702612720 10.000000000000000
-5.568467122596171 -5.425151644616379 -1.953499305728495 30.000000000000000
-5.616527118514930 -5.400774595571121 -2.092577571995832 6.000000000000000
-5.688009748985764 -5.398087682414445 -2.242215526752132 5.000000000000000
-5.769683367813596 -5.402396693418003 -2.398429444891257 9.000000000000000
-5.166576076238269 -4.773331073322580 -2.259279998781800 25.000000000000000
-6.095763974503279 -5.554574600343170 -2.796001891338858 8.000000000000000
-6.225435641635885 -5.595241872053219 -2.988940190949291 8.000000000000000
-5.526108709354520 -4.898691472571069 -2.772271341148912 60.000000000000000
-5.555677779974110 -4.857714807400956 -2.907520465114465 46.000000000000000
-5.047527009078710 -4.349685549096185 -2.749176370588972 28.000000000000000
-5.086226516096354 -4.319941348186620 -2.879623339116751 57.000000000000000
-5.011977562713091 -4.193521216373488 -2.945281772375263 9.000000000000000
-5.046299519697692 -4.161168110266589 -3.076284303441282 17.000000000000000
-5.089432696310872 -5.594216798489909 -0.616568926572806 50.000000000000000
-5.165326557122794 -5.606617022575183 -0.748897269625269 44.000000000000000
-5.234860341704008 -5.610598955222983 -0.881812092514824 20.000000000000000
-5.297098047710207 -5.607067822077726 -1.014860932130733 7.000000000000000
-5.360920130594978 -5.603851058466254 -1.150212444684970 3.000000000000000
-5.418162563806451 -5.592414776444012 -1.285330852495566 6.000000000000000
-5.484553924347531 -5.590268155117506 -1.424840413801912 9.000000000000000
-5.383869751168621 -5.418390097016817 -1.519190330077703 21.000000000000000
-5.563601654058391 -5.528519727810925 -1.693039353991552 5.000000000000000
-5.484057916241356 -5.379880961321998 -1.789562408332162 5.000000000000000
-5.594746182960070 -5.418000259005331 -1.947529805079216 83.000000000000000
-5.651334630954464 -5.401433927420980 -2.089830714838009 6.000000000000000
-5.720254404927497 -5.395751499488243 -2.238644969323608 5.000000000000000
-5.793775679054357 -5.391876777850336 -2.391579434866530 9.000000000000000
-5.160659529319513 -4.738644140667521 -2.241334631544576 37.000000000000000
-6.092768821953449 -5.517642122023591 -2.776106895546889 6.000000000000000
-6.273407534042891 -5.603435421380611 -2.992499522177237 7.000000000000000
-5.538099820946528 -4.878747089209298 -2.760738526692416 58.000000000000000
-5.567748482592493 -4.837779672346557 -2.895831603601876 45.000000000000000
-5.060766161010925 -4.333623420491693 -2.739702522708007 5.000000000000000
-5.034983232006223 -4.249320665891377 -2.833690479188687 4.000000000000000
-5.027870310610567 -4.179998380041520 -2.937406625329744 13.000000000000000
-5.084700486296946 -4.165933870916019 -3.081950023573754 27.000000000000000
-5.108608061007259 -5.583020283687020 -0.608664267844708 11.000000000000000
-5.173915315270512 -5.583528460850028 -0.739401269465332 31.000000000000000
-5.246328124346575 -5.590303246542988 -0.872471674830237 50.000000000000000
-5.322381565524406 -5.601042600523056 -1.007889010800243 17.000000000000000
-5.394654587829852 -5.606153870138084 -1.145092425240036 33.000000000000000
-5.463143576111311 -5.605740181035709 -1.283106889357018 23.000000000000000
-5.532591777421846 -5.605980122463645 -1.423878889142843 19.000000000000000
-5.476048806233347 -5.478516628069868 -1.531522454197881 6.000000000000000
-5.484052172683209 -5.417045785524495 -1.654763646210501 7.000000000000000
-5.468135827033957 -5.332193175216585 -1.769973592820336 5.000000000000000
-5.609837240489838 -5.399983896222433 -1.937647041065977 83.000000000000000
-5.686193412438588 -5.401949689807064 -2.087007432936776 6.000000000000000
-5.758146865802376 -5.398550715693943 -2.237188155236546 5.000000000000000
-5.831906120044220 -5.394277664376783 -2.390450896085615 10.000000000000000
-5.168624888796204 -4.716877531983095 -2.229510956956593 36.000000000000000
-6.216378118955491 -5.594905930356418 -2.813653623428790 10.000000000000000
-6.301759231813340 -5.593899094632881 -2.986590615287068 8.000000000000000
-5.552821014804235 -4.861251481235229 -2.750597901136546 57.000000000000000
-5.582548436856321 -4.820258620091995 -2.885595222061104 43.000000000000000
-5.073937979793966 -4.317530367342123 -2.730217006811531 3.000000000000000
-5.022702624159455 -4.212090867615138 -2.810012966556358 1.000000000000000
-5.074674263745747 -4.192005044387036 -2.947493651343494 15.000000000000000
-5.140055083216287 -4.184259259970728 -3.097686909106796 37.000000000000000
-5.157452039982556 -5.604035975196197 -0.604209602693117 28.000000000000000
-5.228550123276242 -5.609953633707412 -0.736410100447428 11.000000000000000
-5.295906559508179 -5.610456033879195 -0.869397955407520 4.000000000000000
-5.347664453098677 -5.594922907197581 -1.000868902294702 3.000000000000000
-5.411924159899254 -5.591252231370921 -1.136429220272187 9.000000000000000
-5.480608531620733 -5.590670490156031 -1.274345947388130 14.000000000000000
-5.555805355510959 -5.596328108715002 -1.416433038050901 15.000000000000000
-5.382195240922157 -5.352745058870318 -1.491908416537108 56.000000000000000
-5.375914529698204 -5.278648280207307 -1.608425100290400 40.000000000000000
-5.443549919099212 -5.276500033396239 -1.747773347961475 5.000000000000000
-5.630465734368286 -5.387299940610261 -1.929673279082565 38.000000000000000
-5.721102786176284 -5.402321573279138 -2.084107609719032 7.000000000000000
-5.793290775854448 -5.398565622647917 -2.234559286383749 5.000000000000000
-5.864462130644731 -5.391331639769277 -2.386940105712037 18.000000000000000
-5.196254200772687 -4.713039810766449 -2.226162173580972 19.000000000000000
-6.269914397847082 -5.608332834644618 -2.819070814917022 5.000000000000000
-6.355558548657431 -5.606716411835203 -2.992616014767888 7.000000000000000
-5.567469914407907 -4.843720750363370 -2.740443767834347 52.000000000000000
-5.594447563296038 -4.800275363795858 -2.873892289781498 40.000000000000000
-5.007866633268181 -4.234458638788772 -2.678374100043971 0.000000000000000
-5.035628410594653 -4.196160398232504 -2.800547879026031 2.000000000000000
-5.155503508931670 -4.231608057366389 -2.977027513850872 68.000000000000000
-5.173053344779629 -4.184085274579420 -3.099766040705642 39.000000000000000
-5.173945298373224 -5.589705755245639 -0.595885575606074 54.000000000000000
-5.245248147429064 -5.595447064892042 -0.727983527205799 72.000000000000000
-5.318269648490259 -5.601549601938278 -0.861762149883842 25.000000000000000
-5.389444595261588 -5.605869485503347 -0.996852178664473 27.000000000000000
-5.459516327876972 -5.607500991433274 -1.134053833254661 17.000000000000000
-5.536834869812052 -5.614914023572998 -1.274497599965031 16.000000000000000
-5.584563919957911 -5.592167394689231 -1.410352315444271 8.000000000000000
-5.376917592576540 -5.315857395519005 -1.477170725795365 64.000000000000000
-5.378929799752627 -5.250213226415539 -1.595691475976632 64.000000000000000
-5.387760692410756 -5.191230314418598 -1.715849219475578 7.000000000000000
-5.608842107470290 -5.334400837608655 -1.907312747608090 8.000000000000000
-5.756062073822492 -5.402549270713492 -2.081131129894367 9.000000000000000
-5.831309260139633 -5.401052503889620 -2.232935324374049 8.000000000000000
-5.871581984471849 -5.364985763004612 -2.373068216967955 24.000000000000000
-5.425040627135367 -4.890408979682210 -2.308340140744928 15.000000000000000
-6.295245055826268 -5.596310089298325 -2.811690429530375 10.000000000000000
-6.386809721984857 -5.599392018813589 -2.987889990412359 6.000000000000000
-5.511100237932253 -4.764816088898585 -2.695575227374717 49.000000000000000
-5.614767952466640 -4.787529794010437 -2.866530186726794 0.000000000000000
-5.009310387167270 -4.208985329953828 -2.662958493339983 1.000000000000000
-5.125022498948836 -4.243571841042239 -2.833384268887932 16.000000000000000
-5.171547243860480 -4.217689411087546 -2.968941079933898 52.000000000000000
-5.189139307917411 -4.170138508599251 -3.091662669523312 38.000000000000000
-5.222996323772992 -5.610356341537247 -0.591231868919975 5.000000000000000
-5.281017763754198 -5.601176091681455 -0.722150793732619 3.000000000000000
-5.343360016353492 -5.595439617120793 -0.854526317201476 4.000000000000000
-5.406501935272755 -5.590957368209919 -0.988196605312519 17.000000000000000
-5.476773598007859 -5.592416254429334 -1.125297913158393 19.000000000000000
-5.548750155062346 -5.594028894627026 -1.264362464949640 23.000000000000000
-5.618919770220035 -5.593451978228047 -1.405610039480072 14.000000000000000
-5.382647738043195 -5.290053062611508 -1.465532641360495 46.000000000000000
-5.376185664637563 -5.216355441451709 -1.581328431345841 61.000000000000000
-5.370888364938331 -5.144076313704959 -1.696591008507836 15.000000000000000
-5.584092189765142 -5.278997697065842 -1.884102367329723 6.000000000000000
-5.759951017300296 -5.373600255897212 -2.066910875708651 6.000000000000000
-5.866559983278715 -5.400769756651202 -2.230147976757274 27.000000000000000
-5.858703411425522 -5.320603962437294 -2.351234529315932 8.000000000000000
-5.726145704949919 -5.130223364404034 -2.419847845837949 8.000000000000000
-6.329082737494161 -5.591739354392535 -2.808053185837326 6.000000000000000
-6.435145755210186 -5.606827484296370 -2.991040065017383 9.000000000000000
-4.984516724901013 -4.282695571035842 -2.422628255637263 5.000000000000000
-4.991858258481759 -4.229725433137256 -2.532790928501464 0.000000000000000
-5.041915569986232 -4.209676185444747 -2.664105440636647 1.000000000000000
-5.146581733703019 -4.234392941019768 -2.828464756604965 70.000000000000000
-5.176176753242357 -4.194516028974063 -2.954348236392092 35.000000000000000
-5.202338060164208 -4.153880553836136 -3.081858376406824 39.000000000000000
-5.242214465677317 -5.598752236901519 -0.583116528348914 97.000000000000000
-5.314114548071544 -5.603861017697603 -0.715866093835669 22.000000000000000
-5.384975586388449 -5.606441973935634 -0.849850767425135 25.000000000000000
-5.456710316091086 -5.610134940141676 -0.985516351800754 10.000000000000000
-5.524544554260145 -5.608313796975521 -1.122732302309233 7.000000000000000
-5.596845811499287 -5.609476735070904 -1.262403945257272 5.000000000000000
-5.460120484982378 -5.403396503289970 -1.352919257646046 8.000000000000000
-5.480961293853315 -5.354835527914789 -1.478923853436461 6.000000000000000
-5.376082662035094 -5.185274715288205 -1.567828223358181 62.000000000000000
-5.379178197943358 -5.121266811234147 -1.685385464195792 17.000000000000000
-5.536367267791838 -5.202487119839073 -1.853419877963888 6.000000000000000
-5.726802551171525 -5.310466662113159 -2.039573575647621 6.000000000000000
-5.879115446911401 -5.379531000273602 -2.218700470767299 22.000000000000000
-5.837030821448015 -5.268629678257225 -2.326072333968368 8.000000000000000
-5.763856404838824 -5.132380561506587 -2.419167856157936 9.000000000000000
-6.180332625895590 -5.426689363300579 -2.723862549309500 7.000000000000000
-4.964760638061517 -4.298914447052283 -2.292688898145618 1.000000000000000
-5.002768647834812 -4.271598967700576 -2.416156475764851 0.000000000000000
-5.010118608412021 -4.218592759530455 -2.526378170203505 1.000000000000000
-5.145929082485079 -4.269428856026727 -2.702653348352427 2.000000000000000
-5.165273536300967 -4.222805874380265 -2.821948943990376 75.000000000000000
-5.186385081537946 -4.175946982298131 -2.943004686886478 41.000000000000000
-5.209777991998870 -4.133077222021280 -3.068690592238497 39.000000000000000
-5.266866297676767 -5.592893314364608 -0.575569089277987 6.000000000000000
-5.336264292805112 -5.594876872204376 -0.708048149637951 7.000000000000000
-5.407351015372062 -5.597237736145432 -0.842062183941475 33.000000000000000
-5.473763071666470 -5.595032946072905 -0.976764131005640 25.000000000000000
-5.547362864295001 -5.598672257154813 -1.115004129501675 28.000000000000000
-5.619888514457800 -5.599607256854622 -1.254701420277492 17.000000000000000
-5.623176253802328 -5.532037118510417 -1.380042802994379 20.000000000000000
-5.655814990127801 -5.493018178844218 -1.512379609864078 6.000000000000000
-5.375821061961940 -5.154238586209134 -1.554360481419696 64.000000000000000
-5.373192178593198 -5.085045677147129 -1.669782103518954 6.000000000000000
-5.235363235235884 -4.890134880021857 -1.738946994687894 9.000000000000000
-5.707514031272141 -5.260680059354155 -2.017406477620511 6.000000000000000
-5.868764147215710 -5.337522470644465 -2.198700811779725 12.000000000000000
-5.835047067460128 -5.234756764286470 -2.308924281842524 5.000000000000000
-5.798774109069469 -5.131847363897774 -2.417210265086810 10.000000000000000
-6.396835225921716 -5.582196081895802 -2.800568870010916 7.000000000000000
-4.968562253748571 -4.275555718079466 -2.279607955816723 16.000000000000000
-4.998075200105840 -4.240999584495897 -2.398659379401877 0.000000000000000
-5.051255561555265 -4.226568393564794 -2.531417165616151 1.000000000000000
-5.164549970166775 -4.257850701008961 -2.696068807276229 2.000000000000000
-5.169627854203640 -4.199537618580141 -2.807635239694092 42.000000000000000
-5.190791162907487 -4.152789409171786 -2.928433578921025 43.000000000000000
-5.222822936103345 -4.116773193161335 -3.058872186636941 40.000000000000000
-5.310718428451426 -5.607215479025788 -0.570035389673308 21.000000000000000
-5.385972741525749 -5.614562691820577 -0.703795003646716 14.000000000000000
-5.451880071647836 -5.610774002481530 -0.837641198513179 5.000000000000000
-5.515820320309655 -5.605347878669768 -0.972408017835841 3.000000000000000
-5.584141718799533 -5.602978773029530 -1.110015375273287 3.000000000000000
-5.662561804941570 -5.609123148782490 -1.251301445299770 5.000000000000000
-5.716644446963147 -5.590935794658888 -1.389557198177680 5.000000000000000
-5.387789181384499 -5.201802885782851 -1.427708119475879 5.000000000000000
-5.372566077389415 -5.120545518889572 -1.540112766346814 66.000000000000000
-5.381226339398804 -5.062272045849317 -1.658610508218582 6.000000000000000
-5.242932022873906 -4.867844713114346 -1.727817019399922 14.000000000000000
-5.345294062200871 -4.897126743291227 -1.875133341589861 13.000000000000000
-5.846737688408410 -5.285274622328215 -2.174512949954083 12.000000000000000
-5.841477550656944 -5.208604694561593 -2.295193490963645 8.000000000000000
-5.839476119275824 -5.136214885581887 -2.417550682309353 11.000000000000000
-6.459457502973405 -5.602121443169109 -2.809207023924268 7.000000000000000
-4.983734829104675 -4.262041438311336 -2.271781224344906 7.000000000000000
-5.030558691475374 -4.241958637820339 -2.399016916706297 1.000000000000000
-5.468765155896831 -4.547220210419720 -2.723756969261233 12.000000000000000
-5.226210904702466 -4.281498773088255 -2.711805272436203 2.000000000000000
-5.176731528587488 -4.178602129372996 -2.794886567524292 41.000000000000000
-5.206545199405392 -4.138764268121103 -2.920310500524332 43.000000000000000
-5.232936947110097 -4.098196920119961 -3.047375413612396 35.000000000000000
-5.327171066581625 -5.592451236925693 -0.561492288445576 12.000000000000000
-5.399870016113770 -5.596743561556472 -0.694787244594810 51.000000000000000
-5.471503929790765 -5.598505295836540 -0.829317308859776 38.000000000000000
-5.549598432384603 -5.607009612479821 -0.966490788798962 30.000000000000000
-5.620985632169848 -5.607127555921755 -1.104942122720947 14.000000000000000
-5.696886211184302 -5.610129924088386 -1.245950934694545 21.000000000000000
-5.765306079228056 -5.605401041550985 -1.387921098692263 22.000000000000000
-5.370307070047905 -5.154313062894814 -1.410189640816211 7.000000000000000
-5.374823432756005 -5.092302515993661 -1.527523535760276 66.000000000000000
-5.397708991264561 -5.047496787051495 -1.650059947494803 0.000000000000000
-5.261829016576059 -4.856106063843304 -1.720431718209851 15.000000000000000
-5.318662636453777 -4.843366589401104 -1.851705116983708 18.000000000000000
-5.425594485299132 -4.874861955545940 -2.003182816285736 22.000000000000000
-5.678237908477761 -5.032210490811471 -2.215330185523835 9.000000000000000
-5.871629919325506 -5.132861511250845 -2.414247459727606 24.000000000000000
-6.510759936034270 -5.611827863458186 -2.812708496493252 10.000000000000000
-5.001739594832201 -4.250932189939587 -2.265240062779930 6.000000000000000
-5.060215792154409 -4.240365367558390 -2.397935296550457 2.000000000000000
-5.355685102017968 -4.425261895834268 -2.650997970821568 6.000000000000000
-5.265057166925600 -4.286095103127963 -2.715493656031603 18.000000000000000
-5.186610742535661 -4.159976549618341 -2.783689657996947 50.000000000000000
-5.216497012139255 -4.120151177804471 -2.908960156890887 40.000000000000000
-5.245836638864257 -4.081840146560728 -3.037538967038026 36.000000000000000
-5.376691491123760 -5.612211786407030 -0.556355528229350 5.000000000000000
-5.441444398752211 -5.607486867731433 -0.689282150869801 3.000000000000000
-5.505033930925710 -5.600357996642625 -0.823047828985427 3.000000000000000
-5.572217894108158 -5.597273109297840 -0.958570540185817 4.000000000000000
-5.649453428262965 -5.602747597929596 -1.098143577034430 4.000000000000000
-5.728432632873502 -5.608227837700727 -1.239912936890556 4.000000000000000
-5.808430990964027 -5.614164369417243 -1.384811848726939 4.000000000000000
-5.363939891741057 -5.117817333073368 -1.395718661866612 12.000000000000000
-5.374088091784471 -5.061403769781068 -1.514154899931423 67.000000000000000
-5.342635997395248 -4.966209823989883 -1.619810045481523 5.000000000000000
-5.272090800490669 -4.836415826756675 -1.710227044014683 15.000000000000000
-5.306081351575334 -4.802796379374789 -1.833355292552123 23.000000000000000
-5.410388327908817 -4.831750776683106 -1.982998379537974 27.000000000000000
-5.623371710365519 -4.953229114614349 -2.178446222700374 4.000000000000000
-5.848987734417337 -5.081744986319294 -2.388487884971218 16.000000000000000
-6.541971856988559 -5.603986032455663 -2.807408906876852 6.000000000000000
-5.039941715994238 -4.256849713544159 -2.267772919778357 9.000000000000000
-5.095690858469712 -4.243463816938744 -2.399511097961390 3.000000000000000
-5.380472670936665 -4.417846008614436 -2.646857472829458 6.000000000000000
-5.488879145950600 -4.440081698417957 -2.813872817403535 33.000000000000000
-5.202178403568094 -4.145938614572727 -2.775571447764315 48.000000000000000
-5.226363344824901 -4.101523983189053 -2.897607841512664 39.000000000000000
-5.255788054173684 -4.063227057813367 -3.026033345199374 36.000000000000000
-5.395906800779878 -5.600134217769604 -0.547998668122000 75.000000000000000
-5.466417180573834 -5.600932902746043 -0.681593593620128 42.000000000000000
-5.538611043773278 -5.602069549554852 -0.816703414798164 31.000000000000000
-5.617296241119547 -5.609907446747931 -0.954430394751937 12.000000000000000
-5.694865602986548 -5.614950449147486 -1.094541555875838 17.000000000000000
-5.765674404127681 -5.611712793154584 -1.235021535331301 23.000000000000000
-5.837436340002506 -5.609075608375556 -1.378242284921104 25.000000000000000
-5.368791977897580 -5.092222753029053 -1.384241355976542 18.000000000000000
-5.376056656131371 -5.033230685674747 -1.501619024535748 67.000000000000000
-5.376007512951960 -4.967440504648630 -1.616506744019413 17.000000000000000
-5.288016615430815 -4.821955103438772 -1.701871104211007 16.000000000000000
-5.293273939591638 -4.762337076121843 -1.815075914069513 28.000000000000000
-5.397824164639362 -4.791327654048707 -1.963943379831375 33.000000000000000
-5.663417854566509 -4.958113033587088 -2.178464906935877 5.000000000000000
-5.745006831799856 -4.960821477044279 -2.329967118967393 4.000000000000000
-5.278250344558002 -4.493590527344232 -2.250035882543991 0.000000000000000
-5.107218423641680 -4.286927883505695 -2.283171762009237 2.000000000000000
-5.122540205842707 -4.239211109946011 -2.396934501573885 2.000000000000000
-5.416852469366716 -4.419795830820022 -2.648337240417402 6.000000000000000
-5.734174313235833 -4.609198493973719 -2.921915499903577 70.000000000000000
-5.209008680857202 -4.124977082838118 -2.762826203150433 46.000000000000000
-5.233251314652283 -4.080627236007953 -2.884659085306312 39.000000000000000
-5.265653863319909 -4.044599844346879 -3.014525748905342 35.000000000000000
-5.428969600041769 -5.602322086167836 -0.540995678964615 4.000000000000000
-5.488594150676542 -5.591440631551428 -0.673514597462458 6.000000000000000
-5.563817325943555 -5.595174951387268 -0.809059964958589 10.000000000000000
-5.637121788101907 -5.597150089167060 -0.945922208981232 7.000000000000000
-5.712086163833757 -5.599201425897553 -1.085448777771555 5.000000000000000
-5.785927775628415 -5.598539437321612 -1.226430570381471 7.000000000000000
-5.866452264915829 -5.603873346937931 -1.371614134858119 7.000000000000000
-5.384966983447459 -5.077435780385628 -1.375703632051812 17.000000000000000
-5.366406624565911 -4.994406221168279 -1.485929486136774 20.000000000000000
-5.372023694355092 -4.934173242020123 -1.601973734185454 42.000000000000000
-5.301005915134500 -4.804834363072659 -1.692574084388986 17.000000000000000
-5.283131212653341 -4.724574131600149 -1.797850901744285 35.000000000000000
-5.387928702057994 -4.753569864817294 -1.946004584229067 33.000000000000000
-5.691948150055587 -4.952729682600632 -2.173959279325498 5.000000000000000
-5.776676202979747 -4.957599853972766 -2.326760781390450 4.000000000000000
-5.282365997142104 -4.469371506193331 -2.236808398558995 16.000000000000000
-6.730090183987937 -5.614107216363117 -2.989194921474473 8.000000000000000
-5.155223613150843 -4.239633884933380 -2.397006053420947 1.000000000000000
-5.621898769876712 -4.558290756227247 -2.731654371063798 21.000000000000000
-5.754097618450388 -4.595973408980402 -2.914410578708605 51.000000000000000
-5.218640517806649 -4.106303003826421 -2.751619666064492 38.000000000000000
-5.248741089385411 -4.066476347575403 -2.876487978630723 39.000000000000000
-5.278331079191958 -4.028169644946764 -3.004665427292317 36.000000000000000
-5.467649390103666 -5.610085870703670 -0.534462973675501 34.000000000000000
-5.538751586342746 -5.610232719938151 -0.668777760486311 27.000000000000000
-5.611532342408677 -5.610695629564551 -0.804596372404585 8.000000000000000
-5.688005383278896 -5.615026599719330 -0.942536494908644 12.000000000000000
-5.760479474008499 -5.613837615339771 -1.082201209629265 14.000000000000000
-5.837494244969544 -5.615461413115397 -1.224384767039953 21.000000000000000
-5.909780721623345 -5.612139585708925 -1.368238682704108 14.000000000000000
-5.406828150764681 -5.067982253142467 -1.368598271930657 17.000000000000000
-5.370940146610548 -4.968991827233683 -1.474251729662179 50.000000000000000
-5.373637965694946 -4.906239981538985 -1.589191070069998 63.000000000000000
-5.316818172737660 -4.790289990996803 -1.684182389232951 17.000000000000000
-5.284375875331175 -4.697214598095303 -1.784603773294858 43.000000000000000
-5.369113307230708 -4.708268987125979 -1.925004269861715 38.000000000000000
-5.729215990072484 -4.954779527099189 -2.172704300390758 4.000000000000000
-5.799640514285807 -4.946799600596743 -2.319993020806437 4.000000000000000
-5.289274861084679 -4.447621007441291 -2.224823322887583 33.000000000000000
-6.758753306779997 -5.603037252495614 -2.982484079628400 7.000000000000000
-5.187959712303598 -4.239917919443019 -2.397003558591591 1.000000000000000
-5.670572962863387 -4.568865587221799 -2.738333346899741 26.000000000000000
-5.768152381037592 -4.578056924049354 -2.903940238588617 38.000000000000000
-5.228187040823627 -4.087615922327803 -2.740411709523969 7.000000000000000
-5.261269602452237 -4.050040788126198 -2.866711667542833 44.000000000000000
-5.288034235590018 -4.009507222099314 -2.993149805666488 37.000000000000000
-5.481264818857952 -5.592026965773798 -0.525427825308837 20.000000000000000
-5.555352387133926 -5.594848000997933 -0.659908857718101 27.000000000000000
-5.625505190426310 -5.592324509492921 -0.795224454485277 11.000000000000000
-5.707844848721697 -5.602054009447505 -0.933917586382395 10.000000000000000
-5.777678999576219 -5.597903182122177 -1.073015070463762 11.000000000000000
-5.860618428108346 -5.604803903620571 -1.216274986208494 13.000000000000000
-5.933120825947504 -5.601253382802234 -1.360155067025275 8.000000000000000
-5.402764103349980 -5.034311720138944 -1.354957397125297 20.000000000000000
-5.375351774297642 -4.943594570502781 -1.462590176724366 62.000000000000000
-5.372218615366351 -4.875712809438485 -1.575584890949618 65.000000000000000
-5.329676453682450 -4.773101764529461 -1.674858932718991 16.000000000000000
-5.291296904627114 -4.675026568661600 -1.773331229463821 44.000000000000000
-5.358775599143457 -4.670727999830306 -1.907203195683634 37.000000000000000
-5.576954563231191 -4.793703514477195 -2.099973431961411 8.000000000000000
-5.495536322239039 -4.658675038811728 -2.183257065419453 11.000000000000000
-5.299002867275441 -4.428315635848972 -2.214067126783234 34.000000000000000
-6.816644946873217 -5.615954764551633 -2.988541408576706 10.000000000000000
-5.223672626695979 -4.242438291143788 -2.398269716888429 2.000000000000000
-5.745696278953031 -4.600288436951113 -2.757520728277335 47.000000000000000
-5.782133541110483 -4.560107375940430 -2.893457522179790 37.000000000000000
-5.243490598308987 -4.073454794094399 -2.732246765194278 36.000000000000000
-5.270811183922836 -4.031344312949440 -2.855343848625618 42.000000000000000
-5.303479804289482 -3.995221867994726 -2.984912761035127 37.000000000000000
-5.531235080851445 -5.610887468136677 -0.519804097968731 13.000000000000000
-5.608517627806900 -5.616085026254856 -0.655297639592313 5.000000000000000
-5.687532331474179 -5.621489267670505 -0.792546775844310 11.000000000000000
-5.761771077226804 -5.622317719633137 -0.930781130627342 10.000000000000000
-5.831948798072134 -5.617683101372254 -1.070623084573470 12.000000000000000
-5.909523876292384 -5.618600030149548 -1.213423774587318 10.000000000000000
-5.985210905053087 -5.617291018537045 -1.358562488476939 15.000000000000000
-5.430283026092303 -5.030121804908447 -1.349250489834417 6.000000000000000
-5.423072601048875 -4.957920610422587 -1.462658806591580 36.000000000000000
-5.370643358413257 -4.845235151167686 -1.562013523187503 65.000000000000000
-5.333735287316697 -4.748113013953429 -1.662803263034668 19.000000000000000
-5.274787308913894 -4.632355473161651 -1.754308301294330 29.000000000000000
-5.351151593837096 -4.635815254905713 -1.890496639023244 31.000000000000000
-5.458748302017057 -4.663494094581642 -2.040878684544490 27.000000000000000
-5.359351644561877 -4.515365122578241 -2.114527786465785 21.000000000000000
-5.305713109414326 -4.406562716992396 -2.202092963932616 22.000000000000000
-6.854161900107457 -5.611798983943647 -2.985511817247485 11.000000000000000
-5.253587323374247 -4.240068538489089 -2.396775964623395 2.000000000000000
-5.765386563508056 -4.587015401403896 -2.749927904619361 44.000000000000000
-5.796041017632723 -4.542124992949365 -2.882962550978378 38.000000000000000
-5.252883545944210 -4.054726742276879 -2.721027287296710 50.000000000000000
-5.289048245209683 -4.019308020179305 -2.848704213983384 40.000000000000000
-5.315951178013189 -3.978704719277298 -2.975020643589008 39.000000000000000
-5.550435585634069 -5.598333186775872 -0.511204792202602 39.000000000000000
-5.625115206444189 -5.600503076080689 -0.646328251773885 14.000000000000000
-5.704340404351445 -5.605709703685858 -0.783463636224300 23.000000000000000
-5.775925980133434 -5.603586867158350 -0.921136957368495 17.000000000000000
-5.852006617879072 -5.604290173912665 -1.061854128816897 19.000000000000000
-5.929798912713239 -5.604989529150170 -1.204608331741822 12.000000000000000
-6.008585135384417 -5.606160691548070 -1.350352165688149 10.000000000000000
-5.495455997112331 -5.060483072917139 -1.352752177052843 17.000000000000000
-5.395425649481832 -4.903409552704082 -1.442421859014861 0.000000000000000
-5.371824114193784 -4.817418662613084 -1.549316983471532 66.000000000000000
-5.340591378361057 -4.725725297011480 -1.651667081030950 24.000000000000000
-5.255113305354460 -4.587262654356961 -1.734401766554809 19.000000000000000
-5.334549650113784 -4.593417692992094 -1.870761857687414 24.000000000000000
-5.439454927402871 -4.618674028015762 -2.019216757974563 33.000000000000000
-5.853709781877281 -4.901614832556150 -2.293695233203356 9.000000000000000
-5.365237304000382 -4.428491366365346 -2.211943238374413 7.000000000000000
-6.888772430829654 -5.605096657659488 -2.981128956374707 8.000000000000000
-5.286477500093445 -4.239934514536621 -2.396550636528857 2.000000000000000
-5.776214199040945 -4.566702537799178 -2.738122250385528 42.000000000000000
-5.809874730463521 -4.524110003539678 -2.872455446511510 38.000000000000000
-5.265129313198587 -4.038239982958039 -2.711319817973532 47.000000000000000
-5.295508861974795 -3.998346264009575 -2.835748410178004 32.000000000000000
-5.331284691274858 -3.964338421904539 -2.966749132837112 38.000000000000000
-5.366748183677810 -3.926630005195683 -3.097819674430367 35.000000000000000
-5.589327282863061 -5.605503490447162 -0.504356167432632 3.000000000000000
-5.669992168272682 -5.612923891351370 -0.640538993054632 3.000000000000000
-5.749568660944242 -5.617705904035573 -0.778213716694653 5.000000000000000
-5.830055810375212 -5.623453010264839 -0.917785099712101 5.000000000000000
-5.903623709359328 -5.620919495405725 -1.058721457446775 4.000000000000000
-5.978873308708327 -5.618415821527455 -1.201557994782247 11.000000000000000
-6.063771729881520 -5.624479656979100 -1.349185308294590 11.000000000000000
-5.552150607568685 -5.082552338839688 -1.353953231773496 23.000000000000000
-5.367470677144726 -4.849092431961270 -1.422302751276065 2.000000000000000
-5.369946609689225 -4.787033793629228 -1.535811468813463 66.000000000000000
-5.373685132862109 -4.726509831727689 -1.648620302992239 15.000000000000000
-5.308504980535232 -4.605935732866875 -1.738600269277769 28.000000000000000
-5.341211382839901 -4.571267174957526 -1.859290557975622 44.000000000000000
-5.381652318317498 -4.541719445209873 -1.983547026352137 27.000000000000000
-5.838245235020584 -4.858661981190519 -2.271889154050716 6.000000000000000
-5.696212127101114 -4.672641743269303 -2.332717415831460 9.000000000000000
-5.536950266106521 -4.477174309550623 -2.380578911223660 0.000000000000000
-5.325318328006173 -4.244363428906574 -2.398908874626542 1.000000000000000
-5.789900765342898 -4.548690702755903 -2.727703432953029 40.000000000000000
-5.823634600357862 -4.506062636339943 -2.861936330335781 38.000000000000000
-5.286146381336292 -4.028461954204309 -2.706127624228691 18.000000000000000
-5.307754834326712 -3.981805051752756 -2.825935446629601 46.000000000000000
-5.340687615394157 -3.945584974415448 -2.955205408164128 37.000000000000000
-5.379176500700382 -3.910009600711798 -3.087800041559420 34.000000000000000
-5.700768853959470 -5.611153622681083 -0.633060420811906 22.000000000000000
-5.772057493194566 -5.607299634681962 -0.769804586990739 26.000000000000000
-5.847047319541941 -5.607296369074303 -0.908498251183520 27.000000000000000
-5.920808822590529 -5.604581113033781 -1.049329992785485 12.000000000000000
-6.004932459750040 -5.609998253879033 -1.193784631043029 15.000000000000000
-6.084283152155199 -5.610419579191588 -1.340203965754505 7.000000000000000
-5.594464890674220 -5.091100079368787 -1.351487539293140 22.000000000000000
-5.374258340366062 -4.826447324356806 -1.411507533176802 6.000000000000000
-5.370842747620161 -4.759295211855852 -1.523172106737081 67.000000000000000
-5.386280205106642 -4.709188956263800 -1.639245230671546 1.000000000000000
-5.347357895559382 -4.611672348235070 -1.737879653290976 36.000000000000000
-5.374287291056924 -4.571677952382855 -1.856990256538933 41.000000000000000
-5.367635434141068 -4.502248685382435 -1.964286797065373 27.000000000000000
-5.875710340693114 -4.859817583586953 -2.270712893901623 7.000000000000000
-5.753961681818209 -4.690848883034729 -2.340623361564091 23.000000000000000
-5.538035605616086 -4.450201950858323 -2.365588347009103 9.000000000000000
-5.358324778070104 -4.243933135328650 -2.398525195944272 1.000000000000000
-5.800555680320997 -4.528337754628469 -2.715887880510204 48.000000000000000
-5.834363446358331 -4.485709572461129 -2.849960843121941 40.000000000000000
-5.336695250613864 -4.040983714714243 -2.715936379867852 4.000000000000000
-5.325836618835408 -3.969636927907480 -2.819238012312034 42.000000000000000
-5.355900209715560 -3.931146344658751 -2.946904369070187 37.000000000000000
-5.388592702910930 -3.891235569934464 -3.076090119195448 34.000000000000000
-5.731571029579317 -5.609256615336462 -0.625515592284657 3.000000000000000
-5.811707634527541 -5.613412842412430 -0.763614190159854 3.000000000000000
-5.886998927202501 -5.613038110221549 -0.902719670948359 3.000000000000000
-5.972608879614552 -5.620824977071254 -1.045989363369137 4.000000000000000
-6.054189185996605 -5.623037135324934 -1.190525377687746 10.000000000000000
-6.136773769404246 -5.625648567132028 -1.338174092664103 12.000000000000000
-5.639795531879368 -5.102099088396786 -1.349617446083960 21.000000000000000
-5.360437672884283 -4.785500448902811 -1.395382889630627 8.000000000000000
-5.368664346128390 -4.729005378469772 -1.509733509270357 68.000000000000000
-5.363480233109559 -4.661140375864595 -1.619195536532841 0.000000000000000
-5.356795336459697 -4.591949660479387 -1.727552615380173 37.000000000000000
-5.386727456509329 -4.554459176815080 -1.847520748466286 29.000000000000000
-5.454013087660647 -4.546774437995264 -1.981657752897614 35.000000000000000
-5.877685378351146 -4.831588489756898 -2.255806565015232 7.000000000000000
-5.820786950449483 -4.715990300861300 -2.351973375627189 10.000000000000000
-5.538982051275031 -4.423264442257119 -2.350624068096994 7.000000000000000
-5.391379847265759 -4.243362241046340 -2.398066770079352 1.000000000000000
-5.845001497824790 -4.465340643159593 -2.837982810196891 31.000000000000000
-5.405173606872966 -4.066646838571638 -2.734611082018646 2.000000000000000
-5.337961927199167 -3.953024264303783 -2.809395954577725 44.000000000000000
-5.371060548735407 -3.916663864338662 -2.938584141317349 38.000000000000000
-5.406776956669392 -3.878800968687855 -3.069405477634880 38.000000000000000
-5.768114768303963 -5.612795399278304 -0.618517441560059 28.000000000000000
-5.845686700131667 -5.613833311033652 -0.756586121887453 32.000000000000000
-5.921253173810230 -5.613132530219764 -0.895973241693601 15.000000000000000
-5.998468659997595 -5.612425645123458 -1.038003907982625 18.000000000000000
-6.083204420256946 -5.617045499154242 -1.183182083112076 12.000000000000000
-6.154369584000211 -5.608705924917487 -1.328449047321185 17.000000000000000
-5.691095707028849 -5.118158858255407 -1.349023185530745 22.000000000000000
-5.355208621135284 -4.752491170328455 -1.381604972511457 16.000000000000000
-5.366331812976514 -4.698767940195673 -1.496331085430468 68.000000000000000
-5.375833919873681 -4.643859445697687 -1.609855619159656 4.000000000000000
-5.372062451971789 -4.577256150183242 -1.719118130823049 33.000000000000000
-5.316125674040077 -4.467485563344161 -1.809794617939684 16.000000000000000
-5.490290061696241 -4.549065066150220 -1.980586292583886 22.000000000000000
-5.870605357362678 -4.796110401802220 -2.237528491847466 6.000000000000000
-5.548844314160861 -4.467853570698324 -2.227084921596592 7.000000000000000
-5.533839519406197 -4.391640103988145 -2.333177526572121 7.000000000000000
-5.427458441374799 -4.244977742884164 -2.398848646656873 5.000000000000000
-5.830517998915187 -4.494464622224406 -2.696376758522307 0.000000000000000
-5.608717608649687 -4.257586236280051 -2.706876840024605 8.000000000000000
-5.360975120936975 -4.007560580734635 -2.696304868600108 4.000000000000000
-5.352987323389462 -3.938568594971252 -2.801097666690311 42.000000000000000
-5.383204163354068 -3.899990104747830 -2.928632124135163 41.000000000000000
-5.416046371370929 -3.859978673618876 -3.057679895340132 49.000000000000000
-5.790382956889265 -5.602308163330567 -0.609924959028588 5.000000000000000
-5.865302104613921 -5.600356474489762 -0.747646026039136 5.000000000000000
-5.955547398139344 -5.613082104102214 -0.889150426600110 3.000000000000000
-6.044660892488379 -5.622851734025931 -1.033447179096826 5.000000000000000
-6.129730669070325 -5.627008917359095 -1.179147390541101 5.000000000000000
-6.209966131657927 -5.626196538302383 -1.326834260959429 10.000000000000000
-5.733727593577076 -5.126099977123167 -1.346228400826058 23.000000000000000
-5.367484849543850 -4.735144164652555 -1.372392119575923 19.000000000000000
-5.369752841080371 -4.673725090537451 -1.484598330791852 68.000000000000000
-5.370354546273465 -4.611298233203212 -1.595229341435538 45.000000000000000
-5.327945171472417 -4.512270613075119 -1.691824507495519 19.000000000000000
-5.375737513151372 -4.490151838004256 -1.816501764756668 15.000000000000000
-5.470084375836066 -4.504631466432886 -1.959177448026817 6.000000000000000
-5.624986248504105 -4.567189139062709 -2.129088319484972 8.000000000000000
-5.534656013855932 -4.428845997934960 -2.206508992699519 7.000000000000000
-5.540459388829509 -4.369496029787465 -2.320775345957152 5.000000000000000
-5.457633143566622 -4.241797478295481 -2.396925243592132 13.000000000000000
-5.511122380172295 -4.156878606067545 -2.643776534653035 4.000000000000000
-5.414731960803776 -4.021795840547327 -2.707334484249465 3.000000000000000
-5.362005945176997 -3.919716776025047 -2.789682533844013 42.000000000000000
-5.398251257563921 -3.885428371116823 -2.920278365692220 41.000000000000000
-5.431165604074754 -3.845347128400388 -3.049286087466736 38.000000000000000
-5.841372722420036 -5.619395867149803 -0.604267164445356 25.000000000000000
-5.916654106053983 -5.616984727540033 -0.742664634876711 11.000000000000000
-5.995685060914373 -5.618325408619818 -0.883106026015641 22.000000000000000
-6.070557658552530 -5.614200749653232 -1.025330998644985 15.000000000000000
-6.150029267864186 -5.612729275451723 -1.169988925118974 24.000000000000000
-6.230483078092084 -5.611692003405397 -1.317625695151731 15.000000000000000
-5.785289225100109 -5.141702491370046 -1.345384730171865 23.000000000000000
-5.388553843126297 -4.725541756981712 -1.365415168639564 22.000000000000000
-5.370091826984816 -4.646140617416214 -1.472071714607054 68.000000000000000
-5.367673817133893 -4.581340848395350 -1.581523892857590 63.000000000000000
-5.325089391633920 -4.482626426812266 -1.677820994251822 21.000000000000000
-5.414687133947618 -4.495212623756296 -1.816053608427946 18.000000000000000
-5.494390771844407 -4.496988944445497 -1.953780048983506 9.000000000000000
-5.536186561063698 -4.467432047874444 -2.080969307491595 15.000000000000000
-5.586034385506955 -4.442274155923437 -2.212058807434524 2.000000000000000
-5.567917911476655 -4.363769819473381 -2.317097126516430 1.000000000000000
-5.478860905512624 -4.231558772375032 -2.391018513935284 20.000000000000000
-5.613205272943453 -4.206907853478588 -2.676549434652757 4.000000000000000
-5.393943513600320 -3.980644047467659 -2.681090513102703 5.000000000000000
-5.379895560177283 -3.907359072679487 -2.782900077030087 45.000000000000000
-5.413245678151362 -3.870823240920624 -2.911905675931889 50.000000000000000
-5.857905610855876 -5.603154670528727 -0.594965202709665 17.000000000000000
-5.936274467212986 -5.603291219615696 -0.733613629980270 8.000000000000000
-6.024253028811549 -5.612545648621388 -0.875275263557690 5.000000000000000
-6.111055963218075 -5.618887746527128 -1.019603602555462 3.000000000000000
-6.193755355366476 -5.619680086187026 -1.165215141843807 4.000000000000000
-6.277454095803774 -5.620848318596846 -1.313932362948491 8.000000000000000
-5.845854143079011 -5.164892784622101 -1.346450096069110 25.000000000000000
-5.403677450961864 -4.710697825122194 -1.356912674550326 21.000000000000000
-5.367324063346306 -4.616039402193567 -1.458765449419528 67.000000000000000
-5.323159757408733 -4.516076919336319 -1.555674598282675 24.000000000000000
-5.325064144686956 -4.455533049564148 -1.664787403607727 8.000000000000000
-5.450728308551382 -4.497633339849029 -1.814516808033217 16.000000000000000
-5.533656885989117 -4.501425714717255 -1.953618182508411 7.000000000000000
-5.554605069236484 -4.454700233299287 -2.073418519319155 23.000000000000000
-5.583581142322886 -4.412802991973701 -2.196245746979197 1.000000000000000
-5.574386846563433 -4.341576799695132 -2.304679191820323 1.000000000000000
-5.518071637852107 -4.235060989667968 -2.392881069615609 19.000000000000000
-5.682727533379027 -4.231856758157071 -2.693398626237163 5.000000000000000
-5.414855972756853 -3.970404654347875 -2.675669201346115 6.000000000000000
-5.394755373075891 -3.892781941530197 -2.774549913114772 44.000000000000000
-5.428187277127513 -3.856174858305978 -2.903514137489239 52.000000000000000
-5.911961927682742 -5.622608515977783 -0.589389210695154 7.000000000000000
-5.987809928566344 -5.619525988877536 -0.728420153271611 13.000000000000000
-6.070336780759995 -5.622872308745276 -0.869895607356401 15.000000000000000
-6.148693762408810 -5.620716767054170 -1.013297607157487 26.000000000000000
-6.225798735172777 -5.615818938434557 -1.158146691849015 17.000000000000000
-6.297953853778274 -5.606136816736895 -1.304619196434916 15.000000000000000
-5.903646593928569 -5.185190010171398 -1.346679417090183 25.000000000000000
-5.406864166266409 -4.685512429382636 -1.345434190752220 17.000000000000000
-5.370360729826285 -4.591085546565058 -1.447101632803002 35.000000000000000
-5.343940764050013 -4.506483835102329 -1.549032134684743 18.000000000000000
-5.435589353509706 -4.520531230623597 -1.686116773230324 0.000000000000000
-5.486831930628402 -4.499895746115222 -1.812895374568184 14.000000000000000
-5.563998091381450 -4.498408204871050 -1.950206363811894 6.000000000000000
-5.591011267480334 -4.456274894926528 -2.072520945070407 23.000000000000000
-5.580973282683338 -4.383385259342146 -2.180469418762107 1.000000000000000
-5.433335114212794 -4.205291194356559 -2.231719406047596 6.000000000000000
-5.554351963323150 -4.236093823075367 -2.393353168596520 18.000000000000000
-5.719414143996092 -4.231992259592589 -2.694477196824246 6.000000000000000
-5.456782313362674 -3.975413422375237 -2.680543024420817 6.000000000000000
-5.406560498426651 -3.876009794621598 -2.764646025958839 49.000000000000000
-5.449070484014937 -3.845714076401400 -2.898292273530283 14.000000000000000
-5.928482221160820 -5.606167562397788 -0.579986047848485 12.000000000000000
-6.004519562987443 -5.602896603678023 -0.718909219717169 12.000000000000000
-6.090183737399648 -5.608731428104739 -0.860679854593454 5.000000000000000
-6.168751206859108 -5.606356935068109 -1.004035091263271 5.000000000000000
-6.260812422095070 -5.614472226125288 -1.151552620338214 4.000000000000000
-6.359858919695886 -5.628040191043950 -1.303772269055712 6.000000000000000
-5.973492482932728 -5.215585414455667 -1.349441492197232 24.000000000000000
-5.436742531152660 -4.683445476736787 -1.340585363335542 8.000000000000000
-5.319515400120142 -4.520467198327493 -1.421094021073134 21.000000000000000
-5.361708203293793 -4.494305808885985 -1.541491627919444 27.000000000000000
-5.453597220892457 -4.508090543209272 -1.678505587271370 0.000000000000000
-5.522997229552113 -4.501999486872408 -1.811189173598459 6.000000000000000
-5.597376514827126 -4.497682378357111 -1.947775493910337 9.000000000000000
-5.618440546458340 -4.450531136964885 -2.068211407187131 26.000000000000000
-5.590272183813684 -4.363435640176871 -2.169410593897164 1.000000000000000
-5.424106826041061 -4.171908052724487 -2.213393850923813 26.000000000000000
-5.569573662933744 -4.220962167846507 -2.384697798624244 13.000000000000000
