# This PCD file was generated using the MATLAB® pcwrite function
# from Computer Vision Toolbox®.
# .PCD v.7 - Point Cloud Data file format
VERSION .7
FIELDS x y z intensity
SIZE 8 8 8 8
TYPE F F F F
COUNT 1 1 1 1
WIDTH 632
HEIGHT 1
VIEWPOINT 0 0 0 1 0 0 0
POINTS 632
DATA ascii
-5.527890883957133 -3.966695341682943 -2.098130225065753 8.000000000000000
-5.562548820105595 -3.930932144688993 -2.220071867708935 6.000000000000000
-5.647752471644655 -3.930558703143384 -2.365116551076390 4.000000000000000
-6.449996795654067 -5.617081848328707 -0.627462226136703 12.000000000000000
-6.536323826559952 -5.615732252321362 -0.772739350998938 10.000000000000000
-6.630387082719134 -5.619252459268210 -0.921720636808911 4.000000000000000
-6.741428964070963 -5.635084497692715 -1.075575300129354 6.000000000000000
-6.823038793238590 -5.625588847892029 -1.228037353028862 11.000000000000000
-6.903137544295147 -5.613160268222011 -1.382439817061325 6.000000000000000
-6.052576646820143 -4.853502971076315 -1.333494973414153 18.000000000000000
-5.713562512683387 -4.517555621675077 -1.372821408170419 21.000000000000000
-5.463828344251112 -4.259263554603606 -1.420717352953642 8.000000000000000
-6.580185756871893 -5.056061574855105 -1.840488184241882 5.000000000000000
-6.460885909018247 -4.892928746022363 -1.933500855184063 7.000000000000000
-6.134698195849700 -4.577391607236716 -1.955240169349357 5.000000000000000
-6.063320888472894 -4.457544453442002 -2.050960079815484 10.000000000000000
-6.177366145075030 -4.472479080326203 -2.209225743495975 24.000000000000000
-5.523258234177303 -3.938268852722236 -2.082516007686499 12.000000000000000
-5.573557005935514 -3.913563168198596 -2.210222981987680 15.000000000000000
-5.680756277647425 -3.928076732715800 -2.364153399393984 3.000000000000000
-6.505762823760705 -5.633094070277858 -0.621035648230904 6.000000000000000
-6.592468536096030 -5.631220177750685 -0.767029276023681 15.000000000000000
-6.674748997818018 -5.623930218171500 -0.915046838836593 10.000000000000000
-6.758673571603852 -5.616408014950488 -1.064986648791225 9.000000000000000
-6.874185968738149 -5.634341764027863 -1.223333214351229 21.000000000000000
-6.960726679556642 -5.626390887456308 -1.379545459220882 13.000000000000000
-6.055675604311968 -4.826966926895325 -1.321332381348296 8.000000000000000
-5.749752862863745 -4.518811938140031 -1.369043711396134 23.000000000000000
-5.499415602902785 -4.261024507289064 -1.417779311046456 8.000000000000000
-5.920139803367411 -4.521130923124623 -1.642468838228342 0.000000000000000
-6.467953481166990 -4.868162538807643 -1.920669482552823 9.000000000000000
-6.140903459874544 -4.553635651685408 -1.942743176078729 3.000000000000000
-6.094256693802516 -4.452319010199290 -2.046775703749985 16.000000000000000
-6.192982544186327 -4.455574652321419 -2.199641271888285 27.000000000000000
-5.555932470108019 -3.936441648700647 -2.080971295807398 7.000000000000000
-5.575129987898420 -3.889636794182869 -2.196676404793064 32.000000000000000
-5.720039867139990 -3.929739240759558 -2.365695969046663 3.000000000000000
-6.531426058894739 -5.622808752379868 -0.611633363503903 19.000000000000000
-6.612300287691542 -5.615487266886128 -0.757001757484162 14.000000000000000
-6.706983855044085 -5.618187390114986 -0.906616797622299 4.000000000000000
-6.824840242712685 -5.638152897797105 -1.061999794026134 10.000000000000000
-6.891638623134706 -5.615319306355433 -1.212555225872159 23.000000000000000
-7.006120437909289 -5.629442962138318 -1.374086003691583 6.000000000000000
-6.064834113259722 -4.805352740872564 -1.310525167415602 3.000000000000000
-5.795293173799431 -4.527169675090696 -1.367374039044519 23.000000000000000
-5.774227414848665 -4.446813339151989 -1.475887830544734 50.000000000000000
-5.953758496379206 -4.519022914347610 -1.638382026999094 0.000000000000000
-6.481144867359393 -4.848063981327222 -1.909683963711968 7.000000000000000
-6.162610421165522 -4.541388982816108 -1.935157591437601 3.000000000000000
-6.134586305841582 -4.453770310973344 -2.045650232389046 16.000000000000000
-6.205410239244846 -4.436388955246658 -2.188934169965073 28.000000000000000
-5.591775363151463 -3.936674653988293 -2.080515550698547 7.000000000000000
-5.585973688141546 -3.872245898112332 -2.186826389986764 44.000000000000000
-5.759392631341947 -3.931224164807317 -2.367143655142015 2.000000000000000
-6.578290296795140 -5.630588135935998 -0.604130792583604 5.000000000000000
-6.665576730570804 -5.627970131656583 -0.750716355259711 6.000000000000000
-6.748402218220455 -5.619950043892085 -0.899340316718090 14.000000000000000
-6.851282359971416 -5.626803961340967 -1.052706608976182 10.000000000000000
-6.952146308245895 -5.631176097531343 -1.209256576304069 10.000000000000000
-7.039224252333156 -5.622418039145130 -1.366119071845550 16.000000000000000
-7.081053200725353 -5.576948544580774 -1.515232820260844 4.000000000000000
-5.837825265625875 -4.532902002225113 -1.364863218877167 23.000000000000000
-5.885258690912950 -4.504799806951483 -1.491344641698711 57.000000000000000
-6.611425913827164 -4.987510868756038 -1.804538367565244 6.000000000000000
-6.494256555952765 -4.827935353819674 -1.898687969310017 6.000000000000000
-6.190547261542723 -4.533647369561354 -1.929484421050170 2.000000000000000
-6.174980648553005 -4.455040214607954 -2.044428202755440 18.000000000000000
-6.214625659659846 -4.414947840970992 -2.177119076165331 28.000000000000000
-5.624535739914231 -3.934553151624291 -2.078815337510965 8.000000000000000
-5.603021283837659 -3.859153213962457 -2.179409315393838 47.000000000000000
-5.792541314641594 -3.928277431030109 -2.365934391108451 2.000000000000000
-6.603967939261801 -5.620046792206502 -0.594596931216149 25.000000000000000
-6.688443807078155 -5.614575873552381 -0.740913759948732 7.000000000000000
-6.802137994200389 -5.631679601701841 -0.893576841480853 3.000000000000000
-6.890011573266859 -5.625403948747769 -1.045230564833298 36.000000000000000
-6.969569654543943 -5.611933447717321 -1.198367977230634 9.000000000000000
-7.094020370234452 -5.632473760604256 -1.362246058097867 9.000000000000000
-6.806733082068066 -5.328778188629771 -1.442291151558434 8.000000000000000
-5.892897986344122 -4.548053270933129 -1.365133241590675 22.000000000000000
-5.921794415920638 -4.505214585589479 -1.487661397416414 56.000000000000000
-6.615390430567587 -4.959942771793906 -1.790859333304591 6.000000000000000
-6.485357319252194 -4.791573511236527 -1.881319677258080 5.000000000000000
-6.237310241649834 -4.539493098828816 -1.929576988641718 2.000000000000000
-6.215438830007348 -4.456128343785539 -2.043109476789740 14.000000000000000
-6.223748728122348 -4.393496234869695 -2.165304275011084 25.000000000000000
-5.660478928880829 -3.934474188637816 -2.078194205226966 8.000000000000000
-5.620029398644971 -3.846003128222822 -2.171965353330136 47.000000000000000
-5.835158229513157 -3.931541418412189 -2.368477678141456 3.000000000000000
-6.650952127277074 -5.627451734721846 -0.586895880071277 3.000000000000000
-6.744938104125554 -5.629194043844455 -0.734738312776255 10.000000000000000
-6.834478455715397 -5.625449912973067 -0.884891809767393 10.000000000000000
-6.931864653393465 -5.626338696277994 -1.038127786835095 4.000000000000000
-7.033358648196984 -5.629808985397292 -1.195349703548137 14.000000000000000
-7.120981473389241 -5.620213630100400 -1.352924834453448 9.000000000000000
-6.739555986294647 -5.244546720165490 -1.414019380207144 10.000000000000000
-5.938746531163281 -4.555753246623771 -1.363108944462273 18.000000000000000
-5.961509436197161 -4.507832780239154 -1.484671299491423 55.000000000000000
-6.628634182325372 -4.939405380811054 -1.779724518267491 6.000000000000000
-6.460565921803794 -4.743771816958113 -1.859489424186488 5.000000000000000
-6.290457400098689 -4.549671719507126 -1.931484647171887 2.000000000000000
-6.252811511544387 -4.454791227042235 -2.040666392276195 9.000000000000000
-6.239081580698700 -4.376455101811036 -2.155667360985538 7.000000000000000
-5.699627451231644 -3.936411711039848 -2.078637476414539 6.000000000000000
-5.636997803140826 -3.832795724416510 -2.164494560464410 46.000000000000000
-5.865250524867488 -3.926170712121678 -2.365830894172195 13.000000000000000
-6.682750126040064 -5.621792421260140 -0.577758362270551 12.000000000000000
-6.770883775744844 -5.618086943328272 -0.725131707043371 5.000000000000000
-6.879149765035542 -5.629169374206459 -0.877709898945834 40.000000000000000
-6.964493378302159 -5.619600742487106 -1.029554990577821 12.000000000000000
-7.069377896765078 -5.625153109749755 -1.187473218477793 5.000000000000000
-7.179049963647346 -5.632275318489532 -1.349404445001081 8.000000000000000
-6.743703952387047 -5.216274394147469 -1.400906295053593 10.000000000000000
-5.978430327428340 -4.558465358997324 -1.359545656058100 18.000000000000000
-5.995014752574138 -4.505555131445079 -1.480036173182045 54.000000000000000
-6.641796893856177 -4.918837813686929 -1.768579255619044 6.000000000000000
-6.432361145533013 -4.693850578429103 -1.836867126609323 5.000000000000000
-6.350033960243107 -4.564130923658520 -1.935177928631695 2.000000000000000
-6.296543132136127 -4.457757785248066 -2.040181392231985 7.000000000000000
-8.519186890501288 -5.937989758351389 -2.923127837509846 19.000000000000000
-5.805206762919746 -3.983711459433938 -2.103026734905090 6.000000000000000
-5.653926268141569 -3.819531086801655 -2.156996993826025 43.000000000000000
-5.866928128739771 -3.901762505952068 -2.351720153281145 8.000000000000000
-6.735989516772948 -5.633926373358899 -0.570367293501308 4.000000000000000
-6.830637543610777 -5.634787738735244 -0.719036777372263 9.000000000000000
-6.905359710043495 -5.617611740345699 -0.868090784214544 13.000000000000000
-7.028130832487812 -5.637595420158433 -1.025435946338353 8.000000000000000
-7.111640395742226 -5.625265218047853 -1.180549917736810 12.000000000000000
-7.224762814863805 -5.634326858834282 -1.343414722555855 9.000000000000000
-6.741464093399242 -5.183210230342182 -1.386524282327890 16.000000000000000
-6.005626821004437 -4.551484915967919 -1.353058589473725 21.000000000000000
-6.034842557078614 -4.507829332314220 -1.476863575961030 54.000000000000000
-6.654878497447348 -4.898240317549172 -1.757423675653857 6.000000000000000
-6.432282728826909 -4.664725548176366 -1.822410068186008 6.000000000000000
-6.378157174861544 -4.555727588368919 -1.929155564835688 5.000000000000000
-6.340351307659847 -4.460524169131946 -2.039589525381480 8.000000000000000
-8.292921753559240 -5.743599005967769 -2.825791083571116 1.000000000000000
-6.148762527688711 -4.192465804455361 -2.212610642784583 9.000000000000000
-5.670814564705441 -3.806209300371051 -2.149472710804573 38.000000000000000
-5.868486758608416 -3.877381812167672 -2.337630733608073 8.000000000000000
-6.755579564335652 -5.617732121676180 -0.560041569009089 10.000000000000000
-6.875119403299759 -5.638558298038688 -0.711191612710840 19.000000000000000
-6.962504410787569 -5.630991331265983 -0.862255737569193 11.000000000000000
-7.045309521220101 -5.618109392640657 -1.014438072298252 11.000000000000000
-7.169546644644170 -5.637449811097677 -1.176085259505568 6.000000000000000
-7.245513457774948 -5.616770346967935 -1.332712122937207 4.000000000000000
-6.767301908226385 -5.171780956301288 -1.377929832377125 6.000000000000000
-6.070569444915572 -4.572824859290900 -1.354938899252877 34.000000000000000
-6.065275864503527 -4.502901222863223 -1.471300535107591 53.000000000000000
-6.664720291129586 -4.875302569712049 -1.745430690335380 6.000000000000000
-6.454210847199948 -4.651603175526492 -1.814207881505965 6.000000000000000
-6.418951957047880 -4.556205446519089 -1.926879265086677 4.000000000000000
-6.374720537066105 -4.456438546311405 -2.035852046995926 17.000000000000000
-8.252650731094544 -5.679379550776265 -2.792562233646559 1.000000000000000
-6.163601585992390 -4.175642965819344 -2.203115364922028 21.000000000000000
-5.690838155070168 -3.794948167463078 -2.143117705369027 35.000000000000000
-5.879450594675392 -3.859280589894822 -2.327332815312900 9.000000000000000
-6.815115440864480 -5.634542459897274 -0.552931094536485 6.000000000000000
-6.894943785885744 -5.621966649842533 -0.700726178713107 64.000000000000000
-6.988742244223999 -5.619146676559581 -0.852488399398091 5.000000000000000
-7.109147714053281 -5.635617521823679 -1.010058378255896 11.000000000000000
-7.208821937723227 -5.634698563531703 -1.168432440637495 10.000000000000000
-7.278751427027019 -5.608811662420706 -1.324260321479732 0.000000000000000
-6.101012978864372 -4.567877453998329 -1.348975980876696 39.000000000000000
-6.108365565235074 -4.507170507901067 -1.468709683415080 52.000000000000000
-6.655468074476971 -4.838541526313188 -1.728503574702878 6.000000000000000
-6.466591385578097 -4.631586305974794 -1.803313656099213 6.000000000000000
-6.434398320601238 -4.538577995061178 -1.916936106027118 3.000000000000000
-5.964040912500884 -4.143023244640411 -1.890923157715531 11.000000000000000
-5.965717009655451 -4.079401740575657 -2.004670047587865 4.000000000000000
-5.955563641932144 -4.008795469548727 -2.114492040708960 10.000000000000000
-5.704469737982122 -3.779394624704730 -2.134344226969771 32.000000000000000
-5.928528495281592 -3.866057875761923 -2.332048537636684 15.000000000000000
-6.840865373437124 -5.623177563296860 -0.542972406429395 8.000000000000000
-6.945694163522610 -5.630422709310339 -0.693322941557809 5.000000000000000
-7.039842170876488 -5.627093767628807 -0.845660652662781 13.000000000000000
-7.145035523578001 -5.630668276068937 -1.001571830514066 5.000000000000000
-7.241863874340215 -5.626906013881042 -1.159686309514561 10.000000000000000
-6.099866380701875 -4.539280903450095 -1.336023584056916 31.000000000000000
-6.148363902980877 -4.508917563946595 -1.465257560313426 51.000000000000000
-6.668245249529945 -4.817925462266171 -1.717357135883108 5.000000000000000
-6.494788029368910 -4.622855694115324 -1.796807637158703 6.000000000000000
-6.472065711363148 -4.536525883819240 -1.913562733028492 7.000000000000000
-5.959163550753918 -4.113464114520016 -1.875681943699953 15.000000000000000
-5.970376550338854 -4.056554779139556 -1.992262826788659 14.000000000000000
-5.870839656067828 -3.926346193427405 -2.070422010629602 9.000000000000000
-5.727617905016033 -3.770102580523210 -2.129112412831219 27.000000000000000
-5.961765980763913 -3.862270781826815 -2.330404857198205 15.000000000000000
-6.888233139056037 -5.629399947975107 -0.534644225394862 113.000000000000000
-6.968590327583489 -5.616116403939745 -0.683052987482494 12.000000000000000
-7.091036422041549 -5.634801873126890 -0.838705140013993 4.000000000000000
-7.190333075045452 -5.632922262174518 -0.994304308653094 8.000000000000000
-7.271767763330525 -5.616550138153380 -1.150373044623449 1.000000000000000
-6.722698503016566 -4.972346567851880 -1.458505552512719 51.000000000000000
-6.188422410926075 -4.510482414173826 -1.461708745057148 50.000000000000000
-6.671397104655106 -4.790427376874874 -1.703763545474310 6.000000000000000
-6.516607894222681 -4.609502192211983 -1.788494085242533 5.000000000000000
-6.184286535537150 -4.307591414640720 -1.814596442983248 13.000000000000000
-5.986079316187618 -4.105878315510290 -1.870463492969901 17.000000000000000
-5.914191523662753 -3.992712773024205 -1.959740629156064 10.000000000000000
-5.865544408492000 -3.897526017254119 -2.054647350966944 9.000000000000000
-5.773144091957768 -3.775360126883118 -2.132103000756345 18.000000000000000
-6.001430300451535 -3.862453857347383 -2.331168923240983 15.000000000000000
-6.904689510055708 -5.610221945988011 -0.523847770331385 7.000000000000000
-7.035026391349843 -5.636644442515287 -0.676936556608295 8.000000000000000
-7.120443600850319 -5.624985615929669 -0.829074030285655 11.000000000000000
-7.238831182496878 -5.637413914153368 -0.987355797988157 14.000000000000000
-6.738637870254052 -4.953789690122177 -1.448057788769900 29.000000000000000
-6.225357492079673 -4.509559199068295 -1.457318059280807 49.000000000000000
-6.674422625643177 -4.762953340036771 -1.690189958239903 7.000000000000000
-6.532005274426909 -4.591578301562488 -1.778402596567927 5.000000000000000
-6.064538260152398 -4.197616471357430 -1.765912696181928 8.000000000000000
-6.035409088558201 -4.113456836428611 -1.872140483133620 16.000000000000000
-5.854412079616920 -3.927065808059444 -1.926363761392410 9.000000000000000
-5.863306792281492 -3.870887011560862 -2.040030196667476 9.000000000000000
-5.812352277089153 -3.776237767073539 -2.132625924428377 12.000000000000000
-6.041156066492888 -3.862456380504456 -2.331837063127820 15.000000000000000
-6.964566529650672 -5.626128148470639 -0.516254889619396 16.000000000000000
-7.051705258528988 -5.617080292867589 -0.665929373367141 7.000000000000000
-7.184303686883860 -5.642117292870289 -0.823332853784568 7.000000000000000
-7.255954006509154 -5.617332743126854 -0.976057533354812 3.000000000000000
-6.767242758257191 -4.944489481221516 -1.440300392593631 2.000000000000000
-6.265526153660444 -4.510767340035236 -1.453580414654927 50.000000000000000
-6.690107716289417 -4.744571299003802 -1.679846996935782 9.000000000000000
-6.579354430391332 -4.595974595182712 -1.776939166016964 5.000000000000000
-6.197380404426108 -4.262543834565883 -1.790815507314940 10.000000000000000
-6.072007433436017 -4.112107450565078 -1.869738495968066 18.000000000000000
-5.855255259312507 -3.902455390840768 -1.913136631501016 8.000000000000000
-5.864149702876498 -3.846403396886860 -2.026555987549002 8.000000000000000
-5.851623318286097 -3.776935804664347 -2.133053320555979 9.000000000000000
-6.077730054852479 -3.860237695227632 -2.331177023884398 15.000000000000000
-6.996555812038381 -5.619237638766346 -0.506477174316433 5.000000000000000
-7.115227269455982 -5.634619093492572 -0.659248492784693 10.000000000000000
-7.226330080219415 -5.641775794732776 -0.814945061757791 15.000000000000000
-6.741601149562052 -4.895685014512539 -1.421051082438974 2.000000000000000
-6.302554671906919 -4.509504302662378 -1.449010542368057 52.000000000000000
-6.673687791687176 -4.703563042282012 -1.661508340744745 8.000000000000000
-6.601115421876634 -4.582328838732899 -1.768480025552809 5.000000000000000
-6.517101613990948 -4.454165372003065 -1.868780723296708 5.000000000000000
-6.102217119770080 -4.106264525862294 -1.865283320793351 20.000000000000000
-5.846322938999645 -3.871480084782292 -1.896798894469481 9.000000000000000
-5.861654469907243 -3.819851622609663 -2.011999119448808 8.000000000000000
-5.861968567995945 -3.758866075706357 -2.122887263311800 9.000000000000000
-6.114348817413119 -3.857855288926777 -2.330430670219239 15.000000000000000
-7.147549301930465 -5.627168158104813 -0.649551766131513 3.000000000000000
-7.246367067089770 -5.624143571992536 -0.804013314946870 6.000000000000000
-6.738085103196433 -4.863220542566532 -1.406584194579617 13.000000000000000
-6.342830003989908 -4.510354410974578 -1.445083605846923 53.000000000000000
-6.592826640043546 -4.617701077019518 -1.627395974440420 7.000000000000000
-6.609974853102702 -4.559727862516961 -1.756563195884627 5.000000000000000
-6.622367417955785 -4.497504329243751 -1.884378037982654 4.000000000000000
-6.135665356599919 -4.102448091209418 -1.861739587254831 16.000000000000000
-5.856589431961792 -3.853327159111569 -1.886751183989721 16.000000000000000
-5.855799064254588 -3.791258568269719 -1.996374661128653 8.000000000000000
-5.862556522998039 -3.734605103750980 -2.109230128196136 9.000000000000000
-6.160693102454674 -3.861377038577663 -2.333264636365232 15.000000000000000
-7.195583839700954 -5.631878378304459 -0.641185728023640 8.000000000000000
-7.278967070840594 -5.616182478827551 -0.794428565780938 0.000000000000000
-6.734413426551654 -4.830816568233061 -1.392157708151545 9.000000000000000
-6.383161057720171 -4.511020593953011 -1.441059371482149 51.000000000000000
-6.620891596734003 -4.608498576725800 -1.620345436199738 7.000000000000000
-6.628411099083139 -4.543747893714442 -1.747197006612884 5.000000000000000
-6.666643742203131 -4.498909408999829 -1.882358983870142 4.000000000000000
-5.975245569622440 -3.969668857648940 -1.799718184416541 5.000000000000000
-5.892656782589211 -3.852066344211039 -1.884973454031106 10.000000000000000
-5.862739185426426 -3.771057028196495 -1.985175592675697 20.000000000000000
-5.856556333464171 -3.706280267949333 -2.093283183988765 9.000000000000000
-6.200655704780047 -3.860653770922318 -2.333547790777370 16.000000000000000
-7.128866032079301 -4.212293141385005 -3.083950646120453 18.000000000000000
-7.243691915815225 -5.636365536698316 -0.632701324064248 26.000000000000000
-6.740224609175173 -4.805344984232565 -1.379744831619343 11.000000000000000
-6.423546925621118 -4.511502508503391 -1.436937719635436 48.000000000000000
-6.716697788344422 -4.646043136392960 -1.629674198981204 2.000000000000000
-6.646796618959482 -4.527706020311709 -1.737802318971258 5.000000000000000
-6.707751464823088 -4.497940782446772 -1.879325145834492 3.000000000000000
-5.914377497396023 -3.904086733082825 -1.768236861639932 12.000000000000000
-5.932010999540660 -3.852747695233983 -1.884139245968262 10.000000000000000
-5.902020820602031 -3.771574950628970 -1.984886048358497 18.000000000000000
-5.866625268209234 -3.688216811445939 -2.083137228839344 20.000000000000000
-6.237433360864657 -3.857743112119485 -2.332522057702196 17.000000000000000
-7.107184904361119 -4.246192820201507 -2.923383188856802 0.000000000000000
-7.083543221963623 -4.156815211302569 -3.046621525830994 15.000000000000000
-7.266619185461208 -5.621094551472332 -0.621937020039148 1.000000000000000
-6.749144940655478 -4.782163356380358 -1.367995688194051 13.000000000000000
-6.483349614232116 -4.525314941501983 -1.437010250434964 40.000000000000000
-6.664068006555526 -4.580857805632388 -1.602958317792402 0.000000000000000
-6.668369812329341 -4.513794584677354 -1.729219041461239 5.000000000000000
-8.685046978474915 -5.786829353952297 -2.414437617732083 6.000000000000000
-5.999197145284533 -3.934686366464870 -1.780320423284918 12.000000000000000
-5.964926672349667 -3.849054942077524 -1.881159707829218 10.000000000000000
-5.941361931744966 -3.771911988305209 -1.984500528720306 19.000000000000000
-5.896123955036144 -3.682312096606196 -2.079864401838884 14.000000000000000
-6.245009427352134 -3.836701678516403 -2.320543359291607 0.000000000000000
-7.080995842992756 -4.201778400724532 -2.895261670855346 9.000000000000000
-7.112434851491156 -4.145078639852319 -3.041343379615991 13.000000000000000
-6.764423726438422 -4.763518043889054 -1.357543183379564 0.000000000000000
-6.695312030637226 -4.644285531768133 -1.470309053163172 32.000000000000000
-6.669397814530803 -4.555849496739131 -1.590343407756173 0.000000000000000
-6.696398306321181 -4.504170266903210 -1.722267090158744 5.000000000000000
-6.780369176404761 -4.488987707292288 -1.870272492295958 4.000000000000000
-6.038729094237524 -3.935171369468107 -1.778750465728049 31.000000000000000
-6.007639952318347 -3.851478821928988 -1.881162695659493 11.000000000000000
-5.987276611422722 -3.776176795563579 -1.986180149673647 20.000000000000000
-5.948441229613834 -3.690427262026369 -2.084516625388920 10.000000000000000
-8.385507638830262 -5.117349672041077 -3.096125639114217 46.000000000000000
-7.070137884953363 -4.240127304886536 -2.741498627776942 0.000000000000000
-7.077315470316545 -4.170965266774381 -2.876503168254781 19.000000000000000
-6.694143243470972 -4.614635002323352 -1.456430578923722 26.000000000000000
-6.736329714555522 -4.572742142655001 -1.592327627589016 5.000000000000000
-6.743938314028488 -4.507476994108369 -1.720235787374034 5.000000000000000
-6.775999066513575 -4.457483007519470 -1.854476176250949 8.000000000000000
-6.026143757046355 -3.901693257594367 -1.761830055100066 24.000000000000000
-6.047161789811180 -3.851624354490256 -1.880044712166487 12.000000000000000
-6.023483747820443 -3.774087580634835 -1.984516685100151 18.000000000000000
-5.981285299715960 -3.686217232782019 -2.082213407924998 16.000000000000000
-8.387861190964959 -5.084530711127171 -3.077292980641991 52.000000000000000
-7.069548188883049 -4.211102777832508 -2.724394574871953 0.000000000000000
-7.109335265372741 -4.161199852312800 -2.872271552907113 9.000000000000000
-6.679839861099530 -4.576127275565891 -1.439782826640089 20.000000000000000
-6.738322569691015 -4.545387987013244 -1.578878397568462 3.000000000000000
-6.778514978492044 -4.501899290732244 -1.714786710487207 8.000000000000000
-6.791064577156901 -4.438846097762235 -1.844041005310278 0.000000000000000
-6.016651015119581 -3.870421598591898 -1.745921880100553 22.000000000000000
-6.086740152486825 -3.851587629891668 -1.878830233248907 10.000000000000000
-6.066277117541404 -3.775907544262187 -1.984908096204319 18.000000000000000
-6.027246003483693 -3.689874188624866 -2.084360354067847 7.000000000000000
-7.071855708260959 -4.258041506454299 -2.577953329843129 0.000000000000000
-7.072086547493543 -4.184056052624095 -2.708573575382532 0.000000000000000
-6.675108857303092 -4.544387890773599 -1.425293107169215 15.000000000000000
-6.733666109312885 -4.513688270462735 -1.563935716510821 3.000000000000000
-6.773899226912835 -4.470292965437849 -1.699421685982190 31.000000000000000
-8.710451858028069 -5.656961685838840 -2.346639493813809 8.000000000000000
-6.039751318976482 -3.860170434439260 -1.739501141707841 22.000000000000000
-6.123096246780806 -3.849307649121479 -1.876514581630973 10.000000000000000
-6.102582339225529 -3.773471958255698 -1.983061817803617 18.000000000000000
-6.066733076815114 -3.689325022717084 -2.084137867663994 7.000000000000000
-7.071003760503731 -4.228898191380464 -2.561193062984737 0.000000000000000
-7.110542286572797 -4.178215288199604 -2.706493191625502 1.000000000000000
-6.666962198735002 -4.510505551651820 -1.410155562041526 11.000000000000000
-6.771361671205826 -4.510365430434663 -1.558820323727075 6.000000000000000
-6.792054210523748 -4.453783121386223 -1.689802210012106 57.000000000000000
-8.788588894476794 -5.671087586408848 -2.349014863971420 9.000000000000000
-6.072682837980843 -3.856079782987520 -1.735849030453933 18.000000000000000
-6.162777769794429 -3.848914385064882 -1.875111787752454 10.000000000000000
-6.138928125946530 -3.770871698375171 -1.981128996016108 18.000000000000000
-6.109561881308143 -3.690578899455150 -2.084940528015829 9.000000000000000
-7.073296032514684 -4.201750952745250 -2.545646512679322 1.000000000000000
-6.707706214951560 -4.509688251589089 -1.405348784956798 10.000000000000000
-6.799260206904493 -4.500366742269293 -1.551373528161917 0.000000000000000
-6.800310393441197 -4.430796723724244 -1.677725527578974 25.000000000000000
-8.834032327331096 -5.663762553955492 -2.342471039752830 9.000000000000000
-6.112219784731212 -3.855993081804560 -1.733986925041742 5.000000000000000
-6.202513130941469 -3.848337868932190 -1.873612154913895 13.000000000000000
-6.178607168329888 -3.770116148192956 -1.980165065997581 18.000000000000000
-6.142578471228005 -3.685703485141974 -2.082287094619403 18.000000000000000
-7.111678662055008 -4.195999254246754 -2.543072328116561 0.000000000000000
-6.751775286108973 -4.510873799258412 -1.401123853573287 11.000000000000000
-8.685814212787031 -5.712707302366471 -1.964180933222703 5.000000000000000
-8.755627745940728 -5.668392574154967 -2.142011297770789 5.000000000000000
-8.892676982921108 -5.664629166051814 -2.339288885225653 10.000000000000000
-8.911223955988548 -5.585219706644133 -2.508934521809969 23.000000000000000
-6.229104165896022 -3.839443354609320 -1.868057819544982 1.000000000000000
-6.205136943614823 -3.761174817165883 -1.974902404095875 22.000000000000000
-6.178920784791590 -3.682648487114812 -2.080668655894415 16.000000000000000
-8.427010799239794 -4.938373907054348 -2.994095546842252 78.000000000000000
-6.776197276595783 -4.498769874645694 -1.392739775994153 2.000000000000000
-8.688079010237024 -5.677994058515677 -1.947117506299901 7.000000000000000
-8.820623520067151 -5.673952606499088 -2.139737959760581 10.000000000000000
-8.816076930247498 -5.579575804791611 -2.300647169502938 14.000000000000000
-8.950186471719164 -5.573066379223735 -2.500797723571683 16.000000000000000
-8.884270958187098 -5.439949946873609 -2.645028944458468 18.000000000000000
-6.264739151598932 -3.772038019341889 -1.980037510519134 1.000000000000000
-6.208685991406623 -3.675512018977361 -2.076750745386676 18.000000000000000
-8.445037370167240 -4.915314535255535 -2.981221701917590 78.000000000000000
-8.687394854550002 -5.820985424712030 -1.606766730558057 1.000000000000000
-8.690014254889496 -5.733079622015258 -1.768912179123303 4.000000000000000
-8.723167086742954 -5.664733899037897 -1.937406986117101 5.000000000000000
-8.885729940116734 -5.679203466816799 -2.137300028963905 9.000000000000000
-8.805134375403433 -5.536590969717234 -2.279401909522402 17.000000000000000
-9.042120230034559 -5.593518884876521 -2.507266286242743 18.000000000000000
-8.770661276307615 -5.334933471590346 -2.592244130089417 11.000000000000000
-7.083547152687204 -4.236600807936718 -2.223258268813354 11.000000000000000
-6.264979119053716 -3.683839407045375 -2.081577253171377 2.000000000000000
-8.449726590898619 -4.884540687280093 -2.963677245140929 76.000000000000000
-8.696032627893590 -5.790385749317901 -1.591563196579471 4.000000000000000
-8.688720021820437 -5.696100188923916 -1.751537330506423 4.000000000000000
-8.801204099435330 -5.679052114109967 -1.937079628024070 10.000000000000000
-8.931083884666499 -5.671531785435129 -2.129960528237399 7.000000000000000
-8.807237251531667 -5.501998262342196 -2.261630190021426 18.000000000000000
-9.124320442086274 -5.607398085082696 -2.510749526642876 19.000000000000000
-8.762657271524477 -5.294793581857782 -2.571018177165780 36.000000000000000
-7.111806994541286 -4.225061357960629 -2.216563509999546 6.000000000000000
-7.258141868380162 -4.238982905670284 -2.395412395372049 0.000000000000000
-8.457597423272986 -4.855693609982266 -2.947308838894141 60.000000000000000
-8.691348583802739 -5.751056545106007 -1.573978529022378 4.000000000000000
-8.703784115784051 -5.669943338049309 -1.737500678887771 5.000000000000000
-8.846286140307168 -5.671753448831161 -1.929323803689034 11.000000000000000
-8.989730540728489 -5.672031181735059 -2.125654505915450 8.000000000000000
-8.835756908621597 -5.483935482208020 -2.250655788592664 16.000000000000000
-9.143523235239357 -5.582306122454368 -2.496766148810594 4.000000000000000
-8.751127627670790 -5.252748352708986 -2.548882105419950 37.000000000000000
-8.434915526355132 -4.977514824938822 -2.610563584892609 73.000000000000000
-8.448422608965364 -4.900710815839044 -2.769529367932577 55.000000000000000
-8.465343391827627 -4.826849159699066 -2.930949410677834 70.000000000000000
-8.694508089408986 -5.806769327826942 -1.395443677333451 3.000000000000000
-8.693091780334417 -5.716148359491151 -1.557627436510028 4.000000000000000
-8.761811818679215 -5.671626933092064 -1.731964660689680 5.000000000000000
-8.901348843941063 -5.670597367807437 -1.923615931178686 12.000000000000000
-9.051779755649724 -5.674340109443985 -2.121982935267158 8.000000000000000
-9.157153554059303 -5.646382350104941 -2.313638075370142 12.000000000000000
-6.297229753029976 -3.819283301122147 -1.706333057560436 0.000000000000000
-8.726048997491976 -5.202861629307765 -2.522959325800999 37.000000000000000
-8.442497396010657 -4.948502965780126 -2.594596715487509 55.000000000000000
-8.456016388886084 -4.871788407628053 -2.753373302367636 55.000000000000000
-8.472964615294369 -4.798007747620946 -2.914599163133571 70.000000000000000
-8.692854964287910 -5.769531717997246 -1.378895327745627 3.000000000000000
-8.688055094176130 -5.676949804902649 -1.540131031171044 5.000000000000000
-8.816599442374722 -5.670902482425579 -1.725634754963268 11.000000000000000
-8.969779300195691 -5.677606337683015 -1.920622185668616 9.000000000000000
-9.037304248603647 -5.628637993906320 -2.100350030762658 9.000000000000000
-9.079452068473520 -5.561909011318300 -2.275359814646507 20.000000000000000
-9.134915212649826 -5.503792014602199 -2.456162355728924 2.000000000000000
-8.714069401933015 -5.161075653819600 -2.500983117465089 37.000000000000000
-8.463324854064254 -4.927278813669508 -2.582719478948867 34.000000000000000
-8.460142965273912 -4.840956933675798 -2.736145641851431 81.000000000000000
-8.483802609324824 -4.771048889879514 -2.899400244256176 59.000000000000000
-8.686650546104413 -5.818801100840515 -1.199263123222364 1.000000000000000
-8.691033057820171 -5.732350988513947 -1.362386337409521 2.000000000000000
-8.732622787416352 -5.670153657623366 -1.531415277329111 5.000000000000000
-8.884756889169477 -5.678426796904014 -1.721749149138137 10.000000000000000
-9.034995228391265 -5.682189889824653 -1.916746013148731 8.000000000000000
-8.892419607952272 -5.502509934388939 -2.048803050089731 32.000000000000000
-9.074794951195724 -5.522663924328939 -2.255632898471798 17.000000000000000
-9.086837245900766 -5.438612939714366 -2.424329630739619 1.000000000000000
-8.718620673519871 -5.129251028927479 -2.483846499588556 38.000000000000000
-8.437190954620155 -4.878869778299317 -2.556602135975294 46.000000000000000
-8.464131330992787 -4.810147798564817 -2.718937838139797 81.000000000000000
-8.554798464420630 -4.777734778059213 -2.904664115464970 17.000000000000000
-8.694649896067078 -5.788102269173144 -1.184516486340943 2.000000000000000
-8.692360477923012 -5.697402318341316 -1.346430891208689 3.000000000000000
-8.800495255095152 -5.678179706635725 -1.526635019969709 9.000000000000000
-8.933032793207927 -5.672921513840509 -1.713851397664709 7.000000000000000
-9.096974418891872 -5.684374966872090 -1.912002525632442 7.000000000000000
-8.893947307010807 -5.467706802020471 -2.031349213516534 28.000000000000000
-9.096746651411674 -5.499692507804514 -2.242560741569646 13.000000000000000
-9.092035307471717 -5.405638854837453 -2.406879003763869 1.000000000000000
-8.847166619021284 -5.169988326663014 -2.501832831634370 35.000000000000000
-8.430933308299918 -4.842214872712351 -2.536655805875585 46.000000000000000
-8.474694338279695 -4.783150105553766 -2.703891813751248 81.000000000000000
-8.662835391776897 -4.804545058885211 -2.922193311901057 16.000000000000000
-8.689261077289844 -5.748633055737860 -1.167996541593216 2.000000000000000
-8.700182503667811 -5.666824118330554 -1.331522742869846 5.000000000000000
-8.851821204466960 -5.675193494056002 -1.518820650759503 9.000000000000000
-8.994703223848312 -5.675627302705375 -1.708377193619151 8.000000000000000
-9.149002097697272 -5.680033528561489 -1.905013315110480 9.000000000000000
-8.905373770202608 -5.439083944986677 -2.016201342221444 53.000000000000000
-9.111909964160139 -5.472617018284412 -2.227815022891927 5.000000000000000
-9.120604423786268 -5.386572360397557 -2.395623749884655 6.000000000000000
-8.912201575333137 -5.172989653494245 -2.501530956328739 20.000000000000000
-8.478306329190975 -4.836333427321371 -2.532835716775607 27.000000000000000
-8.488509914723121 -4.758023984532330 -2.689911372194700 44.000000000000000
-8.848478536404647 -4.873394845120218 -2.965338812739944 14.000000000000000
-8.693154376087849 -5.805183559045184 -0.989399231501713 2.000000000000000
-8.696979193904001 -5.717977043201302 -1.153288963887098 3.000000000000000
-8.767839947993739 -5.675060503208122 -1.325690360262279 5.000000000000000
-8.903195101598708 -5.671970326933753 -1.510882388954123 10.000000000000000
-9.056461197928064 -5.678039810171579 -1.702747921604972 9.000000000000000
-9.201075239542758 -5.675453152599032 -1.897899351632447 10.000000000000000
-8.946911082077309 -5.428785696863151 -2.007835637430591 34.000000000000000
-9.163961877482979 -5.467576976484877 -2.222027163256810 12.000000000000000
-9.186151792414856 -5.389118835607175 -2.393965209107539 6.000000000000000
-8.987444925995060 -5.181506105610223 -2.503879425956776 16.000000000000000
-8.613334299926466 -4.879874673141627 -2.554891663484218 47.000000000000000
-8.522447842262642 -4.744121553077309 -2.682284374472661 30.000000000000000
-9.061662032409483 -4.956011498771859 -3.016924134682466 20.000000000000000
-8.697468168561141 -5.772229384996443 -0.974510843371847 2.000000000000000
-8.691255671784353 -5.678625209199830 -1.136849410043620 4.000000000000000
-8.825598725399493 -5.676527523135767 -1.318187550126671 9.000000000000000
-8.974693390257503 -5.681219517230189 -1.506189678596642 6.000000000000000
-9.121658794578522 -5.682247571266017 -1.697587515897123 9.000000000000000
-9.266632307756542 -5.678869708254036 -1.893406588537549 6.000000000000000
-9.038932779370962 -5.448733686814392 -2.010604739919608 29.000000000000000
-9.236276765383607 -5.474280979114699 -2.220976198642830 4.000000000000000
-9.275408244396758 -5.405110632875044 -2.398245389062141 14.000000000000000
-9.052703700110552 -5.183856746655405 -2.503231700853906 16.000000000000000
-8.637323181961596 -4.860020609781397 -2.543751545031248 45.000000000000000
-8.559746194079283 -4.731943487457792 -2.675641217437608 28.000000000000000
-9.268788500389242 -5.033839240303000 -3.065661142043891 20.000000000000000
-8.695292810009821 -5.824604474228244 -0.794909848342432 1.000000000000000
-8.691666831520251 -5.732718394618427 -0.958542381876875 2.000000000000000
-8.738718235858094 -5.674001786898581 -1.127345251709924 3.000000000000000
-8.890120260748105 -5.681996270902592 -1.311527402262366 9.000000000000000
-9.039611774285749 -5.685901868133672 -1.500198292276230 7.000000000000000
-9.193674931458595 -5.690302034880692 -1.693499337615006 10.000000000000000
-9.167321550603242 -5.581533494754418 -1.855360729017370 8.000000000000000
-9.239062982646585 -5.532837782952929 -2.036914644804259 7.000000000000000
-9.258070135406786 -5.450815680600705 -2.207661609940803 11.000000000000000
-9.216153979390729 -5.334585474024966 -2.364142053363595 22.000000000000000
-9.121443874192831 -5.187818549587504 -2.503346629315617 42.000000000000000
-8.732303355081999 -4.879782942493742 -2.553345364217449 43.000000000000000
-8.654557694202303 -4.751180024746460 -2.686771946067241 24.000000000000000
-9.327764639074079 -5.030326435278069 -3.064905674336782 20.000000000000000
-8.696055063268021 -5.789367972167213 -0.780013345690380 3.000000000000000
-8.699012634387662 -5.702021113835825 -0.944071185946427 2.000000000000000
-8.816292250754152 -5.688568416819161 -1.121554419749566 5.000000000000000
-8.937983868446318 -5.676511681181555 -1.302260918864850 5.000000000000000
-9.101268105841488 -5.688172112258626 -1.493490169674957 7.000000000000000
-9.242245648944852 -5.683512404744987 -1.684927924176524 6.000000000000000
-9.097810964419216 -5.503158469572696 -1.823739705786929 36.000000000000000
-9.568212751942268 -5.692263655225124 -2.090699216284468 5.000000000000000
-9.296700927424393 -5.437170987553440 -2.198314699521792 23.000000000000000
-9.092161242767308 -5.227443168603584 -2.313880259334904 30.000000000000000
-9.125908878967978 -5.155078013691297 -2.485747735698454 72.000000000000000
-8.854625356519421 -4.914118584383351 -2.570554868953676 33.000000000000000
-8.780101785424836 -4.786572821881255 -2.707052503814312 20.000000000000000
-9.393587046768406 -5.030166770768226 -3.066217319930852 19.000000000000000
-8.696664696443410 -5.754173141096449 -0.765147449789295 2.000000000000000
-8.692879076130421 -5.662630396867991 -0.928184440852460 5.000000000000000
-8.853833570114231 -5.676984883936076 -1.110517780262683 5.000000000000000
-8.999310143866902 -5.679284750221054 -1.294813368945831 6.000000000000000
-9.149542068509138 -5.681786296982801 -1.484442121471887 8.000000000000000
-9.290844724245465 -5.676501835984835 -1.676241992082582 7.000000000000000
-9.132642430101681 -5.488180728445687 -1.813168093648188 16.000000000000000
-9.634444878815099 -5.693869343412960 -2.086331655613642 5.000000000000000
-9.355658377031197 -5.435176481692602 -2.193652877084616 28.000000000000000
-9.021805605656439 -5.152032152121145 -2.277736665476497 29.000000000000000
-9.126835293022189 -5.120454507312786 -2.467250934255524 74.000000000000000
-8.912737351425136 -4.912257579622901 -2.568823539277981 25.000000000000000
-8.892398919216014 -4.813965261714375 -2.722822785370558 7.000000000000000
-9.456108018744965 -5.027888028220097 -3.066262075150809 19.000000000000000
-8.983240226863474 -4.686489255510248 -3.073102257401930 25.000000000000000
-8.697608365741427 -5.809842546370983 -0.586442070934762 3.000000000000000
-8.697122036045496 -5.719020508580434 -0.750312409978845 3.000000000000000
-8.773532876404609 -5.679617370342404 -0.921483257119902 4.000000000000000
-8.901431784297051 -5.671652353947442 -1.100643341627382 7.000000000000000
-9.057354407822185 -5.679654355302720 -1.286732892015621 7.000000000000000
-9.197844471249077 -5.675180203218564 -1.475279886566899 8.000000000000000
-9.146800119950100 -5.552314430826676 -1.633042567392123 15.000000000000000
-9.536586202118476 -5.693435244115811 -1.875103925286121 6.000000000000000
-9.693983841931082 -5.691175804078006 -2.080341135356452 6.000000000000000
-9.567518499772055 -5.521100827825727 -2.224378431270545 10.000000000000000
-9.015607444609637 -5.113691376350968 -2.258018359565098 32.000000000000000
-9.131007526028252 -5.087767712898004 -2.449697381148952 64.000000000000000
-8.919872224435839 -4.882181176927863 -2.552340583736688 6.000000000000000
-9.835370593963946 -5.287176878970686 -2.990793528458146 76.000000000000000
-9.532316024780330 -5.032497760197293 -3.070534399306635 19.000000000000000
-9.000673039868825 -4.661890067034027 -3.059478686356210 9.000000000000000
-8.697996518906587 -5.774571584509320 -0.571940182594718 3.000000000000000
-8.697427410735060 -5.683910600854697 -0.735508474788724 6.000000000000000
-8.820834520327585 -5.674641003283993 -0.911104740875189 7.000000000000000
-8.972592176068954 -5.681000956749277 -1.093523557752642 4.000000000000000
-9.128951027596049 -5.688150468946515 -1.280398913767329 8.000000000000000
-9.276589281484091 -5.686999459389293 -1.470825771993533 6.000000000000000
-9.120568871393683 -5.500459103551154 -1.611259480135258 19.000000000000000
-9.592445288215837 -5.689220732138709 -1.867786083465902 7.000000000000000
-9.750187000180555 -5.686220610754213 -2.073481282130156 5.000000000000000
-9.943377741951622 -5.699531121414832 -2.292144863852390 6.000000000000000
-9.148879522188361 -5.154104241563827 -2.273048383905679 31.000000000000000
-9.131628456461939 -5.053217626603461 -2.431256743192415 64.000000000000000
-8.937109218478009 -4.857670323738177 -2.538774082676289 1.000000000000000
-9.687279177447765 -5.170994067275144 -2.925395442396162 83.000000000000000
-9.612062754906823 -5.038523410808204 -3.075700153537514 38.000000000000000
-9.055493313178822 -4.656510701941517 -3.058491938468650 14.000000000000000
-8.701567038056297 -5.741543396554375 -0.557683160670114 3.000000000000000
-8.737739278988244 -5.674925561638956 -0.724063645187904 3.000000000000000
-8.888313021884780 -5.682327140282641 -0.902659346487206 6.000000000000000
-9.040504118609350 -5.687880996845643 -1.085813541603520 4.000000000000000
-9.193911156024338 -5.692113570844167 -1.272943341921725 9.000000000000000
-9.345320060838050 -5.692242197183174 -1.464572200031499 6.000000000000000
-9.161942985775651 -5.489458052674768 -1.601452782107704 13.000000000000000
-9.658553022402122 -5.690755023947142 -1.862298786679309 6.000000000000000
-9.826868398430374 -5.692839473593510 -2.070790237524321 5.000000000000000
-9.330285654837684 -5.220561079506945 -2.299479857330220 50.000000000000000
-9.132093813222797 -5.018709716194932 -2.412847150374114 61.000000000000000
-9.005503574336915 -4.860769028624915 -2.539638915863014 1.000000000000000
-9.685353346961277 -5.133536268786346 -2.904537126903550 93.000000000000000
-9.072821174172784 -4.631707282731465 -3.044770531349493 15.000000000000000
-8.698318453440748 -5.704159030432447 -0.543030236789948 3.000000000000000
-8.814937262932872 -5.689566523345352 -0.715520668454376 7.000000000000000
-8.939075883748584 -5.678996427715843 -0.892359747285333 4.000000000000000
-9.098396838842396 -5.688100199627208 -1.076729809164592 4.000000000000000
-9.238657559156698 -5.683272054759883 -1.262547130297396 5.000000000000000
-9.410761275554577 -5.695098104437244 -1.457616477458198 6.000000000000000
-9.546699746301973 -5.682672172234512 -1.650934564684290 6.000000000000000
-9.728154311513642 -5.693965812208636 -1.857294543355413 7.000000000000000
-9.903674875691500 -5.699083795439969 -2.067900347973884 5.000000000000000
-9.433585417317470 -5.242361840591845 -2.306166625914451 59.000000000000000
-9.132403927359082 -4.984244517105012 -2.394468855772613 68.000000000000000
-9.074005124785470 -4.863535917654507 -2.540327808187660 1.000000000000000
-9.850973947325484 -5.184404939689016 -2.933666939249019 57.000000000000000
-9.007982787960387 -4.565256359011204 -3.003660511495458 5.000000000000000
-8.698252899825771 -5.669018483061951 -0.528622672020914 8.000000000000000
-8.848607168311043 -5.675809603141351 -0.703301165790877 7.000000000000000
-8.996620404499565 -5.679684673883131 -0.882598041352422 4.000000000000000
-9.149591852413812 -5.683842749883445 -1.066712955222814 5.000000000000000
-9.300368798388336 -5.684590703709907 -1.254333586116388 7.000000000000000
-9.472891829950099 -5.695594774432216 -1.449973980292439 5.000000000000000
-9.629603905693934 -5.694526915679575 -1.647408821769813 5.000000000000000
-9.801267001423115 -5.698824313672748 -1.852757568789473 5.000000000000000
-9.970350482489296 -5.699091617859085 -2.062689988237139 6.000000000000000
-9.444623626171213 -5.212591295415581 -2.290144219678382 64.000000000000000
-9.132559132095807 -4.949822563418238 -2.376122111645187 77.000000000000000
-9.139182849297686 -4.864145182297086 -2.539887496059437 1.000000000000000
-9.012263662552412 -4.709357497246043 -2.665182852970862 0.000000000000000
-9.022561182566021 -4.628671505003640 -2.829765680338244 4.000000000000000
-8.819397358929683 -4.437146789571794 -2.921912831194117 6.000000000000000
-8.804812667564580 -4.343890279909381 -3.073895757048875 8.000000000000000
-8.768452651327898 -5.679532461907289 -0.518410180804853 4.000000000000000
-8.905813318082910 -5.676928176742886 -0.692843142103408 8.000000000000000
-9.060983812913182 -5.684335334444075 -0.873343087060213 5.000000000000000
-9.200824570762219 -5.679346691827709 -1.056571990961291 8.000000000000000
-9.365552242317452 -5.687676271443199 -1.246416394181542 6.000000000000000
-9.538501610615807 -5.697828344394855 -1.442690258541389 5.000000000000000
-9.692181710042828 -5.693940812710177 -1.640198683350464 5.000000000000000
-9.864232154436921 -5.697402292524380 -1.846112434417412 5.000000000000000
-9.452110711431658 -5.180924960330819 -2.273296209089355 69.000000000000000
-9.142863515851234 -4.920990207030384 -2.360467350510797 78.000000000000000
-9.183836841274191 -4.853545663434334 -2.533594159650018 2.000000000000000
-9.015435288398823 -4.677477929007152 -2.647478571083092 2.000000000000000
-9.111608703668114 -4.640654996298815 -2.838565136925047 13.000000000000000
-8.753532498732653 -4.371834158054857 -2.881446665842703 8.000000000000000
-8.825330327453422 -5.681048782621119 -0.507240910031903 9.000000000000000
-8.969827837385074 -5.682044934997310 -0.682754658968494 5.000000000000000
-9.128819382439312 -5.690782385006686 -0.864243327598159 6.000000000000000
-9.275851941346582 -5.689183349307096 -1.048993603499901 4.000000000000000
-9.434225578485774 -5.692500008714000 -1.238779796830680 6.000000000000000
-9.593961157471767 -5.693670925257641 -1.433710118468434 6.000000000000000
-9.751411445008220 -5.691060389222167 -1.632259316526975 5.000000000000000
-9.947820266739839 -5.707472634907587 -1.843118027262804 6.000000000000000
-9.456027451070215 -5.147391578392925 -2.255638442502726 71.000000000000000
-9.166816127563438 -4.899502046005809 -2.348339367431323 40.000000000000000
-9.001318947440540 -4.723527640502542 -2.464983536629895 45.000000000000000
-9.975388271404531 -5.138557042320794 -2.908835567291540 83.000000000000000
