# This PCD file was generated using the MATLAB® pcwrite function
# from Computer Vision Toolbox®.
# .PCD v.7 - Point Cloud Data file format
VERSION .7
FIELDS x y z intensity
SIZE 8 8 8 8
TYPE F F F F
COUNT 1 1 1 1
WIDTH 632
HEIGHT 1
VIEWPOINT 0 0 0 1 0 0 0
POINTS 632
DATA ascii
-5.588384865495652 -4.175285505537480 -2.068120292040037 26.000000000000000
-5.624840659915888 -4.139821965682923 -2.192131757674746 35.000000000000000
-5.582365997036747 -4.046963743270122 -2.285819401393083 2.000000000000000
-5.546867660869055 -3.961003518701142 -2.381409304937355 0.000000000000000
-5.789379905375974 -4.004365540330616 -2.712945434512379 2.000000000000000
-6.221433902808426 -5.620130993316933 -0.517578796845783 20.000000000000000
-6.305719650583377 -5.619368625403290 -0.659833266878672 20.000000000000000
-6.381907115269753 -5.611602733516851 -0.802790342029279 6.000000000000000
-6.480717175902761 -5.621986100182965 -0.951315497250247 4.000000000000000
-6.581335886054696 -5.631891189575389 -1.102562281103317 7.000000000000000
-6.664884951136685 -5.626528641254247 -1.254124410597840 9.000000000000000
-6.750024484247077 -5.620715148985327 -1.408384420544273 14.000000000000000
-5.844144275874266 -4.799876843762370 -1.337744358044474 24.000000000000000
-5.450327701712670 -4.414524858515773 -1.357436634797284 8.000000000000000
-5.410749422796681 -4.321473655981795 -1.455483467566944 3.000000000000000
-5.783242942582638 -4.553621602210427 -1.670609281355353 0.000000000000000
-6.434572748030733 -4.994406862346013 -1.985857407683460 5.000000000000000
-6.047309546107516 -4.625440339830263 -1.985138009365553 5.000000000000000
-5.949007542018631 -4.484110791806413 -2.070237588251825 11.000000000000000
-5.615293563317936 -4.169151960840495 -2.063955940707070 25.000000000000000
-5.651832794139603 -4.133474964523248 -2.188165163955329 14.000000000000000
-5.547593820263566 -3.996214487397236 -2.257093834134935 6.000000000000000
-5.548979584440663 -3.937147477027044 -2.367553867518180 7.000000000000000
-6.243784118190030 -5.608149245611273 -0.508218382575474 5.000000000000000
-6.340239724406305 -5.617708626521091 -0.651710077082404 3.000000000000000
-6.443675558137444 -5.633204517671063 -0.798290776316782 8.000000000000000
-6.524848262927397 -5.627388842478708 -0.945025905104976 17.000000000000000
-6.607679034355849 -5.621381202262736 -1.093703413993630 17.000000000000000
-6.685394030480558 -5.610641880801918 -1.244210730787376 7.000000000000000
-6.801177007086415 -5.629778999728881 -1.404699160849303 5.000000000000000
-5.889951734374145 -4.808670383664828 -1.335499048299076 24.000000000000000
-5.559420466639319 -4.475871440942250 -1.372312981527684 5.000000000000000
-5.394206181696304 -4.282239762939580 -1.438839213410778 1.000000000000000
-5.770664705976554 -4.516084520233682 -1.653648528951128 1.000000000000000
-6.435937810641613 -4.964872005634487 -1.971102855058712 5.000000000000000
-6.035292887249671 -4.587773030771485 -1.966672922282540 2.000000000000000
-5.970630490896045 -4.472443576033545 -2.063109304030865 6.000000000000000
-5.654563961847717 -4.172023050767712 -2.064244671843896 23.000000000000000
-5.651026211636877 -4.106809761028382 -2.173447110494060 3.000000000000000
-5.527961297481074 -3.956750821415318 -2.234748941331121 10.000000000000000
-5.572596369297728 -3.928560729743556 -2.362887279919749 4.000000000000000
-6.298863008578144 -5.625344086174299 -0.501426675905623 15.000000000000000
-6.377783136267258 -5.618537589811493 -0.643811788196078 10.000000000000000
-6.466533418212381 -5.620539134242509 -0.788860818897059 8.000000000000000
-6.556980546632911 -5.622238020766528 -0.936904343529716 4.000000000000000
-6.652187358298188 -5.626150039102392 -1.087767938305742 4.000000000000000
-6.751470428166280 -5.632746915193366 -1.242662161239272 11.000000000000000
-6.831079794643456 -5.621033226347696 -1.396520786636970 12.000000000000000
-5.951158269752697 -4.829666918373636 -1.336574990758614 26.000000000000000
-5.632140211898419 -4.507195326808040 -1.377868977630522 15.000000000000000
-5.402046817927618 -4.262542107136089 -1.428778835862964 3.000000000000000
-5.816419715111540 -4.524185288689989 -1.653394439104856 0.000000000000000
-6.449503034226702 -4.944837011717262 -1.960126919118159 5.000000000000000
-6.066337799214066 -4.582897346551968 -1.962269506666597 3.000000000000000
-5.998413616014582 -4.465303665102124 -2.058065419182883 5.000000000000000
-5.700098665508758 -4.179257078656592 -2.066683689867423 20.000000000000000
-5.532374282919021 -3.995182746154411 -2.113784667019408 7.000000000000000
-5.532882686313646 -3.935057372118620 -2.222446547754434 10.000000000000000
-5.614787961480078 -3.932897642871031 -2.366004285354927 4.000000000000000
-6.427374455933536 -5.629715072364849 -0.637016331973601 3.000000000000000
-6.519498949360790 -5.633838052989852 -0.783011010118669 12.000000000000000
-6.598205957958117 -5.624694611786199 -0.929993903479644 22.000000000000000
-6.678540223231939 -5.615389315051272 -1.078780481414590 10.000000000000000
-6.775044953422444 -5.619128326080603 -1.233169385828106 5.000000000000000
-6.882389768449755 -5.629683409585970 -1.392614728835873 22.000000000000000
-6.012543238986603 -4.850365895430600 -1.337488123222112 25.000000000000000
-5.674350119896131 -4.513691763555132 -1.375767923906253 18.000000000000000
-5.434462253934711 -4.262178419000990 -1.425187403523153 6.000000000000000
-5.868453377105788 -4.536849077370689 -1.654767479102850 0.000000000000000
-6.462988626868500 -4.924770813340698 -1.949139924437445 6.000000000000000
-6.097402321883738 -4.577891821086352 -1.957798610561743 4.000000000000000
-6.035505672130528 -4.464934658237742 -2.056133696856226 5.000000000000000
-5.944400144833487 -4.331023963680028 -2.140546272364359 21.000000000000000
-5.530996440633514 -3.968923822211979 -2.099308949911296 8.000000000000000
-5.556337151964774 -3.926542494052825 -2.217592725478104 6.000000000000000
-5.647752471644655 -3.930558703143384 -2.365116551076390 4.000000000000000
-6.453005189681892 -5.619701755907219 -0.627754885757103 12.000000000000000
-6.536323826559952 -5.615732252321362 -0.772739350998938 9.000000000000000
-6.627352580621782 -5.616680719012253 -0.921298796700531 4.000000000000000
-6.741428964070963 -5.635084497692715 -1.075575300129354 7.000000000000000
-6.829152627282710 -5.630629698114155 -1.229137744922256 11.000000000000000
-6.909270940602830 -5.618147527456326 -1.383668106547830 6.000000000000000
-6.055652143083772 -4.855969181935602 -1.334172562323408 18.000000000000000
-5.710479100642004 -4.515117653179841 -1.372080543945826 21.000000000000000
-5.466918744898313 -4.261672640324534 -1.421520926117077 8.000000000000000
-5.914425786176619 -4.544507109634471 -1.654274085600939 0.000000000000000
-6.460885909018247 -4.892928746022363 -1.933500855184063 7.000000000000000
-6.128485843246309 -4.572756273963565 -1.953260179304446 5.000000000000000
-6.060211493145472 -4.455258533209467 -2.049908305415579 11.000000000000000
-6.177366145075030 -4.472479080326203 -2.209225743495975 24.000000000000000
-5.526371683012801 -3.940488846438539 -2.083689917499175 12.000000000000000
-5.573557005935514 -3.913563168198596 -2.210222981987680 15.000000000000000
-5.686981763979094 -3.932381474340695 -2.366744252434416 3.000000000000000
-6.505762823760705 -5.633094070277858 -0.621035648230904 6.000000000000000
-6.595498163180634 -5.633808054670607 -0.767381771095384 15.000000000000000
-6.674748997818018 -5.623930218171500 -0.915046838836593 11.000000000000000
-6.758673571603852 -5.616408014950488 -1.064986648791225 9.000000000000000
-6.874185968738149 -5.634341764027863 -1.223333214351229 22.000000000000000
-6.957652153638112 -5.623905732470684 -1.378936119353736 13.000000000000000
-6.058758942196039 -4.829424649363195 -1.322005157509879 8.000000000000000
-5.752844127843779 -4.521241406923977 -1.369779756402261 23.000000000000000
-5.499415602902785 -4.261024507289064 -1.417779311046456 8.000000000000000
-5.904617674884538 -4.509276882948628 -1.638162417572264 0.000000000000000
-6.471063074186782 -4.870503001566684 -1.921592881342512 9.000000000000000
-6.140903459874544 -4.553635651685408 -1.942743176078729 4.000000000000000
-6.094256693802516 -4.452319010199290 -2.046775703749985 16.000000000000000
-6.192982544186327 -4.455574652321419 -2.199641271888285 26.000000000000000
-5.552811159731554 -3.934230164628344 -2.079802210809754 7.000000000000000
-5.578251561239909 -3.891814642331907 -2.197906346789030 31.000000000000000
-5.723160456265543 -3.931883124687958 -2.366986583323284 3.000000000000000
-6.531426058894739 -5.622808752379868 -0.611633363503903 18.000000000000000
-6.606225597486955 -5.610328344270706 -0.756306303412059 13.000000000000000
-6.710033870439742 -5.620742272966337 -0.907029083569376 4.000000000000000
-6.824840242712685 -5.638152897797105 -1.061999794026134 10.000000000000000
-6.891638623134706 -5.615319306355433 -1.212555225872159 23.000000000000000
-6.999955791681476 -5.624489646729486 -1.372876953094406 6.000000000000000
-6.061742964374269 -4.802903529485779 -1.309857213711516 3.000000000000000
-5.795293173799431 -4.527169675090696 -1.367374039044519 24.000000000000000
-5.774227414848665 -4.446813339151989 -1.475887830544734 50.000000000000000
-5.959983021728269 -4.523747454770346 -1.640094919865795 0.000000000000000
-6.474909999762124 -4.843400139113341 -1.907846845901759 7.000000000000000
-6.159488531387830 -4.539088380494520 -1.934177268442952 3.000000000000000
-6.131461198197240 -4.451501451925472 -2.044608128348093 16.000000000000000
-6.208537966179950 -4.438625038389423 -2.190037463397516 28.000000000000000
-5.591775363151463 -3.936674653988293 -2.080515550698547 7.000000000000000
-5.585973688141546 -3.872245898112332 -2.186826389986764 44.000000000000000
-5.756264226870822 -3.929088790464673 -2.365857862825262 2.000000000000000
-6.581321766977996 -5.633182877012467 -0.604409193870509 5.000000000000000
-6.668621763339451 -5.630541155015037 -0.751059304713918 6.000000000000000
-6.748402218220455 -5.619950043892085 -0.899340316718090 14.000000000000000
-6.854351930921222 -5.629324930857696 -1.053178251722140 10.000000000000000
-6.955226568019154 -5.633671080294982 -1.209792356798666 10.000000000000000
-7.036134162670147 -5.619949901287735 -1.365519370760455 16.000000000000000
-7.093448917488111 -5.586711255380914 -1.517885306598281 4.000000000000000
-5.840932144426102 -4.535314403503572 -1.365589596322019 23.000000000000000
-5.885258690912950 -4.504799806951483 -1.491344641698711 57.000000000000000
-6.602065707247889 -4.980449739635572 -1.801983570442688 6.000000000000000
-6.491131312181855 -4.825611997056527 -1.897774259988886 6.000000000000000
-6.196806662211624 -4.538231441724712 -1.931435365864174 2.000000000000000
-6.178113566182915 -4.457300508983705 -2.045465457044001 18.000000000000000
-6.214625659659846 -4.414947840970992 -2.177119076165331 28.000000000000000
-5.624535739914231 -3.934553151624291 -2.078815337510965 8.000000000000000
-5.606158473806213 -3.861313994037463 -2.180629589366622 47.000000000000000
-5.798813692892423 -3.932531115308431 -2.368496312484855 3.000000000000000
-6.603967939261801 -5.620046792206502 -0.594596931216149 25.000000000000000
-6.688443807078155 -5.614575873552381 -0.740913759948732 7.000000000000000
-6.802137994200389 -5.631679601701841 -0.893576841480853 3.000000000000000
-6.890011573266859 -5.625403948747769 -1.045230564833298 36.000000000000000
-6.972657634009845 -5.614419904716752 -1.198898933357010 9.000000000000000
-7.097118195723637 -5.634933356132906 -1.362840925372146 9.000000000000000
-6.806733082068066 -5.328778188629771 -1.442291151558434 8.000000000000000
-5.892897986344122 -4.548053270933129 -1.365133241590675 22.000000000000000
-5.924916078765087 -4.507589501027323 -1.488445615338089 56.000000000000000
-6.615390430567587 -4.959942771793906 -1.790859333304591 6.000000000000000
-6.479091273533109 -4.786943971612144 -1.879501977086816 5.000000000000000
-6.237310241649834 -4.539493098828816 -1.929576988641718 2.000000000000000
-6.209157436545996 -4.451624929592729 -2.041044687020373 14.000000000000000
-6.223748728122348 -4.393496234869695 -2.165304275011084 26.000000000000000
-5.663623639396874 -3.936660007631503 -2.079348757563202 7.000000000000000
-5.620029398644971 -3.846003128222822 -2.171965353330136 48.000000000000000
-5.835158229513157 -3.931541418412189 -2.368477678141456 3.000000000000000
-6.647905424516067 -5.624873882346803 -0.586627031752417 3.000000000000000
-6.744938104125554 -5.629194043844455 -0.734738312776255 10.000000000000000
-6.834478455715397 -5.625449912973067 -0.884891809767393 10.000000000000000
-6.931864653393465 -5.626338696277994 -1.038127786835095 4.000000000000000
-7.030262979777883 -5.627331076512874 -1.194823581319463 14.000000000000000
-7.117875942873151 -5.617762599297913 -1.352334810539599 9.000000000000000
-6.739555986294647 -5.244546720165490 -1.414019380207144 10.000000000000000
-5.938746531163281 -4.555753246623771 -1.363108944462273 18.000000000000000
-5.961509436197161 -4.507832780239154 -1.484671299491423 55.000000000000000
-6.625498593781225 -4.937068859817292 -1.778882642904071 6.000000000000000
-6.460565921803794 -4.743771816958113 -1.859489424186488 5.000000000000000
-6.296747857498787 -4.554221391226632 -1.933416131819059 2.000000000000000
-6.252811511544387 -4.454791227042235 -2.040666392276195 9.000000000000000
-6.239081580698700 -4.376455101811036 -2.155667360985538 8.000000000000000
-5.699627451231644 -3.936411711039848 -2.078637476414539 6.000000000000000
-5.633845119805736 -3.830652102646702 -2.163283993036858 45.000000000000000
-5.865250524867488 -3.926170712121678 -2.365830894172195 14.000000000000000
-6.679695852673501 -5.619223046296127 -0.577494304518143 12.000000000000000
-6.770883775744844 -5.618086943328272 -0.725131707043371 5.000000000000000
-6.885311117265758 -5.634211173914659 -0.878496025142829 40.000000000000000
-6.967585959731247 -5.622096124699580 -1.030012164197084 12.000000000000000
-7.072481223322043 -5.627622448252718 -1.187994497326992 4.000000000000000
-7.185276372982686 -5.637160206016409 -1.350574787104291 8.000000000000000
-6.740581867223904 -5.213859452298325 -1.400257727324401 10.000000000000000
-5.981560395662595 -4.560851990075334 -1.360257460066507 18.000000000000000
-5.995014752574138 -4.505555131445079 -1.480036173182045 53.000000000000000
-6.638653591966041 -4.916509920732038 -1.767742256444592 6.000000000000000
-6.429212657453946 -4.691553050001090 -1.835968023757336 5.000000000000000
-6.346881013887475 -4.561864721611023 -1.934217065707847 3.000000000000000
-6.296543132136127 -4.457757785248066 -2.040181392231985 7.000000000000000
-8.522345654643113 -5.940191460152779 -2.924211681721009 21.000000000000000
-5.802046606815817 -3.981542863103273 -2.101881919045044 6.000000000000000
-5.657086651745899 -3.821666095793719 -2.158202693654883 43.000000000000000
-5.866928128739771 -3.901762505952068 -2.351720153281145 8.000000000000000
-6.726804076522802 -5.626243746486136 -0.569589519919261 4.000000000000000
-6.830637543610777 -5.634787738735244 -0.719036777372263 9.000000000000000
-6.905359710043495 -5.617611740345699 -0.868090784214544 13.000000000000000
-7.025030642442603 -5.635108611415531 -1.024983614646100 8.000000000000000
-7.117862303350049 -5.630186709927160 -1.181582769808321 12.000000000000000
-7.221641966995613 -5.631893024338027 -1.342834413820410 9.000000000000000
-6.750853319156065 -5.190429186094747 -1.388455374643110 17.000000000000000
-6.005626821004437 -4.551484915967919 -1.353058589473725 20.000000000000000
-6.034842557078614 -4.507829332314220 -1.476863575961030 54.000000000000000
-6.651727513310299 -4.895921074974575 -1.756591562171067 6.000000000000000
-6.429126554769587 -4.662436674011412 -1.821515853235966 6.000000000000000
-6.381317807752954 -4.557985134250172 -1.930111538851959 5.000000000000000
-6.346679003575674 -4.464975790059222 -2.041625043869884 8.000000000000000
-8.296088199436884 -5.745792056370963 -2.826870041602262 1.000000000000000
-6.155098192323115 -4.196785707396582 -2.214890509495335 9.000000000000000
-5.667646511875996 -3.804082926460229 -2.148271888061106 37.000000000000000
-5.871653777906101 -3.879474301003165 -2.338892272050388 8.000000000000000
-6.758648887172697 -5.620284476115833 -0.560296017700142 10.000000000000000
-6.872036390114422 -5.636029796559747 -0.710872692705140 20.000000000000000
-6.959408588461742 -5.628487555662931 -0.861872342399087 11.000000000000000
-7.048417288984203 -5.620587605870758 -1.014885552700677 11.000000000000000
-7.172665194728835 -5.639901942376970 -1.176596823341804 6.000000000000000
-7.248641917817165 -5.619195550053846 -1.333287559950565 4.000000000000000
-6.764164540628691 -5.169383283164384 -1.377291014652332 6.000000000000000
-6.070569444915572 -4.572824859290900 -1.354938899252877 35.000000000000000
-6.071580725069539 -4.507581993365159 -1.472829953543254 53.000000000000000
-6.661561655920520 -4.872991999773797 -1.744603471998728 6.000000000000000
-6.454210847199948 -4.651603175526492 -1.814207881505965 6.000000000000000
-6.415783668816367 -4.553956579072633 -1.925928189437572 4.000000000000000
-6.374720537066105 -4.456438546311405 -2.035852046995926 17.000000000000000
-8.268521213269723 -5.690301434527758 -2.797932545634341 1.000000000000000
-6.160426108616813 -4.173491681447464 -2.201980323518153 21.000000000000000
-5.687662464135419 -3.792830450851769 -2.141921769149513 34.000000000000000
-5.879450594675392 -3.859280589894822 -2.327332815312900 9.000000000000000
-6.821269043971355 -5.639630082885894 -0.553430355118459 6.000000000000000
-6.891853268724882 -5.619446718578598 -0.700412092572940 64.000000000000000
-6.988742244223999 -5.619146676559581 -0.852488399398091 4.000000000000000
-7.112263028564259 -5.638087117582585 -1.010500998053554 11.000000000000000
-7.205695822398977 -5.632255068924795 -1.167925748338867 10.000000000000000
-7.281887468141636 -5.611228212038292 -1.324830877413157 0.000000000000000
-6.097860000580719 -4.565516793815382 -1.348278835666941 39.000000000000000
-6.108365565235074 -4.507170507901067 -1.468709683415080 52.000000000000000
-6.652301819446299 -4.836239651181735 -1.727681260918528 6.000000000000000
-6.469762837949641 -4.633857804898764 -1.804198066916328 6.000000000000000
-6.437574232901634 -4.540818161889936 -1.917882273897813 3.000000000000000
-5.960861786214902 -4.140814810075038 -1.889915202940629 11.000000000000000
-5.962535293916968 -4.077226059647350 -2.003600890229151 4.000000000000000
-5.946014368321349 -4.002367684188680 -2.111101620547481 10.000000000000000
-5.704469737982122 -3.779394624704730 -2.134344226969771 32.000000000000000
-5.925346247028623 -3.863982697084648 -2.330796767085080 15.000000000000000
-6.843949622929205 -5.625712810169401 -0.543217209137434 8.000000000000000
-6.948792153782878 -5.632934048609762 -0.693632184618271 6.000000000000000
-7.042953015848154 -5.629580331379416 -0.846034342743498 14.000000000000000
-7.141912693366646 -5.628207319654571 -1.001134080588142 5.000000000000000
-7.244997523788220 -5.629340849888779 -1.160188120985576 9.000000000000000
-6.106187485759597 -4.543984821484759 -1.337408064454902 32.000000000000000
-6.148363902980877 -4.508917563946595 -1.465257560313426 52.000000000000000
-6.655549875423271 -4.808752829306121 -1.714087536385948 6.000000000000000
-6.494788029368910 -4.622855694115324 -1.796807637158703 6.000000000000000
-6.475249216385953 -4.538757327933269 -1.914503983757970 7.000000000000000
-5.959163550753918 -4.113464114520016 -1.875681943699953 14.000000000000000
-5.973565854051643 -4.058721742162600 -1.993327069751686 15.000000000000000
-5.867648982341704 -3.924212309626629 -2.069296781275999 9.000000000000000
-5.727617905016033 -3.770102580523210 -2.129112412831219 27.000000000000000
-5.961765980763913 -3.862270781826815 -2.330404857198205 15.000000000000000
-6.888233139056037 -5.629399947975107 -0.534644225394862 113.000000000000000
-6.971695759993287 -5.618619129609950 -0.683357378296881 12.000000000000000
-7.087918112269322 -5.632323947940819 -0.838336316293671 4.000000000000000
-7.190333075045452 -5.632922262174518 -0.994304308653094 8.000000000000000
-7.274908915712093 -5.618976293720618 -1.150869966025015 1.000000000000000
-6.722698503016566 -4.972346567851880 -1.458505552512719 52.000000000000000
-6.185247232675215 -4.508168159471840 -1.460958766224384 50.000000000000000
-6.661852902788645 -4.783574118824982 -1.701326115509397 6.000000000000000
-6.516607894222681 -4.609502192211983 -1.788494085242533 5.000000000000000
-6.181095469213344 -4.305368715252362 -1.813660118709263 13.000000000000000
-5.986079316187618 -4.105878315510290 -1.870463492969901 17.000000000000000
-5.920585244228875 -3.997029219265312 -1.961859267674070 10.000000000000000
-5.865544408492000 -3.897526017254119 -2.054647350966944 9.000000000000000
-5.773144091957768 -3.775360126883118 -2.132103000756345 18.000000000000000
-6.001430300451535 -3.862453857347383 -2.331168923240983 15.000000000000000
-6.910887615540497 -5.615258051864122 -0.524318010699726 6.000000000000000
-7.031913547813850 -5.634150352053998 -0.676637027158469 8.000000000000000
-7.114192113931221 -5.620047085977139 -0.828346133858714 11.000000000000000
-7.241968950673080 -5.639857526599902 -0.987783780562057 14.000000000000000
-6.738637870254052 -4.953789690122177 -1.448057788769900 30.000000000000000
-6.225357492079673 -4.509559199068295 -1.457318059280807 49.000000000000000
-6.677611551885720 -4.765228998584328 -1.690997502414886 7.000000000000000
-6.538393543643954 -4.596068842688712 -1.780141865611026 5.000000000000000
-6.058141067894853 -4.193188605881314 -1.764049919076251 8.000000000000000
-6.032207280023157 -4.111274631210346 -1.871147305158483 16.000000000000000
-5.854412079616920 -3.927065808059444 -1.926363761392410 9.000000000000000
-5.860101047725844 -3.868770616256564 -2.038914816570884 10.000000000000000
-5.815558207743918 -3.778320634016217 -2.133802221132419 12.000000000000000
-6.044360923822592 -3.864505428982177 -2.333074111967675 15.000000000000000
-6.964566529650672 -5.626128148470639 -0.516254889619396 16.000000000000000
-7.054825482094710 -5.619565726625497 -0.666224032381906 7.000000000000000
-7.174904249003069 -5.634735543250311 -0.822255662959730 6.000000000000000
-7.255954006509154 -5.617332743126854 -0.976057533354812 3.000000000000000
-6.773608932065524 -4.949140929463494 -1.441655331815263 2.000000000000000
-6.262335967227827 -4.508470615320352 -1.452840302427506 51.000000000000000
-6.686911295975853 -4.742304423084547 -1.679044394452775 9.000000000000000
-6.579354430391332 -4.595974595182712 -1.776939166016964 5.000000000000000
-6.200586498789495 -4.264748978815528 -1.791741950929692 10.000000000000000
-6.068798127181559 -4.109934032250825 -1.868750262090705 18.000000000000000
-5.855255259312507 -3.902455390840768 -1.913136631501016 8.000000000000000
-5.854510004734784 -3.840080541987868 -2.023224662637963 8.000000000000000
-5.848409906249695 -3.774861704826530 -2.131881956843428 9.000000000000000
-6.077730054852479 -3.860237695227632 -2.331177023884398 15.000000000000000
-6.993442080034804 -5.616736865451363 -0.506251772814735 5.000000000000000
-7.108972124603715 -5.629665582201590 -0.658668933670157 10.000000000000000
-7.226330080219415 -5.641775794732776 -0.814945061757791 15.000000000000000
-6.744791684890761 -4.898001950155943 -1.421723610163744 2.000000000000000
-6.305752315068719 -4.511792229756574 -1.449745707534149 53.000000000000000
-6.673687791687176 -4.703563042282012 -1.661508340744745 8.000000000000000
-6.597906323470277 -4.580101163069927 -1.767620288058617 5.000000000000000
-6.523528735898235 -4.458558040022791 -1.870623702313766 5.000000000000000
-6.099000347434934 -4.104099916201849 -1.864300040181440 20.000000000000000
-5.855980961475965 -3.877875701662439 -1.899932372819376 9.000000000000000
-5.861654469907243 -3.819851622609663 -2.011999119448808 7.000000000000000
-5.858747706145397 -3.756800764675750 -2.121720841738552 9.000000000000000
-6.111129044470825 -3.855823769553987 -2.329203481872625 15.000000000000000
-7.150684191975173 -5.629636214314510 -0.649836657257010 3.000000000000000
-7.246367067089770 -5.624143571992536 -0.804013314946870 6.000000000000000
-6.738085103196433 -4.863220542566532 -1.406584194579617 13.000000000000000
-6.339624935771621 -4.508075303136793 -1.444353396849526 53.000000000000000
-6.605671894091365 -4.626698059147175 -1.630566741073523 7.000000000000000
-6.606758320327469 -4.557509016841769 -1.755708420606824 5.000000000000000
-6.619146422129931 -4.495316827138087 -1.883461511699588 4.000000000000000
-6.135665356599919 -4.102448091209418 -1.861739587254831 16.000000000000000
-5.856589431961792 -3.853327159111569 -1.886751183989721 16.000000000000000
-5.859027178402467 -3.793348567480452 -1.997475198428062 8.000000000000000
-5.859328242974361 -3.732548603143187 -2.108068657861225 9.000000000000000
-6.160693102454674 -3.861377038577663 -2.333264636365232 15.000000000000000
-7.192441663351740 -5.629419042768083 -0.640905734255945 8.000000000000000
-7.278967070840594 -5.616182478827551 -0.794428565780938 0.000000000000000
-6.737618763737066 -4.833115862173201 -1.392820324861755 9.000000000000000
-6.383161057720171 -4.511020593953011 -1.441059371482149 51.000000000000000
-6.620891596734003 -4.608498576725800 -1.620345436199738 7.000000000000000
-6.625187163723663 -4.541537899602714 -1.746347202621341 5.000000000000000
-6.663415343296496 -4.496730760375617 -1.881447429882796 4.000000000000000
-5.981708788194232 -3.973962712551751 -1.801664877963773 5.000000000000000
-5.895890952063739 -3.854180540887335 -1.886008016848906 10.000000000000000
-5.865974692703151 -3.773138185496825 -1.986271164194833 20.000000000000000
-5.856556333464171 -3.706280267949333 -2.093283183988765 10.000000000000000
-6.200655704780047 -3.860653770922318 -2.333547790777370 16.000000000000000
-7.128866032079301 -4.212293141385005 -3.083950646120453 18.000000000000000
-7.240542484547480 -5.633914942986708 -0.632426236532046 26.000000000000000
-6.737011918703690 -4.803054543343990 -1.379087183939830 11.000000000000000
-6.423546925621118 -4.511502508503391 -1.436937719635436 48.000000000000000
-6.723149947603159 -4.650506194160869 -1.631239688125278 3.000000000000000
-6.643565312873454 -4.525504899251763 -1.736957495286781 5.000000000000000
-6.707751464823088 -4.497940782446772 -1.879325145834492 3.000000000000000
-5.920855457415077 -3.908362841224208 -1.770173594237566 12.000000000000000
-5.928769463475337 -3.850642368624566 -1.883109661680847 10.000000000000000
-5.902020820602031 -3.771574950628970 -1.984886048358497 18.000000000000000
-5.863382247054892 -3.686177996182564 -2.081985688082661 20.000000000000000
-6.230949542402219 -3.853732984144310 -2.330097398598556 17.000000000000000
-7.094233314558183 -4.238454883399319 -2.918055839082121 0.000000000000000
-7.086777716585525 -4.158713300440151 -3.048012677212652 15.000000000000000
-7.263462530732509 -5.618652720650667 -0.621666847571712 1.000000000000000
-6.749144940655478 -4.782163356380358 -1.367995688194051 13.000000000000000
-6.486576766852440 -4.527567462627668 -1.437725536771666 40.000000000000000
-6.670534836256211 -4.585303082493750 -1.604513832899430 0.000000000000000
-6.665131167447198 -4.511602358069934 -1.728379207055479 5.000000000000000
-8.681803869072946 -5.784668476673003 -2.413536035350555 6.000000000000000
-6.005689782887655 -3.938944685043295 -1.782247176989772 12.000000000000000
-5.968175543086240 -3.851151377231161 -1.882184304619974 10.000000000000000
-5.944612129738261 -3.773975397489183 -1.985586141701006 19.000000000000000
-5.896123955036144 -3.682312096606196 -2.079864401838884 14.000000000000000
-6.228763305012508 -3.826720664784570 -2.314506565953179 0.000000000000000
-7.080995842992756 -4.201778400724532 -2.895261670855346 10.000000000000000
-7.112434851491156 -4.145078639852319 -3.041343379615991 12.000000000000000
-6.770878329230825 -4.768063385533985 -1.358838549012560 0.000000000000000
-6.698546480893573 -4.646529147967056 -1.471019347391753 31.000000000000000
-6.672638532613665 -4.558063223413933 -1.591116169373159 0.000000000000000
-6.696398306321181 -4.504170266903210 -1.722267090158744 5.000000000000000
-6.773868343062092 -4.484683788109842 -1.868479325956269 4.000000000000000
-6.035475468647956 -3.933051126273351 -1.777792087244359 31.000000000000000
-6.014152299150128 -3.855653866722407 -1.883201896413595 10.000000000000000
-5.987276611422722 -3.776176795563579 -1.986180149673647 19.000000000000000
-5.945183594767386 -3.688406217523616 -2.083375050019046 10.000000000000000
-8.385507638830262 -5.117349672041077 -3.096125639114217 45.000000000000000
-7.060372501134366 -4.234270775459896 -2.737712027462333 0.000000000000000
-7.080567913087831 -4.172882070665363 -2.877825090666664 19.000000000000000
-6.694143243470972 -4.614635002323352 -1.456430578923722 26.000000000000000
-6.736329714555522 -4.572742142655001 -1.592327627589016 5.000000000000000
-6.750444766815782 -4.511825741811321 -1.721895445634887 6.000000000000000
-6.779256758372475 -4.459626028196161 -1.855367751335685 8.000000000000000
-6.022882856744923 -3.899581951719045 -1.760876683858129 24.000000000000000
-6.047161789811180 -3.851624354490256 -1.880044712166487 13.000000000000000
-6.023483747820443 -3.774087580634835 -1.984516685100151 18.000000000000000
-5.978020405993407 -3.684205105471549 -2.081076828553859 15.000000000000000
-8.391124950183233 -5.086509127746289 -3.078490370906833 52.000000000000000
-7.079335288360044 -4.216932638623232 -2.728166233258948 0.000000000000000
-7.112594933078093 -4.163107784386303 -2.873588504559065 9.000000000000000
-6.679839861099530 -4.576127275565891 -1.439782826640089 20.000000000000000
-6.731812113101942 -4.540996307798740 -1.577352911194000 2.000000000000000
-6.771994040561794 -4.497568459283728 -1.713137084022092 8.000000000000000
-6.797594446942629 -4.443114219010082 -1.845814121661538 0.000000000000000
-6.016651015119581 -3.870421598591898 -1.745921880100553 21.000000000000000
-6.086740152486825 -3.851587629891668 -1.878830233248907 10.000000000000000
-6.059733129280842 -3.771834289090384 -1.982766879272060 18.000000000000000
-6.023973882960629 -3.687870999597382 -2.083228779499949 7.000000000000000
-7.068584729672493 -4.256072014545671 -2.576760936998614 0.000000000000000
-7.075356120562196 -4.185990428977597 -2.709825805422006 1.000000000000000
-6.675108857303092 -4.544387890773599 -1.425293107169215 15.000000000000000
-6.736928544443365 -4.515875134934858 -1.564693437303704 3.000000000000000
-6.770631547594499 -4.468136528889159 -1.698601897421659 30.000000000000000
-8.707179712326331 -5.654836606317488 -2.345757961321768 8.000000000000000
-6.043026672186337 -3.862263802353815 -1.740444472044993 22.000000000000000
-6.126374135563879 -3.851368306321223 -1.877519139758185 10.000000000000000
-6.102582339225529 -3.773471958255698 -1.983061817803617 18.000000000000000
-6.060174446461799 -3.685336563233066 -2.081884745644899 7.000000000000000
-7.067725594643506 -4.226937645162856 -2.560005676307415 0.000000000000000
-7.117095781767796 -4.182066177866148 -2.708987655396586 1.000000000000000
-6.666962198735002 -4.510505551651820 -1.410155562041526 12.000000000000000
-6.771361671205826 -4.510365430434663 -1.558820323727075 6.000000000000000
-6.792054210523748 -4.453783121386223 -1.689802210012106 56.000000000000000
-8.788588894476794 -5.671087586408848 -2.349014863971420 9.000000000000000
-6.072682837980843 -3.856079782987520 -1.735849030453933 18.000000000000000
-6.166062832571505 -3.850966045184853 -1.876111314291768 10.000000000000000
-6.142214490039649 -3.772890366307919 -1.982189557577144 18.000000000000000
-6.106275403695820 -3.688593649912677 -2.083818989270259 8.000000000000000
-7.073296032514684 -4.201750952745250 -2.545646512679322 1.000000000000000
-6.707706214951560 -4.509688251589089 -1.405348784956798 10.000000000000000
-6.779599695462841 -4.487353633616947 -1.546887628803377 0.000000000000000
-6.803592396526833 -4.432935139131446 -1.678535240671434 26.000000000000000
-8.837318797690967 -5.665869608477052 -2.343342494752737 9.000000000000000
-6.108930107774951 -3.853917735689488 -1.733053670507274 5.000000000000000
-6.199220926519526 -3.846295226751228 -1.872617668632093 13.000000000000000
-6.175313667707112 -3.768106491397545 -1.979109540909097 18.000000000000000
-6.145872078987377 -3.687679733659477 -2.083403602444936 18.000000000000000
-7.111678662055008 -4.195999254246754 -2.543072328116561 0.000000000000000
-6.745220164471974 -4.506494310132918 -1.399763539152342 11.000000000000000
-8.682530351080874 -5.710547488641569 -1.963438331735663 5.000000000000000
-8.752338629582372 -5.666263200535825 -2.141206635374932 5.000000000000000
-8.892676982921108 -5.664629166051814 -2.339288885225653 9.000000000000000
-8.914520746205341 -5.587286010642152 -2.509862725480634 24.000000000000000
-6.232403479543213 -3.841476958081041 -1.869047256949401 1.000000000000000
-6.205136943614823 -3.761174817165883 -1.974902404095875 23.000000000000000
-6.182221490339020 -3.684615713870749 -2.081780124193504 16.000000000000000
-8.433609867994097 -4.942241075344917 -2.996440179220358 78.000000000000000
-6.779481909303779 -4.500950567750224 -1.393414880102730 2.000000000000000
-8.688079010237024 -5.677994058515677 -1.947117506299901 7.000000000000000
-8.814031125807013 -5.669711984222182 -2.138138753512627 10.000000000000000
-8.809475599711933 -5.575397912013783 -2.298924483490581 14.000000000000000
-8.950186471719164 -5.573066379223735 -2.500797723571683 16.000000000000000
-8.884270958187098 -5.439949946873609 -2.645028944458468 18.000000000000000
-6.271354504451729 -3.776021164029684 -1.982128363222955 1.000000000000000
-6.211993762313074 -3.677470203324178 -2.077857165602651 18.000000000000000
-8.438424185069223 -4.911465424421351 -2.978887150858924 80.000000000000000
-8.684110395247714 -5.818784674078868 -1.606159257313990 1.000000000000000
-8.686722582823249 -5.730908000946313 -1.768242136631211 4.000000000000000
-8.723167086742954 -5.664733899037897 -1.937406986117101 5.000000000000000
-8.885729940116734 -5.679203466816799 -2.137300028963905 9.000000000000000
-8.805134375403433 -5.536590969717234 -2.279401909522402 17.000000000000000
-9.038809310873068 -5.591470727101027 -2.506348209975354 18.000000000000000
-8.767347841749130 -5.332918007490764 -2.591264816099960 12.000000000000000
-7.083547152687204 -4.236600807936718 -2.223258268813354 11.000000000000000
-6.255034707753631 -3.677992042907208 -2.078273162293327 2.000000000000000
-8.449726590898619 -4.884540687280093 -2.963677245140929 77.000000000000000
-8.696032627893590 -5.790385749317901 -1.591563196579471 4.000000000000000
-8.688720021820437 -5.696100188923916 -1.751537330506423 4.000000000000000
-8.797899103528668 -5.676919537274026 -1.936352222981627 10.000000000000000
-8.931083884666499 -5.671531785435129 -2.129960528237399 7.000000000000000
-8.807237251531667 -5.501998262342196 -2.261630190021426 18.000000000000000
-9.124320442086274 -5.607398085082696 -2.510749526642876 19.000000000000000
-8.762657271524477 -5.294793581857782 -2.571018177165780 36.000000000000000
-7.115128716631217 -4.227034763545852 -2.217598803558630 6.000000000000000
-7.261463672438915 -4.240922943613382 -2.396508693951166 0.000000000000000
-8.454276811799378 -4.853787173543324 -2.946151670131325 60.000000000000000
-8.691348583802739 -5.751056545106007 -1.573978529022378 4.000000000000000
-8.700478462872626 -5.667789922425289 -1.736840784972508 5.000000000000000
-8.846286140307168 -5.671753448831161 -1.929323803689034 11.000000000000000
-8.993047784470455 -5.674124182171123 -2.126438880271876 8.000000000000000
-8.832435195498054 -5.481873852327491 -2.249809677393944 16.000000000000000
-9.140198317699269 -5.580276192955294 -2.495858233847390 4.000000000000000
-8.747800202717301 -5.250751109989324 -2.547912948725874 37.000000000000000
-8.434915526355132 -4.977514824938822 -2.610563584892609 73.000000000000000
-8.448422608965364 -4.900710815839044 -2.769529367932577 55.000000000000000
-8.465343391827627 -4.826849159699066 -2.930949410677834 70.000000000000000
-8.697805210413692 -5.808971363977046 -1.395972855823148 3.000000000000000
-8.696397138425796 -5.718321799932021 -1.558219690288168 4.000000000000000
-8.761811818679215 -5.671626933092064 -1.731964660689680 5.000000000000000
-8.901348843941063 -5.670597367807437 -1.923615931178686 12.000000000000000
-9.055103949463772 -5.676423965525309 -2.122762216550767 8.000000000000000
-9.160482217655833 -5.648434833692765 -2.314479092482236 13.000000000000000
-6.327216561377738 -3.837470364460824 -1.714458453072628 0.000000000000000
-8.729383368526555 -5.204849730809220 -2.523923391267488 37.000000000000000
-8.442497396010657 -4.948502965780126 -2.594596715487509 55.000000000000000
-8.456016388886084 -4.871788407628053 -2.753373302367636 54.000000000000000
-8.476299115339740 -4.799895983649132 -2.915746191533072 71.000000000000000
-8.689550952518893 -5.767338813505420 -1.378371232220068 3.000000000000000
-8.691367353075929 -5.679114101435208 -1.540718195117354 5.000000000000000
-8.819918945176822 -5.673037611372274 -1.726284466843901 11.000000000000000
-8.966453464340969 -5.675501181458439 -1.919910052859692 9.000000000000000
-9.043966470681497 -5.632787376872709 -2.101898390534691 9.000000000000000
-9.076116487258064 -5.559865694267853 -2.274523899946049 20.000000000000000
-9.134915212649826 -5.503792014602199 -2.456162355728924 2.000000000000000
-8.720751970492778 -5.165033533922221 -2.502901049303635 37.000000000000000
-8.459982308703248 -4.925332810978484 -2.581699447559077 34.000000000000000
-8.456800356437375 -4.839044267957238 -2.735064588654334 81.000000000000000
-8.480461214047420 -4.769169784369518 -2.898258298512081 59.000000000000000
-8.689952199675721 -5.821012731817651 -1.199718943489648 1.000000000000000
-8.694343927556483 -5.734534741271476 -1.362905341728534 2.000000000000000
-8.732622787416352 -5.670153657623366 -1.531415277329111 5.000000000000000
-8.884756889169477 -5.678426796904014 -1.721749149138137 10.000000000000000
-9.041660661979160 -5.686381841052853 -1.918160064062157 8.000000000000000
-8.895757603300602 -5.504575441121066 -2.049572120303729 32.000000000000000
-9.074794951195724 -5.522663924328939 -2.255632898471798 18.000000000000000
-9.086837245900766 -5.438612939714366 -2.424329630739619 1.000000000000000
-8.718620673519871 -5.129251028927479 -2.483846499588556 38.000000000000000
-8.437190954620155 -4.878869778299317 -2.556602135975294 46.000000000000000
-8.467480809160968 -4.812051299870145 -2.720013792962963 81.000000000000000
-8.551450206704612 -4.775864823155862 -2.903527260625256 17.000000000000000
-8.697958362541986 -5.790304743400378 -1.184967215597541 2.000000000000000
-8.692360477923012 -5.697402318341316 -1.346430891208689 3.000000000000000
-8.807147178946323 -5.682471603617310 -1.527788939108009 9.000000000000000
-8.939699235590918 -5.677155037358299 -1.715130391245056 7.000000000000000
-9.090295289362581 -5.680201416969835 -1.910598705863255 7.000000000000000
-8.893947307010807 -5.467706802020471 -2.031349213516534 28.000000000000000
-9.096746651411674 -5.499692507804514 -2.242560741569646 13.000000000000000
-9.095387827865325 -5.407632084503690 -2.407766496021894 1.000000000000000
-8.847166619021284 -5.169988326663014 -2.501832831634370 35.000000000000000
-8.430933308299918 -4.842214872712351 -2.536655805875585 46.000000000000000
-8.474694338279695 -4.783150105553766 -2.703891813751248 81.000000000000000
-8.659480304483415 -4.802684274586650 -2.921061556164457 16.000000000000000
-8.692576323790146 -5.750826353355463 -1.168442171712099 3.000000000000000
-8.700182503667811 -5.666824118330554 -1.331522742869846 5.000000000000000
-8.845155676451546 -5.670920004979152 -1.517676960510436 9.000000000000000
-8.994703223848312 -5.675627302705375 -1.708377193619151 8.000000000000000
-9.152348477396503 -5.682111082887955 -1.905710101253534 9.000000000000000
-8.905373770202608 -5.439083944986677 -2.016201342221444 52.000000000000000
-9.111909964160139 -5.472617018284412 -2.227815022891927 5.000000000000000
-9.117245085140308 -5.384588355844924 -2.394741383862598 6.000000000000000
-8.908839749012756 -5.171038318279800 -2.500587338465166 21.000000000000000
-8.478306329190975 -4.836333427321371 -2.532835716775607 27.000000000000000
-8.495236150788669 -4.761794209559694 -2.692042839209118 44.000000000000000
-8.841754768519840 -4.869691657547939 -2.963085515769777 14.000000000000000
-8.693154376087849 -5.805183559045184 -0.989399231501713 2.000000000000000
-8.693657200323443 -5.715792941962492 -1.152848440982634 2.000000000000000
-8.771171194174586 -5.677216681210861 -1.326194042010099 5.000000000000000
-8.903195101598708 -5.671970326933753 -1.510882388954123 10.000000000000000
-9.056461197928064 -5.678039810171579 -1.702747921604972 9.000000000000000
-9.201075239542758 -5.675453152599032 -1.897899351632447 11.000000000000000
-8.946911082077309 -5.428785696863151 -2.007835637430591 34.000000000000000
-9.167324799272881 -5.469583426751476 -2.222842586069014 11.000000000000000
-9.189517916193681 -5.391093595165844 -2.394842440770825 5.000000000000000
-8.987444925995060 -5.181506105610223 -2.503879425956776 16.000000000000000
-8.606594601726211 -4.876056304852784 -2.552892530727188 47.000000000000000
-8.522447842262642 -4.744121553077309 -2.682284374472661 29.000000000000000
-9.054924737218100 -4.952326731858273 -3.014681068411327 20.000000000000000
-8.694149790778400 -5.770027084582481 -0.974139034580023 2.000000000000000
-8.691255671784353 -5.678625209199830 -1.136849410043620 4.000000000000000
-8.825598725399493 -5.676527523135767 -1.318187550126671 9.000000000000000
-8.978039659232243 -5.683337794455106 -1.506751270572256 6.000000000000000
-9.121658794578522 -5.682247571266017 -1.697587515897123 9.000000000000000
-9.269992217947895 -5.680928761810327 -1.894093102891623 6.000000000000000
-9.042297981448165 -5.450762254828843 -2.011353289711089 29.000000000000000
-9.236276765383607 -5.474280979114699 -2.220976198642830 4.000000000000000
-9.278781120121993 -5.407076127650636 -2.399117478294527 13.000000000000000
-9.056079055703433 -5.185789579148565 -2.504165046007095 16.000000000000000
-8.637323181961596 -4.860020609781397 -2.543751545031248 45.000000000000000
-8.563122819796872 -4.733810131831543 -2.676696697207801 27.000000000000000
-9.262037744016054 -5.030172933500159 -3.063428322566802 20.000000000000000
-8.688665300246095 -5.820164989110691 -0.794303971933633 1.000000000000000
-8.694991876214790 -5.734911477401374 -0.958909077508810 2.000000000000000
-8.735382847218453 -5.671836137361598 -1.126914967262707 3.000000000000000
-8.893464926007978 -5.684133967016550 -1.312020828674052 9.000000000000000
-9.039611774285749 -5.685901868133672 -1.500198292276230 7.000000000000000
-9.183594147542522 -5.684062668614374 -1.691642430446569 10.000000000000000
-9.170688176218597 -5.583583268347792 -1.856042095425383 8.000000000000000
-9.239062982646585 -5.532837782952929 -2.036914644804259 7.000000000000000
-9.258070135406786 -5.450815680600705 -2.207661609940803 10.000000000000000
-9.216153979390729 -5.334585474024966 -2.364142053363595 23.000000000000000
-9.118061803790834 -5.185894998030371 -2.502418432567632 42.000000000000000
-8.732303355081999 -4.879782942493742 -2.553345364217449 42.000000000000000
-8.661324353853750 -4.754894786298256 -2.688872627807715 24.000000000000000
-9.331146714722767 -5.032150338989193 -3.066016952681356 20.000000000000000
-8.699375435571675 -5.791578498311607 -0.780311174382893 3.000000000000000
-8.689017598806213 -5.695469576746011 -0.942986462255183 2.000000000000000
-8.809608177781636 -5.684255628027032 -1.120704113138687 5.000000000000000
-8.941335193481356 -5.678640107008770 -1.302749205673573 5.000000000000000
-9.101268105841488 -5.688172112258626 -1.493490169674957 7.000000000000000
-9.238878710639225 -5.681441908422675 -1.684314107082106 6.000000000000000
-9.097810964419216 -5.503158469572696 -1.823739705786929 36.000000000000000
-9.568212751942268 -5.692263655225124 -2.090699216284468 6.000000000000000
-9.300084006364504 -5.439149579615869 -2.199114668480862 23.000000000000000
-9.095547522559773 -5.229390074811629 -2.314742039692198 30.000000000000000
-9.129297630872534 -5.156992264717547 -2.486670776075616 72.000000000000000
-8.851235377439590 -4.912237221985042 -2.569570736155455 34.000000000000000
-8.773321784046129 -4.782876626652004 -2.704962115780478 20.000000000000000
-9.393587046768406 -5.030166770768226 -3.066217319930852 19.000000000000000
-8.696664696443410 -5.754173141096449 -0.765147449789295 2.000000000000000
-8.699555634560628 -5.666979575360209 -0.928897332128077 5.000000000000000
-8.850484918990890 -5.674837764085873 -1.110097765973628 5.000000000000000
-8.992594240774462 -5.675046478019397 -1.293847090312289 6.000000000000000
-9.149542068509138 -5.681786296982801 -1.484442121471887 8.000000000000000
-9.290844724245465 -5.676501835984835 -1.676241992082582 7.000000000000000
-9.136022386589506 -5.490211883415504 -1.813839140314971 16.000000000000000
-9.634444878815099 -5.693869343412960 -2.086331655613642 5.000000000000000
-9.352268645735171 -5.433207214851409 -2.192858075317557 28.000000000000000
-9.021805605656439 -5.152032152121145 -2.277736665476497 29.000000000000000
-9.130230693056793 -5.122359438305090 -2.468168810347136 72.000000000000000
-8.919530596357623 -4.916001678387856 -2.570781484048771 25.000000000000000
-8.889002280973379 -4.812126466732819 -2.721782746109530 7.000000000000000
-9.449317276900267 -5.024277336637893 -3.064060091613896 18.000000000000000
-8.983240226863474 -4.686489255510248 -3.073102257401930 25.000000000000000
-8.700929331134992 -5.812060890222213 -0.586665989251270 3.000000000000000
-8.697122036045496 -5.719020508580434 -0.750312409978845 3.000000000000000
-8.773532876404609 -5.679617370342404 -0.921483257119902 4.000000000000000
-8.904787016782649 -5.673790179938375 -1.101058209076167 7.000000000000000
-9.053989863094166 -5.677544528276232 -1.286254908028988 7.000000000000000
-9.197844471249077 -5.675180203218564 -1.475279886566899 8.000000000000000
-9.146800119950100 -5.552314430826676 -1.633042567392123 15.000000000000000
-9.539972773923207 -5.695457060608750 -1.875769800259589 6.000000000000000
-9.700767595494362 -5.695158432352377 -2.081796937410586 6.000000000000000
-9.015607444609637 -5.113691376350968 -2.258018359565098 32.000000000000000
-9.134409540754788 -5.089663304445283 -2.450610085091257 64.000000000000000
-8.916468991996146 -4.880318459958413 -2.551366779622329 6.000000000000000
-9.825160866703776 -5.281688460065179 -2.987688898497809 76.000000000000000
-9.528914056177623 -5.030701722452754 -3.069438562618802 19.000000000000000
-8.997272710046435 -4.660128869426534 -3.058322857611837 9.000000000000000
-8.701323985057661 -5.776780678459017 -0.572158981440393 2.000000000000000
-8.694087384847681 -5.681727839487241 -0.735226021457392 6.000000000000000
-8.824185901224366 -5.676797021902261 -0.911450905290415 7.000000000000000
-8.975953956577035 -5.683129469659262 -1.093933270588068 4.000000000000000
-9.128951027596049 -5.688150468946515 -1.280398913767329 8.000000000000000
-9.273209831836921 -5.684927692737420 -1.470289952040165 6.000000000000000
-9.117182102410618 -5.498416601099038 -1.610661166180511 20.000000000000000
-9.589052134594253 -5.687208273443224 -1.867125387999518 6.000000000000000
-9.753585462014009 -5.688202562866711 -2.074204001294371 5.000000000000000
-9.943377741951622 -5.699531121414832 -2.292144863852390 6.000000000000000
-9.152285657527969 -5.156023118794491 -2.273894641680775 30.000000000000000
-9.131628456461939 -5.053217626603461 -2.431256743192415 63.000000000000000
-8.933699409543070 -4.855816958486846 -2.537805454640166 1.000000000000000
-9.687279177447765 -5.170994067275144 -2.925395442396162 83.000000000000000
