# This PCD file was generated using the MATLAB® pcwrite function
# from Computer Vision Toolbox®.
# .PCD v.7 - Point Cloud Data file format
VERSION .7
FIELDS x y z intensity
SIZE 8 8 8 8
TYPE F F F F
COUNT 1 1 1 1
WIDTH 637
HEIGHT 1
VIEWPOINT 0 0 0 1 0 0 0
POINTS 637
DATA ascii
9.150563920415761 -2.716485823048195 -2.129855561197392 60.000000000000000
6.700465403106383 -1.935190789464053 -1.672239214391262 56.000000000000000
6.632811832093430 -1.861429403709423 -1.766757418279993 85.000000000000000
6.615678943400572 -1.801643728633834 -1.873642439987059 113.000000000000000
6.578289191530223 -1.735751133624005 -1.973913704982975 104.000000000000000
6.579041627539519 -1.682144544370537 -2.086484362497493 108.000000000000000
6.581722948006806 -1.627718530380996 -2.199963504591589 106.000000000000000
6.559868460003337 -1.567561628355246 -2.306352169284148 48.000000000000000
9.157212936580775 -3.118722876884204 -1.382390267369085 0.000000000000000
9.142871237783465 -3.039629870785161 -1.532348451868054 119.000000000000000
9.144393180819367 -2.966079424778185 -1.685243662053573 121.000000000000000
9.143227562663119 -2.891656762477716 -1.837228049365208 121.000000000000000
9.139004006123290 -2.816944509806423 -1.989284646483231 118.000000000000000
9.136153079019852 -2.741280630714891 -2.141556308011407 107.000000000000000
6.700105704423250 -1.956367041898789 -1.683333462783646 53.000000000000000
6.658593581464628 -1.889770674774927 -1.784881596532039 105.000000000000000
6.615377357964284 -1.822486712880578 -1.884882116501513 115.000000000000000
6.574301763099941 -1.755448611889141 -1.984112017683857 103.000000000000000
6.567633204722819 -1.699914989347439 -2.094393257536455 108.000000000000000
6.574004767369434 -1.646473544824668 -2.209065455072899 105.000000000000000
6.585258443826356 -1.594285267447077 -2.327127352341269 39.000000000000000
6.723337791836926 -1.568704428008960 -2.492287173341475 25.000000000000000
9.143380813114955 -3.069193148177858 -1.546759427170036 117.000000000000000
9.144887385003834 -2.995581126855305 -1.699856590429326 120.000000000000000
9.143706848863612 -2.921088223532310 -1.852037972716962 120.000000000000000
9.139465344600636 -2.846296908936897 -2.004287185265674 117.000000000000000
9.136595926309010 -2.770555365323591 -2.156752616094453 120.000000000000000
6.714575209823778 -1.981967172912350 -1.698205487306460 20.000000000000000
6.647013270995693 -1.907601254674184 -1.793044346460124 106.000000000000000
6.618706926724405 -1.844386810481617 -1.897192639520781 94.000000000000000
6.570240391821405 -1.775147145769483 -1.994306346714308 95.000000000000000
6.567255379525108 -1.720548987865183 -2.105832842476965 109.000000000000000
6.566221242508770 -1.665208457866823 -2.218153147615237 89.000000000000000
6.606832276048241 -1.620277002441429 -2.346675459352364 72.000000000000000
6.704387991948529 -1.585308698180349 -2.497511158111227 58.000000000000000
9.140034149119348 -3.097524458970075 -1.560542847541920 32.000000000000000
9.137787277527996 -3.022644754857597 -1.713078619497453 120.000000000000000
9.140332615169083 -2.949349355279657 -1.866095941956840 119.000000000000000
9.139809953753820 -2.875684750536871 -2.019300677163328 117.000000000000000
9.140651344544601 -2.801008322186304 -2.172846376649312 120.000000000000000
6.736372899600674 -2.009895682901795 -1.715020554214533 1.000000000000000
6.653962479633859 -1.930783472833831 -1.806227699006012 97.000000000000000
6.633073765618266 -1.869466553911675 -1.912728737608212 91.000000000000000
6.580910241426662 -1.798893521109085 -2.009016300082559 72.000000000000000
6.555720909477323 -1.738268562303996 -2.113708059867168 109.000000000000000
6.569413481306080 -1.686757971949242 -2.230976032076451 88.000000000000000
6.617266016911083 -1.643682643469418 -2.362361917444302 92.000000000000000
6.674431924419824 -1.599202096545202 -2.498585027708867 50.000000000000000
9.138057042947535 -3.052195875049223 -1.727703047450428 114.000000000000000
9.144315183883240 -2.980057152787923 -1.881690512257512 116.000000000000000
9.147495819993226 -2.907478224321441 -2.035984920941972 121.000000000000000
9.137131041470026 -2.829210735212422 -2.187177849824673 120.000000000000000
9.142126748472077 -2.756926769393746 -2.342882264022575 100.000000000000000
6.668235848219090 -1.956207858990598 -1.821465751791472 105.000000000000000
6.636205588612572 -1.891483902109416 -1.925087019780714 108.000000000000000
6.598864113295630 -1.824769302561112 -2.026032923397276 79.000000000000000
6.555190708885505 -1.758914455476353 -2.125144397083986 107.000000000000000
6.568837981140484 -1.707394505306750 -2.242560050650708 93.000000000000000
6.616598752582945 -1.664407531078462 -2.374140795700015 79.000000000000000
6.637160550203422 -1.611176806789199 -2.496836624228338 58.000000000000000
6.763701494551864 -1.583959149240570 -2.664022429735526 2.000000000000000
9.138209853519077 -3.081781748781284 -1.742338063042134 56.000000000000000
9.144443784822693 -3.009593902004206 -1.896532734027214 116.000000000000000
9.143872678777155 -2.935761152828497 -2.050194841437219 119.000000000000000
9.140943229344551 -2.859754572132271 -2.203303126006178 120.000000000000000
9.142181751704982 -2.786251947729129 -2.358314843817095 113.000000000000000
6.660139421010997 -1.975139384453146 -1.830634672641527 78.000000000000000
6.620740721559981 -1.908210416636234 -1.932061413029714 98.000000000000000
6.609305178027975 -1.848706046429087 -2.040826062551416 92.000000000000000
6.554577541956467 -1.779581716434570 -2.136586567638131 105.000000000000000
6.564507924090400 -1.727086332245749 -2.252889814332756 119.000000000000000
6.634143890525499 -1.689813641764147 -2.392523499552507 62.000000000000000
6.625418474894268 -1.629240257747036 -2.504641733874540 81.000000000000000
6.722755073710974 -1.595543264416729 -2.660455207340980 38.000000000000000
9.144455045162561 -3.039165026673272 -1.911385326836796 115.000000000000000
9.143861207410621 -2.965263706000855 -2.065245112204674 118.000000000000000
9.140913046048256 -2.889179368755188 -2.218547105595040 120.000000000000000
9.138408890037139 -2.814468682622794 -2.372794342758278 116.000000000000000
6.711237437489954 -2.011814125422301 -1.856178865945998 90.000000000000000
6.656976059892511 -1.939953949302458 -1.954191498447317 90.000000000000000
6.619635563857563 -1.872726894189965 -2.055655365446688 103.000000000000000
6.557559091331564 -1.801280343403624 -2.149239839608987 95.000000000000000
6.560103623286734 -1.746778195418044 -2.263215055568589 118.000000000000000
6.669833724754342 -1.720057369342104 -2.417585723464950 86.000000000000000
6.631828650986006 -1.651797142695300 -2.519339386296486 60.000000000000000
6.678194384710666 -1.606046461036161 -2.655340001772303 37.000000000000000
9.144348744520260 -3.068770164884551 -1.926248092459841 91.000000000000000
9.147447533995228 -2.996017150995292 -2.081150845985618 116.000000000000000
9.144476383842438 -2.919823123498084 -2.234708167263424 119.000000000000000
9.138233079861887 -2.843851485288473 -2.388242221329424 115.000000000000000
6.710334310264153 -2.033113025502785 -1.867458398471742 45.000000000000000
6.685652678413787 -1.969753098835461 -1.974248462895859 90.000000000000000
6.626171549191434 -1.895777687911323 -2.069370329038182 96.000000000000000
6.567794800364157 -1.825062236962758 -2.164329755726247 66.000000000000000
6.566612130082597 -1.769430438855087 -2.277346055193451 109.000000000000000
6.661546695554948 -1.739094965108230 -2.426797133111082 55.000000000000000
6.663598052845630 -1.680838372459877 -2.543782096756394 57.000000000000000
6.637279962992175 -1.617203243079431 -2.651556592538793 65.000000000000000
6.771731420776992 -1.590320021983581 -2.825703415530327 0.000000000000000
9.140410559693748 -3.097150461097798 -1.940332399760587 0.000000000000000
9.150906737889523 -3.026825259380693 -2.097076709045992 117.000000000000000
9.144205936684076 -2.949326004759696 -2.249977312143375 119.000000000000000
9.141640347690950 -2.874431567220928 -2.404673557644101 116.000000000000000
6.698262633787289 -2.051038348524644 -1.875639459408518 0.000000000000000
6.695735775295333 -1.994249815043158 -1.988915810845333 96.000000000000000
6.639962424653302 -1.921019448871748 -2.085421606354148 66.000000000000000
6.596262841895490 -1.854083465063971 -2.185533121507246 72.000000000000000
6.558387719117213 -1.788155746722291 -2.286401878759846 97.000000000000000
6.660484550130627 -1.760037584309629 -2.438663006503514 58.000000000000000
6.687935567121932 -1.708230951557487 -2.565533251814608 66.000000000000000
6.632565114792866 -1.637082916887781 -2.662191488467137 80.000000000000000
6.730795293691124 -1.601993380642299 -2.821488246086393 51.000000000000000
9.150532322362972 -3.056449700530647 -2.112167002279084 115.000000000000000
9.147519255924164 -2.980068128390484 -2.266173297135032 116.000000000000000
9.144920090976349 -2.905065828390504 -2.421124751510115 113.000000000000000
9.147310148775817 -2.830493689653429 -2.577223023902870 115.000000000000000
6.694658925482821 -2.015503585179516 -2.000317767151440 91.000000000000000
6.672002025971976 -1.951738901427828 -2.107320627260869 99.000000000000000
6.606252917833734 -1.878084000686932 -2.200719625935354 97.000000000000000
6.608548516688344 -1.822983207864974 -2.315926321457270 76.000000000000000
6.681183578217636 -1.786842510040580 -2.458572723851557 88.000000000000000
6.715752195735672 -1.736726799624461 -2.588758093939577 55.000000000000000
6.642230337441402 -1.660575361831832 -2.678650707361850 40.000000000000000
6.718663011617034 -1.620402068987798 -2.829291160546963 72.000000000000000
9.138935108529317 -3.082361737477326 -2.124685200547604 29.000000000000000
9.143310274738930 -3.008431077935977 -2.280544599248720 119.000000000000000
9.144380268536851 -2.934569139682152 -2.436611883090746 114.000000000000000
9.146736521121658 -2.859932962159250 -2.592909266660580 113.000000000000000
6.700852557992258 -2.039015346543021 -2.013935304971503 75.000000000000000
6.663510296744498 -1.970729246299924 -2.116495396394281 103.000000000000000
6.634427703080858 -1.907427536404531 -2.222069586209888 77.000000000000000
6.643901133152578 -1.854049786325140 -2.340455751071055 91.000000000000000
6.639924538386422 -1.797061113098011 -2.455685134605981 66.000000000000000
6.739786061453252 -1.764459245631727 -2.610664171498353 77.000000000000000
6.713139950914235 -1.699683945349343 -2.720004868628164 25.000000000000000
6.699284758155694 -1.637011347193102 -2.834027801258103 47.000000000000000
6.776156768407882 -1.595612404502025 -2.988895532560367 31.000000000000000
9.150069673834459 -3.040486522570081 -2.297696818565209 116.000000000000000
9.143721735255513 -2.964104872048982 -2.452108304237675 114.000000000000000
9.146044088806971 -2.889404572068622 -2.608604750533898 114.000000000000000
6.695923088459510 -2.059199754442373 -2.024246616580923 3.000000000000000
6.654952465750997 -1.989697339793728 -2.125654763740453 72.000000000000000
6.658788197570496 -1.935895048709866 -2.242274314234654 115.000000000000000
6.657212671734663 -1.879172711757880 -2.357348799537299 52.000000000000000
6.624104899488535 -1.814032202982803 -2.462140826011654 83.000000000000000
6.705767118482055 -1.777011786662620 -2.610107366134002 58.000000000000000
6.830637767401483 -1.751238472209558 -2.780638686345567 0.000000000000000
6.661920376362802 -1.649093728298468 -2.831092152207125 54.000000000000000
6.760255779153210 -1.613338620785332 -2.995113402712506 71.000000000000000
9.876013379502309 -4.211455854169634 -0.647715459342821 16.000000000000000
9.141940157552504 -3.067666125209582 -2.311149216292734 52.000000000000000
9.142944278499433 -2.993672658026774 -2.467613814363465 111.000000000000000
9.145232639582517 -2.918908151676650 -2.624309274835996 114.000000000000000
6.690917784500795 -2.079382497283543 -2.034552439983259 0.000000000000000
6.682927343320843 -2.019703804144016 -2.146554138013018 3.000000000000000
6.653798205124303 -1.955944254047329 -2.252668533216511 115.000000000000000
6.717709276924709 -1.917904323379758 -2.391125483340627 43.000000000000000
6.637253474793497 -1.838978623941015 -2.479399913694777 57.000000000000000
6.686203668850019 -1.793274063505438 -2.615119238546350 51.000000000000000
6.800145748549954 -1.765179849570054 -2.781239633176155 38.000000000000000
6.667580667130366 -1.671774544038661 -2.846425463842976 49.000000000000000
6.747874206332030 -1.631863857718715 -3.002883621686038 78.000000000000000
9.789914558787581 -4.207613566023579 -0.656153191452481 22.000000000000000
9.145725099676003 -3.024488248333667 -2.484127057307630 111.000000000000000
9.144301962654742 -2.948443332343327 -2.640022638491722 113.000000000000000
9.144026416468366 -2.871512395090511 -2.796686156823864 111.000000000000000
6.630328662036251 -2.025333021809120 -2.141565778618555 0.000000000000000
6.656022894628072 -1.978158254025788 -2.265538600027944 37.000000000000000
6.701638417956921 -1.934971775141015 -2.397770369399764 0.000000000000000
6.672012059189755 -1.870118343502890 -2.504862563758838 32.000000000000000
6.644945428769215 -1.803573438607022 -2.611574065622177 70.000000000000000
6.769642444715975 -1.778974256978942 -2.781764864920492 56.000000000000000
6.698196907093769 -1.700878280681121 -2.872529768010542 43.000000000000000
6.735434547672594 -1.650345504116049 -3.010628035985584 87.000000000000000
9.718563264229356 -4.209673509443291 -0.665372845150009 21.000000000000000
9.141031751310598 -3.052902916280809 -2.498651297259311 80.000000000000000
9.150584047445982 -2.980397883827944 -2.657874347048977 112.000000000000000
9.150262667015916 -2.903326921242114 -2.814853799579213 117.000000000000000
9.169468405097684 -2.830794712276032 -2.978213300766988 2.000000000000000
6.643591412433114 -1.996036851591619 -2.273440131548046 0.000000000000000
6.721059070695433 -1.905585960484188 -2.535888624413188 2.000000000000000
6.643357756569436 -1.824553913232041 -2.623582424079402 78.000000000000000
6.724767100950359 -1.788801540355809 -2.776285375676713 41.000000000000000
7.161248872336692 -1.841423992978278 -3.085095827772681 10.000000000000000
6.719378005084138 -1.667899984212754 -3.016748724613071 84.000000000000000
9.643611930325347 -4.209774265811381 -0.674155448097010 20.000000000000000
9.827071365784784 -4.206856777133938 -0.857438294255085 1.000000000000000
9.132560872644763 -3.080090680546109 -2.512165063655437 0.000000000000000
9.145743316126346 -3.008811505836361 -2.672544951516621 112.000000000000000
9.149052202956945 -2.932871307041341 -2.830788880136121 118.000000000000000
9.219238078579609 -2.876240973701709 -3.011036883146261 10.000000000000000
6.641684717923284 -1.845552514102702 -2.635594814343340 19.000000000000000
6.672749198370412 -1.796469041764930 -2.767716227799955 59.000000000000000
6.819613663799765 -1.775496047605442 -2.951285018674576 25.000000000000000
6.731707117039095 -1.692539201899387 -3.035655833660822 72.000000000000000
9.412516039211001 -4.220691981299488 -0.507823798762749 22.000000000000000
9.568730514646271 -4.209492684809864 -0.682747152765651 21.000000000000000
9.751816575792713 -4.207592441404541 -0.865202472910160 0.000000000000000
9.144448796631950 -3.038449674273076 -2.688288634556619 107.000000000000000
9.151370634505932 -2.963627741854533 -2.847867643977274 116.000000000000000
9.239626403721855 -2.912826671253578 -3.034443722147393 13.000000000000000
6.603976395284680 -1.856463027932589 -2.633276437528372 0.000000000000000
6.674491423150593 -1.818500389866550 -2.781394717465389 58.000000000000000
6.731965185231063 -1.774366183667152 -2.926597579288166 74.000000000000000
6.733263275372148 -1.714565662437147 -3.049782656799692 60.000000000000000
9.338063716800928 -4.219097666422011 -0.517088872591873 20.000000000000000
9.493920964000925 -4.208829147667850 -0.691148272836781 33.000000000000000
9.683943618131623 -4.211123850173421 -0.873434553557629 0.000000000000000
9.838370950861490 -4.196113391872951 -1.057635776526699 0.000000000000000
9.827194855215236 -3.944711742061874 -1.562404092951114 0.000000000000000
9.143034184704652 -3.068117947033919 -2.704040340011684 18.000000000000000
9.153559007102963 -2.994434948033881 -2.864964370716944 113.000000000000000
9.245292316339350 -2.944934248413531 -3.053115827799137 13.000000000000000
6.740503510580981 -1.858314769715128 -2.822034486058607 43.000000000000000
6.726360825604973 -1.794613168706235 -2.937442700457823 92.000000000000000
6.777258322236118 -1.747597511914538 -3.083273677445999 40.000000000000000
9.281864663453641 -4.225398863481018 -0.527197129946600 20.000000000000000
9.433760364401209 -4.214295120647169 -0.700441305993726 24.000000000000000
9.612472562561296 -4.212713069926603 -0.881160498703770 0.000000000000000
9.781212266193352 -4.204901624079595 -1.066156149671076 0.000000000000000
9.819621233053518 -4.138638107445074 -1.239636017130804 0.000000000000000
9.818284076785039 -4.055864832988230 -1.408514907297285 1.000000000000000
9.795560010578265 -3.964995788444191 -1.572790029463476 1.000000000000000
9.821124130649650 -3.893834439337549 -1.744946466055608 0.000000000000000
9.151978051994510 -3.024090091524578 -2.880933330390284 114.000000000000000
9.247186413720936 -2.975944054554326 -3.070609778864404 14.000000000000000
6.799101096469175 -1.896543177603890 -2.859860880440828 22.000000000000000
6.727791396672998 -1.816776938176005 -2.951401104520462 96.000000000000000
6.767944225012503 -1.767047582353808 -3.092632827999061 36.000000000000000
9.211170167381566 -4.224761442914674 -0.536319772152176 18.000000000000000
9.369997070005773 -4.217823694411090 -0.709308248188062 24.000000000000000
9.533774238368336 -4.210719444820634 -0.888026198281148 0.000000000000000
9.702167596195139 -4.203915000244053 -1.072113149841974 0.000000000000000
9.736771909743831 -4.136753076638378 -1.244046124766436 1.000000000000000
9.735356868491849 -4.054558727781031 -1.411729494656563 1.000000000000000
9.723592790878401 -3.968698597469650 -1.576570543813387 1.000000000000000
9.760079923673249 -3.902511073710953 -1.749738038414253 0.000000000000000
9.855831191265272 -3.859545472732157 -1.934967770583074 0.000000000000000
9.153910385845426 -3.054987245198912 -2.898060313310129 50.000000000000000
9.234446434935053 -3.002288340123673 -3.083278735870753 10.000000000000000
6.722023371622004 -1.837036687592524 -2.962242731412575 99.000000000000000
6.723214352515464 -1.777129654266911 -3.085751604075619 66.000000000000000
9.144170097986889 -4.225440692710481 -0.545479762657428 20.000000000000000
9.299013708664308 -4.217736296335245 -0.717454235926938 24.000000000000000
9.469725302978208 -4.214804641323729 -0.896069484811426 0.000000000000000
9.623207825496037 -4.202523765740885 -1.077868797996699 0.000000000000000
9.664971310312298 -4.139132944375757 -1.249660769818544 1.000000000000000
9.648869895815688 -4.051291000985419 -1.414196223639536 1.000000000000000
9.637061532937295 -3.966015194212379 -1.577773269407497 1.000000000000000
9.680777330406546 -3.903507235494800 -1.751067543393583 0.000000000000000
9.842239565368953 -3.887395094153425 -1.948353078843211 29.000000000000000
9.152823843201363 -3.006006453919545 -3.072830111528889 2.000000000000000
6.716178346208267 -1.857292254637249 -2.973077513753663 50.000000000000000
6.703224865873946 -1.793595540299883 -3.090146830709765 80.000000000000000
9.080851256741335 -4.227467467455639 -0.554692044781194 19.000000000000000
9.235357330427203 -4.220605617720216 -0.725991183825998 23.000000000000000
9.398452778373180 -4.215307719581673 -0.903253121735323 0.000000000000000
9.562542444139609 -4.208741961815844 -1.085490259228058 0.000000000000000
9.585944903669882 -4.138000759611231 -1.254139552546798 1.000000000000000
9.569789960018495 -4.050665876048836 -1.417522515427085 1.000000000000000
9.565247032984017 -3.968945720749321 -1.581168891591321 2.000000000000000
9.594254828050103 -3.901124973197121 -1.750860999033047 0.000000000000000
9.766437585182466 -3.890465935304138 -1.949316726695114 19.000000000000000
9.877039078858159 -3.853129805892228 -2.140874992533125 0.000000000000000
9.150843687752884 -3.035685545452727 -3.089020730173655 1.000000000000000
6.809405212707643 -1.905285476166860 -3.027994700037896 15.000000000000000
6.676148350000582 -1.808066593207725 -3.091231858549391 64.000000000000000
9.013968807867780 -4.227481068247230 -0.563519430364176 19.000000000000000
9.168128117683885 -4.221487404377303 -0.734078274040250 24.000000000000000
9.334511492259351 -4.218731271025326 -0.910965237399961 1.000000000000000
9.480096821039046 -4.204981074460709 -1.090450561535292 0.000000000000000
9.547059887272210 -4.153890504894124 -1.263718790787073 3.000000000000000
9.549114513073338 -4.074517815964732 -1.429376291813358 3.000000000000000
9.548208742761942 -3.994397501335773 -1.593512599877047 3.000000000000000
9.555271849396505 -3.917741228960930 -1.759164445704377 2.000000000000000
9.687064530140470 -3.891683789639064 -1.949353244118395 18.000000000000000
9.368804841715198 -3.220112783764901 -3.017135313121981 9.000000000000000
6.663134576620213 -1.826270512557911 -3.098799385053769 53.000000000000000
8.954371492963164 -4.230569022871832 -0.572640296107369 21.000000000000000
9.104580310153798 -4.223708936395128 -0.742291180451242 25.000000000000000
9.263370291659498 -4.218532506857313 -0.917798631611761 1.000000000000000
9.419540011331609 -4.210535506129533 -1.097739826436744 0.000000000000000
9.544512974519071 -4.185546354965584 -1.278074250453166 4.000000000000000
9.553842816484977 -4.109251360082531 -1.445040033202629 3.000000000000000
9.549296917440966 -4.027473528968550 -1.608890722208946 3.000000000000000
9.549056469704267 -3.947733532123109 -1.773464546516182 2.000000000000000
9.593207494370512 -3.886589813231198 -1.946230611628766 23.000000000000000
9.776357714506577 -3.880067995840533 -2.151650107629433 18.000000000000000
9.319322966069411 -3.234246193694819 -3.018232431848449 28.000000000000000
8.891213782603588 -4.231644422044112 -0.581376777505725 21.000000000000000
9.041086695942472 -4.225612132065018 -0.750344897894912 25.000000000000000
9.192302538603682 -4.217973173904523 -0.924452455782395 1.000000000000000
9.359024617006398 -4.215789201424660 -1.104878105231282 1.000000000000000
9.523687464891054 -4.209204449525776 -1.289976345972829 1.000000000000000
9.551157064271989 -4.140900534817867 -1.459618270080371 3.000000000000000
9.557523612649849 -4.063688768582629 -1.625521450407833 2.000000000000000
9.553640834647982 -3.982280787651524 -1.789805165611096 2.000000000000000
9.557696006685598 -3.904789003397076 -1.954772079485333 53.000000000000000
9.700566664738149 -3.882981167019132 -2.151206089510177 13.000000000000000
9.869563944900490 -3.869044079512757 -2.358348033753193 9.000000000000000
9.266243840842767 -3.246874225791442 -3.018031948792910 20.000000000000000
8.828112991472652 -4.232403324407077 -0.589955175703797 22.000000000000000
8.981257265083578 -4.228896341120791 -0.758544444603339 25.000000000000000
9.128540589782121 -4.220396554193127 -0.931664975221795 1.000000000000000
9.284068428702849 -4.214168063652382 -1.110133749804635 1.000000000000000
9.437527957899325 -4.203716717397681 -1.292894351345008 1.000000000000000
9.555604810137629 -4.175747125659042 -1.475322559654283 3.000000000000000
9.554699288392390 -4.095321526775738 -1.640316768408215 2.000000000000000
9.554446344005450 -4.015368092227507 -1.805484462254405 4.000000000000000
9.554850262947189 -3.936298854818649 -1.969971517106625 54.000000000000000
9.606697388335531 -3.878176353538019 -2.146511928642804 23.000000000000000
9.840821925843642 -3.891262098400252 -2.368256553962992 32.000000000000000
9.256424960388573 -3.274536452464974 -3.031861470148912 14.000000000000000
8.768665909733819 -4.234582250106207 -0.598621191203105 22.000000000000000
8.917871667001126 -4.230173943279151 -0.766285417126440 26.000000000000000
9.068444939397958 -4.224182389427771 -0.939091860232999 1.000000000000000
9.216429914714647 -4.215472811526481 -1.116075536168569 1.000000000000000
9.373207190010408 -4.207535557668033 -1.298602134641822 1.000000000000000
9.541786926211140 -4.202679022132382 -1.488225551357913 2.000000000000000
9.555376056712493 -4.128546317605976 -1.655745668328239 2.000000000000000
9.526095138629254 -4.036205076626537 -1.815647539914676 3.000000000000000
9.555506769547904 -3.969340976571121 -1.985930157089511 52.000000000000000
9.552858923541306 -3.889123935808015 -2.150557462343738 52.000000000000000
9.750405275432630 -3.888784298888828 -2.363166020729656 16.000000000000000
9.253699577459138 -3.304753526299641 -3.048047286467630 14.000000000000000
8.712858481241989 -4.238211768757796 -0.607389569397133 23.000000000000000
8.854545051874801 -4.231134159503430 -0.773867978793967 25.000000000000000
9.008396652360176 -4.227669689427809 -0.946369246562548 1.000000000000000
9.156079436406554 -4.219764910659447 -1.122733028364419 1.000000000000000
9.312556882648671 -4.212668266328194 -1.304655657751974 1.000000000000000
9.466358604715985 -4.202266080068865 -1.491412270038781 0.000000000000000
9.552295784557778 -4.160239360978212 -1.670556106117742 2.000000000000000
9.504937170156836 -4.060018020135404 -1.827139586223976 4.000000000000000
9.494445304675436 -3.976635775158425 -1.989002832641704 18.000000000000000
9.556985825351429 -3.923597196641186 -2.167612274494977 54.000000000000000
9.670972890064711 -3.890205086103278 -2.360493962646292 16.000000000000000
9.258035930439252 -3.337586632372224 -3.066618688736185 15.000000000000000
8.649922286492094 -4.238053346926920 -0.615509761294566 24.000000000000000
8.798464376713543 -4.235236070249398 -0.781930969434792 23.000000000000000
8.948397233886265 -4.230858742968084 -0.953497373686573 1.000000000000000
9.088566355152716 -4.220409261761793 -1.128345368768500 1.000000000000000
9.233903848219359 -4.209272511714473 -1.308001775214627 1.000000000000000
9.391017685096632 -4.201469512723561 -1.494408502336878 1.000000000000000
9.484007095719317 -4.163386128133491 -1.673884511073344 2.000000000000000
8.912225085254937 -3.837668938520150 -1.727795458979513 13.000000000000000
9.415343225009943 -3.975989964342849 -1.988104564328622 6.000000000000000
9.557349250493914 -3.956638965439026 -2.183865243382246 54.000000000000000
9.577180836118675 -3.885354177215519 -2.354066725875690 34.000000000000000
9.251465682514821 -3.366569897466353 -3.081630388402212 13.000000000000000
8.590628727322587 -4.239346112473053 -0.623732801734457 25.000000000000000
8.735249928959538 -4.235582690711404 -0.789207164664839 14.000000000000000
8.877665597565263 -4.228613876097559 -0.959311328339960 1.000000000000000
9.017523990373759 -4.219029547057906 -1.133336121407085 1.000000000000000
9.166165524129189 -4.210441680820648 -1.312697389604200 1.000000000000000
9.326590008424835 -4.205170047662711 -1.498954197095567 1.000000000000000
9.506044324619273 -4.206126212631787 -1.693117710552182 1.000000000000000
8.891771540571641 -3.859711720822905 -1.738426962061545 24.000000000000000
9.415799590854284 -4.008768123040601 -2.003916215953607 4.000000000000000
9.557575660348080 -3.989725314611869 -2.200132589338012 53.000000000000000
9.566529285047997 -3.913972323788454 -2.367943007535656 52.000000000000000
8.531389321571430 -4.240344094886537 -0.631808674155261 25.000000000000000
8.682845296525842 -4.240861505340932 -0.797312516593402 2.000000000000000
8.817784488679786 -4.231177021176474 -0.966127179343543 1.000000000000000
8.960942373567180 -4.224067620771512 -1.139977417652585 1.000000000000000
9.105696445121529 -4.214601795567005 -1.318265509715143 1.000000000000000
9.017246157751080 -4.097237615567866 -1.463577689123157 1.000000000000000
8.799680889988991 -3.924286488597835 -1.581546012536789 19.000000000000000
8.896495557307098 -3.892724082245242 -1.753992593577006 24.000000000000000
9.556766940065401 -4.101959419368831 -2.049910870043930 38.000000000000000
9.546848851914662 -4.018303348137602 -2.213905869959665 42.000000000000000
9.566582318468450 -3.947033092925385 -2.384498376455441 51.000000000000000
8.472205555712611 -4.241047605110486 -0.639737628203115 26.000000000000000
8.609013790613728 -4.235327091922381 -0.803286983245072 1.000000000000000
8.754373406093539 -4.231710683988211 -0.972396500251974 1.000000000000000
8.897224255848466 -4.225418368245500 -1.145554954786214 1.000000000000000
9.030903796659031 -4.211758137911812 -1.321580116081918 1.000000000000000
8.888558211702877 -4.069956774981755 -1.456859899561194 24.000000000000000
8.779218706166471 -3.945889540127273 -1.592108867637792 93.000000000000000
8.890275634623187 -3.921038767854844 -1.767436030357144 22.000000000000000
9.553138200659662 -4.133666226447372 -2.065162959048358 46.000000000000000
9.554016433991414 -4.054502307738387 -2.231868503197723 40.000000000000000
9.566497560095600 -3.980137531071516 -2.401067609718821 46.000000000000000
9.848843925730513 -4.016339657295873 -2.644028949129273 26.000000000000000
9.443296352185698 -3.613775710546401 -3.032146948724797 7.000000000000000
8.413078914300476 -4.241456959568424 -0.647519916204371 27.000000000000000
8.438857868947684 -4.181636667561507 -0.799935402520012 4.000000000000000
8.540751005339780 -4.158752674070206 -0.961588509031514 9.000000000000000
8.833570866031247 -4.226450627423735 -1.150973869709246 0.000000000000000
8.949030939481178 -4.205161756841272 -1.323644908201692 35.000000000000000
8.878657196847376 -4.096679421722485 -1.469424409932617 23.000000000000000
8.769474278085767 -3.972300772022655 -1.604601963908905 65.000000000000000
8.801254977974990 -3.912598064029838 -1.764299068191209 45.000000000000000
9.326467888088789 -4.068161513433695 -2.031854973433253 29.000000000000000
9.561024310871563 -4.090785351937583 -2.249864291750920 54.000000000000000
9.566274726946640 -4.013285197596946 -2.417650465086136 42.000000000000000
9.733311393630744 -4.002960397356444 -2.630220783853300 6.000000000000000
9.332360541662814 -3.603410826109414 -3.013831637416462 22.000000000000000
8.357568806215278 -4.243378942031519 -0.655434820329848 28.000000000000000
8.354676398260979 -4.169741017315165 -0.804379343879761 11.000000000000000
8.484847621580958 -4.161734580980262 -0.968156039089277 21.000000000000000
8.762827561300099 -4.223715416676256 -1.155290963286140 0.000000000000000
8.885191885779294 -4.206626025006154 -1.328180198099151 39.000000000000000
8.951140618969598 -4.161735880023436 -1.495758030016260 22.000000000000000
8.863700522951360 -4.046202957125445 -1.636292965572204 19.000000000000000
8.769814913974219 -3.929429864581492 -1.772543741059841 83.000000000000000
9.552680015037449 -4.200304997485078 -2.097254981733505 33.000000000000000
9.560694290316613 -4.124055814511722 -2.266191590730886 54.000000000000000
9.569500307063944 -4.047992889353413 -2.435159428219693 52.000000000000000
9.589323569202794 -3.977081216012112 -2.608316408408960 21.000000000000000
9.292976570318704 -3.620252920135643 -3.018402765993470 23.000000000000000
8.178630348434814 -4.252619444540772 -0.505032160931112 26.000000000000000
8.305660324642904 -4.246843823356397 -0.663496881433769 29.000000000000000
8.295554089348743 -4.169938384006329 -0.811046376158626 18.000000000000000
8.421858604888813 -4.160916152428863 -0.973760962308953 22.000000000000000
8.710037310631630 -4.229295855576612 -1.161813501990503 1.000000000000000
8.817842655269716 -4.206065048340352 -1.332016409822194 26.000000000000000
8.955239019920620 -4.195369748583138 -1.510821885188505 33.000000000000000
8.885848379158865 -4.087712024667802 -1.654904524734291 8.000000000000000
8.763433535215714 -3.957454549773758 -1.785829264048375 55.000000000000000
8.889142337433061 -3.939792367922174 -1.966617553699060 46.000000000000000
9.348811515099667 -4.065432829392674 -2.232056263815076 42.000000000000000
9.565413713367956 -4.079708447109064 -2.450856070580064 52.000000000000000
9.570866460618427 -4.002803083423516 -2.620321100236468 51.000000000000000
9.260701706490051 -3.639714354577913 -3.025207979708460 12.000000000000000
8.123531100684353 -4.253309950554645 -0.513276651258236 23.000000000000000
8.246697452937113 -4.246402563759500 -0.670854966603991 29.000000000000000
8.236493692877229 -4.169841689026799 -0.817567083270705 21.000000000000000
8.366064689931726 -4.163327031144781 -0.980043690667314 22.000000000000000
8.646582192253948 -4.229384872718205 -1.166763039789697 1.000000000000000
8.754144847483410 -4.206881742966746 -1.336229766908649 33.000000000000000
8.898417459232975 -4.200379172163717 -1.515558488238245 43.000000000000000
9.029430443910670 -4.185772335813565 -1.696440924794324 25.000000000000000
8.799887514061322 -4.005028471426616 -1.807933262852880 11.000000000000000
8.775081280073127 -3.920180498909711 -1.956271296134086 53.000000000000000
9.420088212988228 -4.129556397084174 -2.265331327382688 37.000000000000000
9.564774975968096 -4.112983142695459 -2.467478333642959 53.000000000000000
9.566615245050354 -4.034491276408001 -2.636227777290481 51.000000000000000
9.260396843601436 -3.671726266910636 -3.042455015262351 11.000000000000000
8.068484576287187 -4.253728899423404 -0.521385742445961 21.000000000000000
8.194880390266524 -4.249341148521539 -0.678653956524818 29.000000000000000
8.184595211501836 -4.173070587474750 -0.824656956445743 22.000000000000000
8.306766146030089 -4.163680494713406 -0.985767179972812 22.000000000000000
8.511968320270570 -4.194060113895079 -1.161832636718643 1.000000000000000
8.697649473091577 -4.210833179360469 -1.341384948039464 40.000000000000000
8.823795155685691 -4.196621276854093 -1.517086981406566 45.000000000000000
8.979553524841924 -4.194586456991950 -1.701822243748945 40.000000000000000
8.839671261892899 -4.054488269517952 -1.830888542212802 8.000000000000000
8.761295178341953 -3.945013783644333 -1.968104937450809 32.000000000000000
8.973052047652274 -3.965242333405402 -2.173360114544531 53.000000000000000
9.556857074461769 -4.143203883665693 -2.482258736853904 51.000000000000000
9.562235935766981 -4.066200578444457 -2.652137395495285 51.000000000000000
9.259955449303471 -3.703780627545364 -3.059715369104553 11.000000000000000
8.013492139822789 -4.253876592352112 -0.529359671713981 23.000000000000000
8.132497870555135 -4.246488049569407 -0.685432440347259 26.000000000000000
8.136282946310576 -4.177865617961758 -0.831982389133752 22.000000000000000
8.251081910676779 -4.165531636857008 -0.991770883644908 21.000000000000000
8.384763459391596 -4.161547371233739 -1.157535834015083 20.000000000000000
8.630522150069247 -4.209297492013059 -1.344737164243134 37.000000000000000
8.770660512317502 -4.202730353139895 -1.522139204038543 58.000000000000000
8.911870124039206 -4.194768321543445 -1.703674153361783 43.000000000000000
8.854227474988416 -4.092671850025766 -1.848750104575245 14.000000000000000
9.029252577087700 -4.097712173614014 -2.043704685459873 72.000000000000000
8.773375926850616 -3.908055939196081 -2.140227469749971 43.000000000000000
9.277933789727580 -4.055030090900051 -2.426194459503678 34.000000000000000
8.945236084927245 -3.835321026446074 -2.497071887034112 68.000000000000000
9.262922183752886 -3.737307271838352 -3.078166820301142 11.000000000000000
7.965598123190002 -4.257517719052974 -0.537674075794871 24.000000000000000
8.080783173709261 -4.248891554175882 -0.692964544800208 26.000000000000000
8.080927135084334 -4.178768158490549 -0.838456507544173 23.000000000000000
8.195451819893364 -4.167108378766991 -0.997637823769959 22.000000000000000
8.325291326465598 -4.162080862501083 -1.162328363019224 23.000000000000000
8.591917860066767 -4.221396643607585 -1.352398559302802 19.000000000000000
8.710447857116117 -4.205145609943323 -1.525815364857642 45.000000000000000
8.847829596908186 -4.196298946184294 -1.706044131412810 35.000000000000000
9.000388461216104 -4.192363698852856 -1.894401795752104 0.000000000000000
8.989912105451234 -4.111865954908377 -2.050184066157660 55.000000000000000
8.762922011899812 -3.934514321641867 -2.152935406870526 41.000000000000000
9.038904817773835 -3.982567016603396 -2.379697386956517 70.000000000000000
8.806479266220084 -3.806929507963093 -2.474201821807521 15.000000000000000
9.265740445877974 -3.770895681290906 -3.096640720271349 11.000000000000000
7.910706719076998 -4.257143567940734 -0.545387794776220 24.000000000000000
8.029113258968419 -4.251042842070180 -0.700370637263863 27.000000000000000
8.029160077404068 -4.181237359020736 -0.845166610172208 22.000000000000000
8.143416327980132 -4.170223382060718 -1.003804489380592 22.000000000000000
8.269429588738259 -4.164103909530528 -1.167474585390519 23.000000000000000
8.539112531287111 -4.226292782774197 -1.357712227346485 1.000000000000000
8.653850165866578 -4.208990542991017 -1.529971214024366 41.000000000000000
8.762533052260387 -4.187317969530523 -1.704107605197216 18.000000000000000
8.950369401142185 -4.201123996059315 -1.898965179468086 0.000000000000000
9.544422508753993 -4.399584942868621 -2.193022413217399 39.000000000000000
8.926564579525140 -4.039788619867624 -2.208730113516637 70.000000000000000
8.786295516978452 -3.902480373544546 -2.328802701480730 32.000000000000000
8.881009697436948 -3.870613635826109 -2.511191119008644 55.000000000000000
7.859383637455911 -4.258400985695824 -0.553214139655778 24.000000000000000
7.977489388651365 -4.252942182950214 -0.707650932619688 27.000000000000000
7.977439362216545 -4.183453862639060 -0.851750551117169 23.000000000000000
8.091426326972142 -4.173084518237913 -1.009844343859567 23.000000000000000
8.217162577404160 -4.167646812958988 -1.172989010579975 22.000000000000000
8.475719150656202 -4.225632498407354 -1.361190239313873 1.000000000000000
8.590211484842291 -4.209082014352449 -1.532722819735621 38.000000000000000
8.723517169849504 -4.200111297479698 -1.711004756312587 42.000000000000000
8.893276751230239 -4.206286394882796 -1.901889426399861 0.000000000000000
9.550257212151774 -4.436501475090282 -2.210801176782918 16.000000000000000
8.990166207649548 -4.100703388236753 -2.240215900430080 63.000000000000000
8.768480279220560 -3.925819864202015 -2.339708526025625 44.000000000000000
9.100460303558497 -3.998604686355608 -2.589742617638088 75.000000000000000
9.641068433137981 -4.073470235715167 -3.086808012541915 7.000000000000000
7.811613185383292 -4.261319819690102 -0.561167387026549 25.000000000000000
7.925912823395104 -4.254589851150139 -0.714805648012985 26.000000000000000
7.925766254021460 -4.185417944965433 -0.858208548416962 23.000000000000000
8.039483086700550 -4.175692060901138 -1.015757604541061 19.000000000000000
8.157875182261474 -4.167325332872608 -1.177356394912160 22.000000000000000
8.285050209142360 -4.160699721997761 -1.343854477001845 7.000000000000000
8.537272695146608 -4.214099590966045 -1.537229835165830 32.000000000000000
8.659693665821488 -4.200695086196319 -1.712904669541560 40.000000000000000
8.822057615500691 -4.204412461865000 -1.901618068724765 0.000000000000000
9.509850310761763 -4.451926461592677 -2.217864253617714 17.000000000000000
9.567219922264805 -4.398223131126127 -2.400819911581570 41.000000000000000
8.853288314430360 -3.995448465865953 -2.378166852468563 30.000000000000000
8.795434946887113 -3.895947084528578 -2.518939540685762 24.000000000000000
9.371198589941727 -3.992678239994531 -3.018034701548069 16.000000000000000
7.756883004410996 -4.260165061479978 -0.568492484405125 24.000000000000000
7.870877301056089 -4.254090363440362 -0.721513472780557 26.000000000000000
7.881172499552589 -4.190868395091528 -0.865312733824582 22.000000000000000
7.987587875292922 -4.178046288315738 -1.021544491035302 5.000000000000000
8.105712559481447 -4.170339116623010 -1.182607101039376 23.000000000000000
8.229086592516060 -4.162621055824077 -1.348005859958514 21.000000000000000
8.494983102415466 -4.224133628948813 -1.543535284487995 1.000000000000000
8.603022457168212 -4.204418282331059 -1.716058130909245 38.000000000000000
8.765092046163774 -4.208975979006916 -1.904244372558119 0.000000000000000
9.441122053606994 -4.453814657352604 -2.218182446699718 14.000000000000000
9.551460208249502 -4.425342919623584 -2.413700050537316 21.000000000000000
8.955360416425627 -4.073642767552611 -2.421647871653372 63.000000000000000
8.773849517627744 -3.917777954081837 -2.528769768985252 49.000000000000000
8.819925690281950 -3.863131563542272 -2.699097134352135 0.000000000000000
9.313422719588388 -4.001196420458821 -3.017011841402408 20.000000000000000
7.705707956937823 -4.260672285474796 -0.575944926335933 25.000000000000000
7.819404893364148 -4.255225680640771 -0.728413015018338 27.000000000000000
7.826077359776106 -4.190469105567723 -0.871138240511986 22.000000000000000
7.928709843992271 -4.176443320813231 -1.026294985769012 3.000000000000000
8.046555384222852 -4.169449331899584 -1.186692343177597 24.000000000000000
8.169656005791024 -4.162470719364220 -1.351437108221518 21.000000000000000
8.420939635873067 -4.218060162389754 -1.543917133606097 1.000000000000000
8.560533166243122 -4.214818844554918 -1.721914637035246 9.000000000000000
8.694049675926287 -4.206423698306350 -1.903637545031278 0.000000000000000
9.372476414458808 -4.455360550419397 -2.218330955060571 12.000000000000000
9.521479605915253 -4.445824564526013 -2.422958120892105 28.000000000000000
9.544042696762094 -4.375780573463087 -2.598008732719200 40.000000000000000
8.752200932121649 -3.939530017360035 -2.538555905645599 17.000000000000000
8.741841398059728 -3.860220674649055 -2.691484592967447 13.000000000000000
9.269761676508232 -4.015525981049748 -3.020431352680233 15.000000000000000
7.658072037585543 -4.262871216701003 -0.583538907848061 26.000000000000000
7.767983596504560 -4.256110191298669 -0.735187652208387 27.000000000000000
7.774548817869128 -4.191687488444353 -0.877224417004459 22.000000000000000
7.876926169635628 -4.178271983663265 -1.031820405227594 3.000000000000000
7.994502512109742 -4.171935241651816 -1.191680294095116 23.000000000000000
8.113817621409952 -4.163832081550555 -1.355310297735448 21.000000000000000
8.241309916162967 -4.158276491707536 -1.524560095327956 8.000000000000000
8.507476727778108 -4.219775489796726 -1.725525584285742 1.000000000000000
8.633690492389155 -4.208670597298665 -1.905188779376683 0.000000000000000
9.303915112609022 -4.456564578758705 -2.218310107428318 11.000000000000000
9.442091154983732 -4.442957061381013 -2.419502257015383 20.000000000000000
9.559777742184250 -4.417523514373348 -2.619549487983974 50.000000000000000
8.621358424058167 -3.911688083041771 -2.516444170831182 2.000000000000000
8.491589726549766 -3.780210097967863 -2.630307117272864 8.000000000000000
9.268231523373220 -4.048054211526365 -3.037555189571799 17.000000000000000
7.606996109662880 -4.262889534265219 -0.590747836412339 26.000000000000000
7.720104765743321 -4.258669445764687 -0.742173131861790 28.000000000000000
7.723072889464309 -4.192654583372886 -0.883185534609657 22.000000000000000
7.832203069555786 -4.183591931535016 -1.038149135546545 1.000000000000000
7.938990908971971 -4.172323069818129 -1.196013189025860 23.000000000000000
8.058041018711107 -4.164918944195434 -1.359047140113709 21.000000000000000
8.188784362395177 -4.161879295747270 -1.528370175651958 20.000000000000000
8.436867899756733 -4.215681206032225 -1.725408940269251 1.000000000000000
8.569879312011899 -4.208890167857952 -1.905809049317137 1.000000000000000
9.235439864774715 -4.457427186675082 -2.218120235609390 10.000000000000000
9.359303120376550 -4.438018159152915 -2.414940148313979 18.000000000000000
9.575311865273493 -4.459403914183897 -2.641148124000992 52.000000000000000
8.525966222581477 -3.899219453610236 -2.504316997503961 6.000000000000000
8.312253191666992 -3.730326259400818 -2.590346864040918 24.000000000000000
8.541078793797482 -3.761147195483212 -2.815537037947054 46.000000000000000
7.555974487024376 -4.262658938890195 -0.597833021951967 25.000000000000000
7.672267802069978 -4.260998085591527 -0.749043448610045 27.000000000000000
7.671650830377890 -4.193370689038559 -0.889021822608715 22.000000000000000
7.777014188174833 -4.183054057924956 -1.042963597353668 20.000000000000000
7.887047209459102 -4.174292279421969 -1.200744053377549 24.000000000000000
7.998819317762951 -4.163905372529601 -1.362050502147907 22.000000000000000
8.129285858661374 -4.161631353917495 -1.530730512617756 21.000000000000000
8.246897025996651 -4.151095277533563 -1.700482707776280 10.000000000000000
8.506150462549213 -4.208792065092165 -1.906272189717668 1.000000000000000
8.558961870263733 -4.162233661194465 -2.070647882425027 17.000000000000000
9.283677106805335 -4.436015613160950 -2.411996860771341 17.000000000000000
9.583620747988627 -4.498124541270944 -2.660854180510075 51.000000000000000
8.504441260967566 -3.920214834562103 -2.513724425952776 35.000000000000000
8.245531337622255 -3.730194804764968 -2.585073244376991 26.000000000000000
8.320084751647542 -3.693825762404115 -2.758620119262837 31.000000000000000
7.511947857492705 -4.266120723236892 -0.605353913904478 26.000000000000000
7.617517216897570 -4.259206679429806 -0.755109205459467 28.000000000000000
7.620283894618630 -4.193836108740549 -0.894733512527526 22.000000000000000
7.725384025652129 -4.184136199094381 -1.048117323407518 23.000000000000000
7.838654903387367 -4.177872835499941 -1.205887173823849 23.000000000000000
7.946678652955248 -4.166270533984152 -1.366112815370975 17.000000000000000
8.066357163747515 -4.159281060260488 -1.532279076610250 21.000000000000000
8.194247340707596 -4.154843908298107 -1.703501868793980 21.000000000000000
8.316183760197926 -4.145408486306033 -1.878051156992854 12.000000000000000
8.449595279229019 -4.140060516712158 -2.059044082867507 19.000000000000000
9.211671309653337 -4.435320859400269 -2.409783508342278 21.000000000000000
9.577728180398353 -4.530308397923839 -2.676679420869069 51.000000000000000
8.517880537694403 -3.957403856267674 -2.533505449760198 5.000000000000000
8.199897402361286 -3.739298058354008 -2.586253781348339 8.000000000000000
8.270861120484302 -3.701891163990726 -2.758195449134916 32.000000000000000
7.464490534210395 -4.267392914247064 -0.612485738705277 27.000000000000000
7.573251691129974 -4.263009933465113 -0.762089974986386 27.000000000000000
7.572453322107958 -4.195979449765077 -0.900734778747513 22.000000000000000
7.677296008446664 -4.186868201410052 -1.053624535928370 23.000000000000000
7.783321739214126 -4.177472173729515 -1.209828476104105 24.000000000000000
7.887599355799820 -4.164689904831658 -1.368835417053313 12.000000000000000
8.014016088965775 -4.162069098369066 -1.535684520400919 22.000000000000000
8.134645858494229 -4.154759772988523 -1.704925800625654 21.000000000000000
8.256344496652289 -4.146077849922731 -1.878828894545622 20.000000000000000
8.386008879201842 -4.139791557729121 -2.058338392126652 20.000000000000000
8.558464454341417 -4.152239278693319 -2.254278411432546 23.000000000000000
9.582204135866357 -4.567512779344321 -2.695458200216056 51.000000000000000
8.513657392734984 -3.986527380377714 -2.548104637692044 2.000000000000000
8.227627242940398 -3.781893961883762 -2.610594570647101 36.000000000000000
8.211216119231509 -3.704999686465660 -2.754143635789901 32.000000000000000
7.417079265669855 -4.268436521772528 -0.619503693587655 27.000000000000000
7.518620388705179 -4.260709791509173 -0.767903329257430 27.000000000000000
7.524668385542742 -4.197892296653826 -0.906621174089841 22.000000000000000
7.625772359363256 -4.187457403898042 -1.058533142471601 22.000000000000000
7.731542491411872 -4.178683471600250 -1.214182501796001 24.000000000000000
7.835579877327253 -4.166528265489615 -1.372636222347472 23.000000000000000
7.958235673566946 -4.162775347900504 -1.538288128693156 22.000000000000000
8.078617390486608 -4.156179065002631 -1.706942482265055 23.000000000000000
8.200078277690357 -4.148220214159593 -1.880262028172798 21.000000000000000
8.326006451672283 -4.140945015147576 -2.058340824119254 21.000000000000000
8.463203797153373 -4.137212369852561 -2.244440084873657 21.000000000000000
