# This PCD file was generated using the MATLAB® pcwrite function
# from Computer Vision Toolbox®.
# .PCD v.7 - Point Cloud Data file format
VERSION .7
FIELDS x y z intensity
SIZE 8 8 8 8
TYPE F F F F
COUNT 1 1 1 1
WIDTH 632
HEIGHT 1
VIEWPOINT 0 0 0 1 0 0 0
POINTS 632
DATA ascii
-2.411698124354020 -5.481315288816056 -2.905379641557820 6.000000000000000
-2.459645652758895 -5.522638460680203 -3.060193408181918 8.000000000000000
-2.384322479493159 -5.289370826154252 -3.061235465822889 2.000000000000000
-2.270771401704830 -4.914782246325236 -3.094544992790660 3.000000000000000
-2.005776258894712 -4.124498451299321 -3.050153787021867 71.000000000000000
-2.014602918312455 -5.539821809456233 -0.957357509502071 32.000000000000000
-2.033957727219626 -5.526717288209220 -1.061446173902804 40.000000000000000
-2.059561624029303 -5.530340680589111 -1.168671841642018 4.000000000000000
-2.089907920501959 -5.546527639405211 -1.280785707734606 21.000000000000000
-2.108951066049072 -5.531432774409229 -1.386353801596802 20.000000000000000
-2.131019576898274 -5.525692942038300 -1.494368452954089 4.000000000000000
-2.162486170066831 -5.543042972790369 -1.610349082053018 16.000000000000000
-2.183884938052734 -5.533054939723630 -1.719538778668964 17.000000000000000
-2.207049685485689 -5.528309435432637 -1.831586872606374 4.000000000000000
-2.236974380254571 -5.538997437166711 -1.950412523838298 15.000000000000000
-2.257758838890225 -5.526487661736873 -2.062114242733214 15.000000000000000
-2.286673075122252 -5.532642117332731 -2.182517227658679 4.000000000000000
-2.315104622220086 -5.536542785246668 -2.303512225994957 11.000000000000000
-2.335976100973070 -5.520737911752915 -2.418256513568552 9.000000000000000
-2.367698860568297 -5.530008876406425 -2.545589898732657 6.000000000000000
-2.368856019134801 -5.465896915252091 -2.640217429009683 41.000000000000000
-2.367082811155560 -5.397201907690751 -2.732242034072240 4.000000000000000
-2.453059992752396 -5.524400427332313 -2.927140685113746 10.000000000000000
-2.477964556234930 -5.513004881271502 -3.053924170165335 8.000000000000000
-2.416644875553783 -5.312198346809171 -3.073693587464037 2.000000000000000
-2.290373829847982 -4.912089707042909 -3.092436325861955 3.000000000000000
-2.024576855827223 -4.125376293634252 -3.051002292816129 71.000000000000000
-2.030075358040354 -5.530625990063825 -0.952887295910626 30.000000000000000
-2.055015354160461 -5.532263783931669 -1.059710016543586 6.000000000000000
-2.084954017386061 -5.546802096955855 -1.169424321019468 12.000000000000000
-2.105830744667249 -5.537227928602955 -1.276003033504861 16.000000000000000
-2.124973273997449 -5.522117316795652 -1.381479252230072 10.000000000000000
-2.158428061968725 -5.545273830983523 -1.497204875999030 10.000000000000000
-2.178844173695551 -5.533657799130993 -1.605263040398580 13.000000000000000
-2.201785523353606 -5.527221741086200 -1.715466214769187 7.000000000000000
-2.232242195683607 -5.540164657324553 -1.833350580096874 10.000000000000000
-2.253785113760757 -5.529532876842605 -1.945024119363860 13.000000000000000
-2.280453894877636 -5.530994549844211 -2.061847065844376 4.000000000000000
-2.311020840631282 -5.540477128928392 -2.183767354364766 13.000000000000000
-2.330942736854829 -5.523558625190781 -2.296389790863962 10.000000000000000
-2.362124249232924 -5.531660308979182 -2.421437436162687 4.000000000000000
-2.363383023827990 -5.469679859061243 -2.516355881440747 34.000000000000000
-2.390813119047865 -5.466405786782658 -2.639127962797126 44.000000000000000
-2.375762867450997 -5.367791219706542 -2.716172347124234 2.000000000000000
-2.472657705960949 -5.518019122725662 -2.922684524608470 7.000000000000000
-2.499186481683858 -5.509828003828899 -3.051235536301895 4.000000000000000
-2.403361151939633 -5.235155544638927 -3.028376726364094 2.000000000000000
-2.366489997293131 -5.094331161947299 -3.075505016273627 1.000000000000000
-2.312936860855893 -4.915628263116162 -3.094256915084407 3.000000000000000
-2.043404036775757 -4.126194265210760 -3.051818609981658 71.000000000000000
-2.045504392671881 -5.521389928928997 -0.948399194580788 15.000000000000000
-2.080266545748915 -5.548800683773723 -1.060048145317058 7.000000000000000
-2.102108764144449 -5.541152354415977 -1.165491024786278 22.000000000000000
-2.120307887146443 -5.524235532568016 -1.270362249288582 17.000000000000000
-2.153644361976380 -5.545444422757549 -1.384747672406256 5.000000000000000
-2.173208666022096 -5.532251901287827 -1.491219968557182 14.000000000000000
-2.195157102041328 -5.524229888920708 -1.600157939614904 11.000000000000000
-2.229701154054467 -5.546305151954763 -1.719107886378345 7.000000000000000
-2.250324757764881 -5.534215539018580 -1.829207711627009 14.000000000000000
-2.271997167579449 -5.523542468533038 -1.940852253218393 6.000000000000000
-2.306102150104588 -5.542411265050502 -2.064140073329396 11.000000000000000
-2.328145016503171 -5.530901601674629 -2.178146977300768 12.000000000000000
-2.355494737441922 -5.531162558776809 -2.297820987428957 4.000000000000000
-2.382490171868587 -5.528856313538983 -2.418601340690467 5.000000000000000
-2.383715566124978 -5.466858729844536 -2.513591002477544 44.000000000000000
-2.429046049145499 -5.503670497301763 -2.655771516576832 6.000000000000000
-2.416836043589660 -5.411327336063454 -2.737010047547922 1.000000000000000
-2.489262428865572 -5.505017017543234 -2.914725406757498 5.000000000000000
-2.524868138746761 -5.516333731063723 -3.053910124654958 7.000000000000000
-2.365720604003647 -5.106805094711357 -2.953412221215108 28.000000000000000
-2.379139214117364 -5.075505882230228 -3.063573181645144 1.000000000000000
-2.335547073984273 -4.919092632026998 -3.096036747640636 3.000000000000000
-2.062257559956908 -4.126952221394141 -3.052602679473787 68.000000000000000
-2.074721374403522 -5.549107828540396 -0.950228144092173 4.000000000000000
-2.095877339844451 -5.539462404479356 -1.055419559078912 28.000000000000000
-2.116435088172358 -5.528122310838310 -1.159995790494330 29.000000000000000
-2.147432893257739 -5.544035888990813 -1.272241341309321 3.000000000000000
-2.173945751898140 -5.546894711108100 -1.382524839445936 17.000000000000000
-2.190781365890504 -5.526409974638469 -1.487163003535042 18.000000000000000
-2.221489825599946 -5.539859082832677 -1.602293449126033 4.000000000000000
-2.247637918134851 -5.540343814652609 -1.714967697772467 17.000000000000000
-2.266932469358095 -5.524676029986896 -1.823871690404303 10.000000000000000
-2.301856184317260 -5.545615145428973 -1.946523764434736 6.000000000000000
-2.323055118436302 -5.532806217874774 -2.058593275067499 13.000000000000000
-2.345222716705295 -5.521281175349171 -2.172506522840452 6.000000000000000
-2.380116439578871 -5.538682653516274 -2.299205123011934 10.000000000000000
-2.342155150270788 -5.386394263345525 -2.354708069349244 1.000000000000000
-2.411472314836337 -5.480851008102479 -2.518549086629029 12.000000000000000
-2.463090579823772 -5.530749166886039 -2.667480918127205 10.000000000000000
-2.435846808423499 -5.405015575150012 -2.732625286840261 0.000000000000000
-2.380132299709636 -5.216556511994694 -2.760978883121830 1.000000000000000
-2.363293125895058 -5.117145103362882 -2.832055012217533 14.000000000000000
-2.379688229962655 -5.091043926473970 -2.943584832630056 49.000000000000000
-2.400680501929060 -5.075704517543170 -3.063131204870187 1.000000000000000
-2.353695165532408 -4.913070564214441 -3.091852632128342 3.000000000000000
-2.081137182873281 -4.127650018290324 -3.053354442669595 68.000000000000000
-2.091569932269381 -5.543449647025957 -0.946309267266489 33.000000000000000
-2.112848900382953 -5.533762915486017 -1.051472072545077 29.000000000000000
-2.137768453376125 -5.533369261822085 -1.158320617131696 4.000000000000000
-2.168998757759590 -5.549159666695270 -1.270722386030794 20.000000000000000
-2.187104623784557 -5.530160434726231 -1.375759764933103 21.000000000000000
-2.212656280385920 -5.531328700626096 -1.485986201315060 3.000000000000000
-2.242140681395521 -5.541064610576266 -1.600235028441294 17.000000000000000
-2.264095086406532 -5.530772629031913 -1.709702771145095 18.000000000000000
-2.293740736934512 -5.539840340834527 -1.826676334162544 5.000000000000000
-2.318644783617126 -5.535980162854256 -1.941049717006047 14.000000000000000
-2.339961665309023 -5.523156790636871 -2.053026661036344 9.000000000000000
-2.374109530038148 -5.539277821344685 -2.177721092642701 6.000000000000000
-2.398858670278878 -5.532399048789328 -2.294851159657811 9.000000000000000
-2.300866033129384 -5.244190622798172 -2.291005065325519 3.000000000000000
-2.457303262223110 -5.535195209740695 -2.542026488361463 10.000000000000000
-2.479333964067121 -5.517616033884886 -2.659789540027485 8.000000000000000
-2.456337778154441 -5.401957977202505 -2.729886212308038 1.000000000000000
-2.366973129318172 -5.141579397294741 -2.720294011021602 1.000000000000000
-2.374066736220839 -5.094795330621491 -2.818831614525278 40.000000000000000
-2.395074951760595 -5.078459906345220 -2.935601634263938 43.000000000000000
-2.423757753096620 -5.079005537243888 -3.064566055243377 1.000000000000000
-2.377878664135150 -4.919530942980595 -3.095530384232609 3.000000000000000
-2.101556752195572 -4.131263927682058 -3.056275769156673 65.000000000000000
-2.106991410985098 -5.534051920493364 -0.941739101513121 16.000000000000000
-2.129798822954498 -5.528015362292020 -1.047501373748529 7.000000000000000
-2.163426300815496 -5.549519447877042 -1.158897984541460 17.000000000000000
-2.183433128812039 -5.536012757880393 -1.265005342515036 14.000000000000000
-2.205951340167614 -5.527880281347354 -1.372582339935863 8.000000000000000
-2.237483297141718 -5.543373640387268 -1.486700096882839 12.000000000000000
-2.256971526194726 -5.527892611976256 -1.594014680109494 18.000000000000000
-2.286380226593792 -5.535379135264479 -1.708808733685421 4.000000000000000
-2.316238503047950 -5.544312492673216 -1.825934878517280 18.000000000000000
-2.336868861504179 -5.529807835204139 -1.936784249689951 13.000000000000000
-2.370212685574026 -5.544789637822871 -2.059073504621939 5.000000000000000
-2.392680157386837 -5.532990480232305 -2.173375717658128 10.000000000000000
-2.416078234705757 -5.522636413002562 -2.289051553276882 7.000000000000000
-2.359375299768849 -5.329846416889580 -2.326856542034756 8.000000000000000
-2.464316554638051 -5.501800364604829 -2.525199530051242 5.000000000000000
-2.498531219919587 -5.511116190627352 -2.655297361218172 3.000000000000000
-2.449543299685343 -5.339365610071006 -2.697074063676731 1.000000000000000
-2.371533504577168 -5.105966562229064 -2.700457424598034 26.000000000000000
-2.390788266079939 -5.085381095135803 -2.812772046222348 36.000000000000000
-2.492668199371324 -5.238756846185181 -3.027534963363892 2.000000000000000
-2.448405433354164 -5.085397055592593 -3.067869557346270 1.000000000000000
-2.399079313406095 -4.919649606450063 -3.095223771836647 3.000000000000000
-2.120499293430044 -4.131837107045489 -3.056960069645111 68.000000000000000
-2.123785636866534 -5.528302199295000 -0.937776818816438 18.000000000000000
-2.159573045630850 -5.555264999904387 -1.049751895174278 7.000000000000000
-2.179135812908721 -5.539994309550578 -1.154091053186815 16.000000000000000
-2.197799847081064 -5.522832373789358 -1.259275348442370 14.000000000000000
-2.232078549588562 -5.543624007778307 -1.373856691525936 6.000000000000000
-2.253615967626875 -5.533755635926402 -1.481586862897333 17.000000000000000
-2.276150554067884 -5.525408026547862 -1.590867937755026 6.000000000000000
-2.313151153651268 -5.550565087269954 -1.711158365652254 15.000000000000000
-2.332834832701103 -5.534599943917921 -1.820511220542230 15.000000000000000
-2.359549678250501 -5.534091660848950 -1.936170138492502 4.000000000000000
-2.387130028100338 -5.535016355369463 -2.053443004988021 14.000000000000000
-2.411226928957014 -5.526650542107832 -2.169004952159337 10.000000000000000
-2.445333757389773 -5.540204618433918 -2.294570025266933 5.000000000000000
-2.450310101577144 -5.486490535838171 -2.393621943053495 13.000000000000000
-2.378414694707351 -5.263265303189509 -2.414287035180692 2.000000000000000
-2.525323982728942 -5.521222272084729 -2.658801873869051 9.000000000000000
-2.369014183001026 -5.118449724880663 -2.584349089153598 18.000000000000000
-2.388108384944707 -5.096509409657640 -2.694462873937568 47.000000000000000
-2.435064666344541 -5.134118411129201 -2.838871644020652 12.000000000000000
-2.542315178494452 -5.296247287434275 -3.060028464498625 1.000000000000000
-2.470049617059122 -5.085379342881451 -3.067310846370271 1.000000000000000
-2.421840518313253 -4.922826698015910 -3.096847720692441 3.000000000000000
-2.139467187966994 -4.132349667483606 -3.057611874856049 66.000000000000000
-2.151981989832803 -5.551977915256821 -0.938775129589495 4.000000000000000
-2.173703186052089 -5.542050914373315 -1.044328550524638 19.000000000000000
-2.194800490517309 -5.530428405132150 -1.149266053850217 22.000000000000000
-2.223764480089290 -5.538674105250364 -1.260143123983261 4.000000000000000
-2.250982708271090 -5.541209989866317 -1.370607418362488 19.000000000000000
-2.269702981869426 -5.524095672617436 -1.476455002315463 13.000000000000000
-2.305715609423776 -5.547855718929875 -1.594875684934924 7.000000000000000
-2.329596649666533 -5.540821963855992 -1.705806382539795 15.000000000000000
-2.350883037759226 -5.528367615482495 -1.816225881012695 5.000000000000000
-2.386790791411668 -5.548795886709036 -1.939182798416218 14.000000000000000
-2.405511404166255 -5.528671660982679 -2.049079927546295 14.000000000000000
-2.435816452365449 -5.534041485447876 -2.170013605424553 4.000000000000000
-2.464073307403384 -5.533738002779971 -2.290122802893087 10.000000000000000
-2.478202417126486 -5.500361007305347 -2.398042028210378 13.000000000000000
-2.376644169502800 -5.213338540314957 -2.389963965342374 3.000000000000000
-2.386360362456715 -5.171803672205879 -2.489254305339903 12.000000000000000
-2.380833162579473 -5.099062556607586 -2.573429325970375 44.000000000000000
-2.401551782205595 -5.080482978892663 -2.685000137535763 37.000000000000000
-2.635755143207127 -5.508805073875393 -3.045133409737890 5.000000000000000
-2.578479153529797 -5.324776431889854 -3.075780422137223 1.000000000000000
-2.491715946084355 -5.085293095983273 -3.066715795761616 1.000000000000000
-2.443098186890551 -4.922806897537615 -3.096466938103518 2.000000000000000
-2.158460190369964 -4.132801468130328 -3.058231127892046 70.000000000000000
-2.167382683367046 -5.542421689263230 -0.934125324688927 31.000000000000000
-2.189215962430041 -5.532468204503785 -1.039581182975229 31.000000000000000
-2.216260156689848 -5.535407944168413 -1.147446647782071 3.000000000000000
-2.245433819310244 -5.543535774697616 -1.258484039527523 21.000000000000000
-2.265450493151651 -5.527913753337343 -1.364656586377241 22.000000000000000
-2.296154236921931 -5.539508258285590 -1.478005404811235 3.000000000000000
-2.326469436190938 -5.548793128286300 -1.592674097846816 16.000000000000000
-2.345995748633879 -5.531036021330276 -1.700435378995248 11.000000000000000
-2.379476369163755 -5.546720609052188 -1.819999641128261 8.000000000000000
-2.400498405337953 -5.531948993749181 -1.931158133485545 11.000000000000000
-2.426913801128044 -5.529212426876980 -2.047260447613688 5.000000000000000
-2.458945886416486 -5.537905942035755 -2.169626443616625 15.000000000000000
-2.479721290602507 -5.520390360555472 -2.282826447196296 10.000000000000000
-2.500055081667218 -5.500590143026718 -2.396504259764046 9.000000000000000
-2.369920257667526 -5.153399990614138 -2.361076557216071 2.000000000000000
-2.378046268808601 -5.109027717506326 -2.457770478534884 41.000000000000000
-2.398738343005780 -5.092824986176990 -2.569150058280991 46.000000000000000
-2.442873973231119 -5.123090890459537 -2.706519994199287 1.000000000000000
-2.669485664787567 -5.530958733847341 -3.056459024749310 5.000000000000000
-2.603963873470816 -5.330831400171393 -3.078549127203523 1.000000000000000
-2.514963330543960 -5.088292733942801 -3.067986391711040 1.000000000000000
-2.462817460786603 -4.919602000374462 -3.094089577364597 3.000000000000000
-2.179037852536879 -4.136153108393209 -3.061008902492878 73.000000000000000
-2.184189134866388 -5.536501911568553 -0.930075484210490 13.000000000000000
-2.207605952957605 -5.530165210000866 -1.036187582709920 5.000000000000000
-2.240707301955696 -5.547600394397870 -1.147094002703800 15.000000000000000
-2.262705693682446 -5.537452693797609 -1.254322369939500 24.000000000000000
-2.285810273691278 -5.529001344053136 -1.362245033078123 4.000000000000000
-2.318223339494169 -5.544071822619832 -1.476635423473690 17.000000000000000
-2.338206014495278 -5.528291874594501 -1.584312337599667 17.000000000000000
-2.372948600071436 -5.545982067428930 -1.702651417400441 5.000000000000000
-2.397557478076425 -5.540357826741850 -1.815645695332693 13.000000000000000
-2.418696707838588 -5.525546306049523 -1.926776649015980 7.000000000000000
-2.456008271630118 -5.547008556467025 -2.051812721513846 10.000000000000000
-2.474421163212706 -5.524504649679064 -2.162469024684395 11.000000000000000
-2.504568867278329 -5.527465400930261 -2.283969577419768 3.000000000000000
-2.528129386415587 -5.514273497197056 -2.400817694797359 10.000000000000000
-2.367466200814936 -5.103593657543835 -2.336856770680914 1.000000000000000
-2.388020517146918 -5.086178561364323 -2.445512145053324 50.000000000000000
-2.430679102171738 -5.116128693021997 -2.579767876903394 6.000000000000000
-2.478256820633647 -5.152506254163701 -2.721056124336055 1.000000000000000
-2.692421299757099 -5.530436510926842 -3.055251797024534 8.000000000000000
-2.626375747377546 -5.330427086644554 -3.077590211115362 1.000000000000000
-2.533543242456711 -5.081763963125840 -3.063517204403703 1.000000000000000
-2.484108012132510 -4.919451151953871 -3.093639886541223 3.000000000000000
-2.194949345744288 -4.130565490567026 -3.057183360178696 81.000000000000000
-2.202434657334854 -5.534206848251555 -0.926617580739702 17.000000000000000
-2.233356871319330 -5.546086070307364 -1.036180672505211 6.000000000000000
-2.254866679522171 -5.534234590759600 -1.141437581307261 22.000000000000000
-2.275478200829810 -5.520460752135009 -1.247682668664312 9.000000000000000
-2.313699347168120 -5.548024960120294 -1.364225191380079 12.000000000000000
-2.334297649048651 -5.534242487443600 -1.471417879400689 17.000000000000000
-2.363489517032736 -5.539794634524171 -1.585110945698621 4.000000000000000
-2.395437550926039 -5.550223229883808 -1.701558414534046 18.000000000000000
-2.411016259650899 -5.523409657012651 -1.807819226725495 13.000000000000000
-2.447646585200176 -5.543497390418090 -1.930871014953032 5.000000000000000
-2.474420487414943 -5.540471088722492 -2.047349351354428 11.000000000000000
-2.494479559589975 -5.521368198860276 -2.159326038235600 6.000000000000000
-2.531040440365094 -5.537860629181826 -2.286471067167555 8.000000000000000
-2.550070816131294 -5.514347230578348 -2.399195167827821 10.000000000000000
-2.386612656659041 -5.100700378453015 -2.334127604978816 2.000000000000000
-2.413558718747776 -5.096478661056176 -2.449192431916209 29.000000000000000
-2.583976945058769 -5.392168499049605 -2.717757536142966 1.000000000000000
-2.513869328807999 -5.181780031763714 -2.735505931284608 0.000000000000000
-2.707478570921007 -5.513757342327327 -3.045123274669686 6.000000000000000
-2.650389427404452 -5.333133876857938 -3.078430596036381 1.000000000000000
-2.561591684044405 -5.094061095760764 -3.070401536752349 1.000000000000000
-2.510171477288957 -4.928561098756287 -3.099019949989222 2.000000000000000
-2.209257130287645 -4.121980082810195 -3.051150459939537 75.000000000000000
-2.226570272700304 -5.546529595259409 -0.925579963935473 3.000000000000000
-2.250318816769814 -5.539999177819672 -1.032036013251993 22.000000000000000
-2.271945555982027 -5.528105421833630 -1.137264189072677 19.000000000000000
-2.309207343772255 -5.554067211999451 -1.252451535214407 6.000000000000000
-2.332647007593705 -5.545365197606912 -1.360847810423408 17.000000000000000
-2.350325623858262 -5.524371468769421 -1.466181890790384 7.000000000000000
-2.387333735425766 -5.547652514192987 -1.584842332052716 20.000000000000000
-2.410285068663557 -5.536733672897076 -1.695019210270247 17.000000000000000
-2.439824058355545 -5.541507767776761 -1.811449757497930 4.000000000000000
-2.467427376161531 -5.540445239982378 -1.927631885533450 13.000000000000000
-2.486579853696915 -5.520055385301009 -2.037756897767236 10.000000000000000
-2.523912878326550 -5.538748457388055 -2.164192530344479 5.000000000000000
-2.549761466893139 -5.531153183885389 -2.281902039602373 10.000000000000000
-2.573606183037710 -5.517723818873309 -2.399002099471408 6.000000000000000
-2.442042141505826 -5.174633106724191 -2.366530454041018 5.000000000000000
-2.624263079360953 -5.494159714141374 -2.638929390076389 7.000000000000000
-2.623513556804742 -5.428023600621733 -2.734618146717236 1.000000000000000
-2.538590573453214 -5.188184492359553 -2.737875741083648 0.000000000000000
-2.743124996174119 -5.538812825677613 -3.058044103258472 4.000000000000000
-2.677632018774426 -5.342117220241830 -3.082895777873410 1.000000000000000
-2.581784621760865 -5.090544738660143 -3.067758535240129 1.000000000000000
-2.531539764732953 -4.928262374516979 -3.098490017330391 3.000000000000000
-2.228302658365485 -4.122203707670036 -3.051650021741141 75.000000000000000
-2.246343148117236 -5.547771611893876 -0.922663862504199 32.000000000000000
-2.268752327446138 -5.537512116157993 -1.028545789020183 33.000000000000000
-2.298030862054782 -5.543710605257009 -1.137537200360812 4.000000000000000
-2.324985073872048 -5.544193030794419 -1.247384481049355 19.000000000000000
-2.345497464999615 -5.528279344824875 -1.353922127473743 15.000000000000000
-2.383165542538551 -5.553745873579052 -1.471335708993901 7.000000000000000
-2.403541228253600 -5.537678263949577 -1.579464785636447 15.000000000000000
-2.426611269557486 -5.526736785623694 -1.689544982795807 5.000000000000000
-2.462544967393873 -5.545484391955184 -1.810441698079382 15.000000000000000
-2.482519425167094 -5.526898470149114 -1.920735953829004 14.000000000000000
-2.517444576292650 -5.541049166557911 -2.043439976872970 4.000000000000000
-2.544036271176640 -5.535465683493833 -2.160970873889743 12.000000000000000
-2.566877527224234 -5.520995149745850 -2.275906921803697 6.000000000000000
-2.598769728366707 -5.524390649806791 -2.400229957160800 8.000000000000000
-2.502767600547039 -5.258332110086583 -2.403351359598591 12.000000000000000
-2.665671204331431 -5.533557416515377 -2.656464445183842 4.000000000000000
-2.655340274819293 -5.447338774533887 -2.743131841596798 0.000000000000000
-2.558578662237153 -5.184776072093817 -2.735066418094476 0.000000000000000
-2.762948280390308 -5.531643109689524 -3.053171679894965 8.000000000000000
-2.701754643492706 -5.344656824605407 -3.083644154821442 1.000000000000000
-2.600370171587767 -5.083829216785489 -3.063193670872749 1.000000000000000
-2.552929262933540 -4.927895578430674 -3.097924038213498 3.000000000000000
-2.250582649746091 -4.128255102837925 -3.056476982173183 73.000000000000000
-2.261652994632522 -5.537968998851185 -0.917893838977546 23.000000000000000
-2.288690688590742 -5.538612718508362 -1.025701753111232 4.000000000000000
-2.319678826534540 -5.548339232997584 -1.135527145121210 25.000000000000000
-2.342242559694849 -5.537885800446721 -1.243109268232160 25.000000000000000
-2.372074303618825 -5.543460860461643 -1.354881982550919 3.000000000000000
-2.397681089584128 -5.540179060149535 -1.465088862196175 16.000000000000000
-2.421253835499854 -5.531207653347525 -1.575078334441504 12.000000000000000
-2.456929866664892 -5.548402713216608 -1.693730486901802 9.000000000000000
-2.477474519390302 -5.531889937023959 -1.803687814014622 12.000000000000000
-2.505409595901050 -5.530687017959607 -1.919856209756350 4.000000000000000
-2.535827896631051 -5.534338650370592 -2.038890036682202 14.000000000000000
-2.560985768264825 -5.525279514421965 -2.155049461672283 10.000000000000000
-2.599856081202295 -5.544725961048109 -2.283869167424997 5.000000000000000
-2.622403384906430 -5.527606241614950 -2.399948692053800 10.000000000000000
-2.524075649492231 -5.258393353134384 -2.401917038399223 15.000000000000000
-2.688117029676304 -5.533143046814417 -2.654873793281614 10.000000000000000
-2.674459208752046 -5.440361507570382 -2.738400739056994 0.000000000000000
-2.588234231103588 -5.200737049628061 -2.742472188659282 0.000000000000000
-2.781130364697087 -5.521212792777259 -3.046504093454103 7.000000000000000
-2.722688048811082 -5.340777385657214 -3.080692569165869 1.000000000000000
-2.622163603551612 -5.083328997380348 -3.062379522626373 1.000000000000000
-2.574339698915441 -4.927460580491352 -3.097321962969265 3.000000000000000
-2.268081854837712 -4.125407267538210 -3.054728069190258 69.000000000000000
-2.276917490377534 -5.528126930216427 -0.913106448027157 10.000000000000000
-2.313200799344489 -5.550568062414188 -1.024839619852601 12.000000000000000
-2.333733733625976 -5.534783439589645 -1.129780127892317 20.000000000000000
-2.362550476862732 -5.538736858792647 -1.240424626217749 4.000000000000000
-2.397215810487300 -5.554959441697369 -1.354910314023395 19.000000000000000
-2.413682348704231 -5.530142260125285 -1.459769879922872 18.000000000000000
-2.446759142431065 -5.542394166492484 -1.575701939505087 4.000000000000000
-2.476406496291735 -5.545320791949350 -1.690338480748259 14.000000000000000
-2.495490443074122 -5.525250643602324 -1.799196702391883 7.000000000000000
-2.531513575267256 -5.541338509184929 -1.921340819548088 9.000000000000000
-2.554185888022294 -5.527576027629386 -2.034315046447994 15.000000000000000
-2.587470045038757 -5.535551287535031 -2.157097751400337 3.000000000000000
-2.616989672515939 -5.534436651036564 -2.277805963994319 12.000000000000000
-2.639649605548805 -5.517302615873332 -2.393793183381411 6.000000000000000
-2.550240787610912 -5.268376962666426 -2.405007298211665 15.000000000000000
-2.705733297744956 -5.522759817107628 -2.648499070042413 9.000000000000000
-2.704889667316171 -5.456200350009139 -2.745150201392697 0.000000000000000
-2.609909746820278 -5.200416316234770 -2.741288976246705 0.000000000000000
-2.807390179993713 -5.526735784562120 -3.048641655707572 3.000000000000000
-2.746872345752289 -5.343165520313574 -3.081359852187587 1.000000000000000
-2.650489510891906 -5.095278440833861 -3.069069396906111 1.000000000000000
-2.594141313295308 -4.923864371899597 -3.094739810354383 3.000000000000000
-2.290465557474305 -4.131314866935739 -3.059475281851392 72.000000000000000
-2.308823148469136 -5.558418096868198 -0.914914165100306 6.000000000000000
-2.331686668902114 -5.547891724757382 -1.021249572059997 18.000000000000000
-2.350797126199817 -5.528431939124015 -1.125494187423534 13.000000000000000
-2.385975924495866 -5.546721232735155 -1.239313702841653 12.000000000000000
-2.409982876420945 -5.537729540076741 -1.347916197810260 17.000000000000000
-2.435902598731531 -5.534300234907061 -1.458183609632415 4.000000000000000
-2.469203586371059 -5.546413909074398 -1.574265034318667 15.000000000000000
-2.491132904020627 -5.531636523073637 -1.683707287833478 16.000000000000000
-2.524609955827791 -5.542994133048926 -1.802627141679717 5.000000000000000
-2.548126890846845 -5.531102457266392 -1.915570660499077 15.000000000000000
-2.575723999647124 -5.527640818493074 -2.032244291262996 5.000000000000000
-2.614043001555853 -5.545728111237722 -2.159092147696471 12.000000000000000
-2.635688349457383 -5.527487607009935 -2.273114972650128 9.000000000000000
-2.669799044793916 -5.533800882811626 -2.399257562207684 6.000000000000000
-2.571624919424235 -5.268288825682505 -2.403492068425682 13.000000000000000
-2.733066676435734 -5.532099859017869 -2.651579471185243 3.000000000000000
-2.730560631491325 -5.462136644923768 -2.746910611929451 0.000000000000000
-2.628336415572206 -5.193566641730234 -2.736665347550553 0.000000000000000
-2.835351188255766 -5.535364656201962 -3.052491730066893 8.000000000000000
-2.766182265490356 -5.335990038303261 -3.076515884115506 1.000000000000000
-2.669089817776625 -5.088371155142516 -3.064405738826821 1.000000000000000
-2.309639206601288 -4.131279801902259 -3.059834952039831 69.000000000000000
-2.321062131301761 -5.541156124345599 -0.908864889994215 28.000000000000000
-2.345553721696029 -5.534264747899825 -1.015631546768414 25.000000000000000
-2.380233626079124 -5.550943225898806 -1.127055095428077 5.000000000000000
-2.404788186134679 -5.543837441644060 -1.235752483490338 17.000000000000000
-2.425796214526214 -5.527626386355009 -1.342652322257013 11.000000000000000
-2.462899223747139 -5.549047552129719 -1.459361051237465 13.000000000000000
-2.482174696721863 -5.529159891895115 -1.566780030767603 16.000000000000000
-2.513758941371854 -5.535469183115558 -1.682397369069219 4.000000000000000
-2.544256326052150 -5.539709203474300 -1.799199179714617 15.000000000000000
-2.566299866537407 -5.524284655090247 -1.910978818444755 9.000000000000000
-2.605353151019680 -5.544813765845366 -2.036445742111376 10.000000000000000
-2.627743703608162 -5.528541789871549 -2.150426168412102 12.000000000000000
-2.665738982478833 -5.544149605605742 -2.278122215324364 3.000000000000000
-2.691929904107976 -5.533427923086780 -2.397395422405898 10.000000000000000
-2.597934283176840 -5.278097039279187 -2.406483971325537 14.000000000000000
-2.757209171031350 -5.534761374336297 -2.651452076944935 9.000000000000000
-2.749725928466337 -5.454949786817846 -2.742069682122588 0.000000000000000
-2.651675203914458 -5.196341340950614 -2.737113677082627 0.000000000000000
-2.855156464691894 -5.527936328995326 -3.047488392874003 7.000000000000000
-2.795366075674879 -5.347700902294818 -3.082563796997752 1.000000000000000
-2.684362284060856 -5.075168618359365 -3.055957889620187 1.000000000000000
-2.638693893938650 -4.925745088068244 -3.095298670801000 3.000000000000000
-2.328835739386901 -4.131182775574516 -3.060161592751388 55.000000000000000
-2.337828257144790 -5.534802693272009 -0.904596145605467 34.000000000000000
-2.371753770390305 -5.549624176681779 -1.015310568362433 3.000000000000000
-2.398898817322770 -5.548070952972330 -1.123430979202590 22.000000000000000
-2.420456987552525 -5.533714283030034 -1.230564994300403 20.000000000000000
-2.454204914056315 -5.546051939391300 -1.344295401091531 5.000000000000000
-2.477293921032266 -5.535289684347745 -1.453024066961738 13.000000000000000
-2.499845023504164 -5.522467464427899 -1.562282933017176 6.000000000000000
-2.539638336621388 -5.546237203830108 -1.683173787228681 14.000000000000000
-2.560674848235954 -5.529400537627991 -1.793482092492443 16.000000000000000
-2.597401777133988 -5.545071544602543 -1.915917945367281 4.000000000000000
-2.622110968022108 -5.534425292598526 -2.030510958360946 13.000000000000000
-2.649507092201077 -5.528349520009846 -2.148366764075235 4.000000000000000
-2.687738744870625 -5.543816885194447 -2.276132417666909 11.000000000000000
-2.710795987230489 -5.526289692159819 -2.392597616387514 9.000000000000000
-2.619393205188400 -5.277858617683169 -2.404887450248004 15.000000000000000
-2.774790389181174 -5.524197394751958 -2.644987228688159 8.000000000000000
-2.772172228151578 -5.454217202389431 -2.740472923899143 0.000000000000000
-2.683343590545161 -5.215143986066304 -2.746000069132674 0.000000000000000
-2.878253537909169 -5.526826504132358 -3.045971333537705 4.000000000000000
-2.816351709755087 -5.343542643230646 -3.079466685472543 1.000000000000000
-2.714523584598348 -5.089983220505210 -3.064385178732390 1.000000000000000
-2.661848993794038 -4.928116071983671 -3.096487028116525 3.000000000000000
-2.344731400605470 -4.125176487467722 -3.056123296965975 43.000000000000000
-2.356120540058972 -5.532041221104945 -0.900897290876114 7.000000000000000
-2.393378864767352 -5.554015969884394 -1.012950253444888 26.000000000000000
-2.412846181831035 -5.534325404507931 -1.117593673855360 28.000000000000000
-2.442406343130054 -5.537897661126991 -1.228542530774688 3.000000000000000
-2.474788207330296 -5.546533824882756 -1.341560978222892 17.000000000000000
-2.494819125740706 -5.528591657525877 -1.448532986912505 14.000000000000000
-2.530359110000555 -5.543920330429125 -1.565724798389494 6.000000000000000
-2.555905487783285 -5.535902290321292 -1.677530616571500 19.000000000000000
-2.583540389885518 -5.532960047893106 -1.792252259657915 4.000000000000000
-2.617244715130165 -5.541568759403024 -1.912444975922616 13.000000000000000
-2.643730794303315 -5.534273762708077 -2.028324778395548 8.000000000000000
-2.679503976121445 -5.545086436542505 -2.152870375387634 9.000000000000000
-2.699867809431438 -5.523182219032158 -2.265805814045609 11.000000000000000
-2.737901802211033 -5.535812374960684 -2.395005442724865 4.000000000000000
-2.642529708215438 -5.280864217635978 -2.404763160082670 14.000000000000000
-2.792321367151740 -5.513587600678466 -2.638502065982232 4.000000000000000
-2.796302382644206 -5.456662866385469 -2.740470643416611 0.000000000000000
-2.703486583828106 -5.211306725813374 -2.742962358573979 0.000000000000000
-2.909724512484730 -5.541558056004110 -3.053184169581234 7.000000000000000
-2.842351462837348 -5.348765447348916 -3.081779088603325 1.000000000000000
-2.738123108623394 -5.092234085938050 -3.065252005306126 1.000000000000000
-2.365623445533974 -4.127883011918871 -3.058552525926529 55.000000000000000
-2.386899429938311 -5.558305824689726 -0.901888834935012 8.000000000000000
-2.410329039734619 -5.547478009295522 -1.008576053946647 16.000000000000000
-2.434639493336553 -5.538554223214841 -1.115370635257624 6.000000000000000
-2.467583871904948 -5.549171298015824 -1.228065039153856 22.000000000000000
-2.488980453957109 -5.532698754344910 -1.335351936191261 23.000000000000000
-2.520376594511967 -5.539553501700587 -1.448649310093041 3.000000000000000
-2.549688811147529 -5.540613120585880 -1.562148909131489 19.000000000000000
-2.575380200284574 -5.532519699983030 -1.673985242850691 9.000000000000000
-2.614623763340926 -5.553808873687890 -1.796598333161475 14.000000000000000
-2.635442133081310 -5.534557267877435 -1.907752764842680 14.000000000000000
-2.673611399188650 -5.551164805071485 -2.032366943508030 5.000000000000000
-2.699708112787214 -5.541337007420656 -2.149405563392161 11.000000000000000
-2.725156143930522 -5.529469709112410 -2.266519959586953 4.000000000000000
-2.763429778555957 -5.541899256185148 -2.395914959526877 12.000000000000000
-2.667377714094008 -5.287100542653324 -2.406102238523865 12.000000000000000
-2.823189943009706 -5.529152207652803 -2.644537466230532 4.000000000000000
-2.823827161712752 -5.465519042754749 -2.743683245941214 0.000000000000000
-2.723625818537970 -5.207408297054029 -2.739893652747532 0.000000000000000
-2.926182351959201 -5.527564840422945 -3.044572183082967 8.000000000000000
-2.863361486377495 -5.344467042459622 -3.078608944051350 1.000000000000000
-2.756709033447825 -5.085081312529211 -3.060463910892162 1.000000000000000
-2.386560114583240 -4.130518600276756 -3.060942814272782 24.000000000000000
-2.400559043282656 -5.544505235423316 -0.896349247825485 24.000000000000000
-2.424087952888364 -5.533663153589093 -1.002868734816232 18.000000000000000
-2.458068682433300 -5.546305639837597 -1.113829476152562 8.000000000000000
-2.483222856441162 -5.538884262786955 -1.222795718302615 13.000000000000000
-2.507944368286726 -5.529506451564011 -1.331701711229237 5.000000000000000
-2.542775367642848 -5.543347004836799 -1.446866066253428 16.000000000000000
-2.564121956223139 -5.526699801847405 -1.555574457836812 17.000000000000000
-2.603047574684361 -5.546541648814711 -1.675685848210715 6.000000000000000
-2.627750755860625 -5.536378365398014 -1.788545934614688 15.000000000000000
-2.658573203811462 -5.537825931170836 -1.906592897298087 4.000000000000000
-2.688687050255049 -5.537180012450403 -2.025092456040111 14.000000000000000
-2.716576909572106 -5.530744114656166 -2.143281463685028 8.000000000000000
-2.753850467115432 -5.542395176312852 -2.269939936287331 7.000000000000000
-2.780640970884301 -5.531226893091283 -2.389573361121891 12.000000000000000
-2.690609883310814 -5.289945801057611 -2.405890246395941 11.000000000000000
-2.842395980230459 -5.521688983566121 -2.639552966002817 7.000000000000000
-2.853126288289162 -5.477517841468859 -2.748466605120688 1.000000000000000
-2.743761063074376 -5.203448672978833 -2.736793952133004 0.000000000000000
-2.949342194275854 -5.526229756817005 -3.042936295083149 5.000000000000000
-2.892844676393981 -5.355801960470228 -3.084446634079157 1.000000000000000
-2.785446297704521 -5.096498844468269 -3.066857096595431 1.000000000000000
-2.729868980439305 -4.931696124582640 -3.097872283424842 2.000000000000000
-2.409236556526339 -4.135993647833189 -3.065451314208173 14.000000000000000
-2.414150182805349 -5.530674213795475 -0.890798313715686 36.000000000000000
-2.450532899394291 -5.548698267235975 -1.002367222208861 4.000000000000000
-2.475140900908338 -5.539603999006915 -1.109364257057735 18.000000000000000
-2.500429656282380 -5.532130772008740 -1.218295799622390 14.000000000000000
-2.538280355197870 -5.551133217178117 -1.334000316176238 8.000000000000000
-2.560313976645992 -5.536464946280688 -1.442280222285658 22.000000000000000
-2.588338408921793 -5.533821757507910 -1.554907404648995 4.000000000000000
-2.624222129812932 -5.546506556517574 -1.673117817700731 17.000000000000000
-2.647414622743602 -5.532781097933823 -1.784957461014002 7.000000000000000
-2.686739492810943 -5.551334923805686 -1.908938831263411 14.000000000000000
-2.707032545732337 -5.529987948201979 -2.020299009821757 14.000000000000000
-2.745134462590792 -5.543813524811966 -2.146316002924147 4.000000000000000
-2.770877106323075 -5.531703718804734 -2.263677987041562 10.000000000000000
-2.802864221899955 -5.530498724136269 -2.387524244048689 4.000000000000000
-2.715575632285948 -5.296012431852699 -2.407135498262703 9.000000000000000
-2.861573961621292 -5.514171283746927 -2.634542373102356 4.000000000000000
-2.875735388712533 -5.476462087608567 -2.746694918823787 0.000000000000000
-2.775812753919915 -5.221852962892756 -2.745453548888358 0.000000000000000
-2.979340179661099 -5.537499668016526 -3.048241053554301 6.000000000000000
-2.912193585273261 -5.348219092536136 -3.079392319943207 2.000000000000000
-2.805753896056454 -5.092313500437819 -3.063865579300559 1.000000000000000
-2.753179926741978 -4.933760187471268 -3.098894432456276 3.000000000000000
-2.425152808658802 -4.129763588300117 -3.061297528729422 15.000000000000000
-2.437236822468525 -5.538547009009204 -0.888723635445089 4.000000000000000
-2.473874317587726 -5.556421746132231 -1.000509490154244 27.000000000000000
-2.492187942537121 -5.532853929214347 -1.104875855944892 26.000000000000000
-2.525742903004129 -5.543175138767346 -1.217692969872078 3.000000000000000
-2.554043579265742 -5.540695172892271 -1.328568551599702 23.000000000000000
-2.576181659079110 -5.526004397526012 -1.436753095680533 7.000000000000000
-2.617579193852418 -5.551378782914286 -1.557143786719781 17.000000000000000
-2.640430218082488 -5.535951208051523 -1.667365732378393 18.000000000000000
-2.677088536097490 -5.549884004103924 -1.788026988299340 6.000000000000000
-2.699931047820060 -5.533823556380552 -1.900606530522548 14.000000000000000
-2.732080281502458 -5.536380248397970 -2.020457146433522 4.000000000000000
-2.767047644576545 -5.543248373542183 -2.144057089227181 12.000000000000000
-2.791240951511783 -5.527676498847679 -2.260139481246819 8.000000000000000
-2.833599097306935 -5.546324822118300 -2.392609688874417 6.000000000000000
-2.740605383442286 -5.301991544779225 -2.408332159677471 8.000000000000000
-2.885846502345315 -5.516391593504610 -2.634181799347379 2.000000000000000
-2.903494472904063 -5.485030469579329 -2.749746278041289 0.000000000000000
-2.797733031908375 -5.220938571232218 -2.743952316930535 0.000000000000000
-2.995711169111642 -5.523337825229483 -3.039548298620868 12.000000000000000
-2.936669069423305 -5.349972747505956 -3.079717905529018 1.000000000000000
-2.831213782746770 -5.097351250756637 -3.066428336484398 1.000000000000000
-2.446199160876493 -4.132193844975239 -3.063576291342502 6.000000000000000
-2.463596047379432 -5.553573364169348 -0.887759767124639 14.000000000000000
-2.484347625217628 -5.535251425784883 -0.993434713718995 19.000000000000000
-2.512464126282438 -5.533222884236103 -1.101791508185520 3.000000000000000
-2.547866541698334 -5.546996688820447 -1.215475141625353 24.000000000000000
-2.569758692666784 -5.530216650181106 -1.323119066268478 19.000000000000000
-2.608563301344823 -5.550745907233505 -1.440353212308527 7.000000000000000
-2.633632435570982 -5.540803905986786 -1.551469068241466 19.000000000000000
-2.668299715563146 -5.549710217143278 -1.668919750515628 4.000000000000000
-2.695131410037494 -5.542684258491368 -1.783248130042847 14.000000000000000
-2.718089532722450 -5.526579063886804 -1.895797758916467 7.000000000000000
-2.758884748612815 -5.546089147381521 -2.021807635055451 14.000000000000000
-2.782180289601695 -5.529102267734086 -2.136540415973828 14.000000000000000
-2.818419849226958 -5.536985920048409 -2.262043428997146 3.000000000000000
-2.854203816470473 -5.542110515370568 -2.389039055659069 11.000000000000000
-2.763984124892064 -5.304592134441005 -2.407986304896952 8.000000000000000
-2.911877551943789 -5.521790068567485 -2.635332912775028 5.000000000000000
-2.922726925559929 -5.477360810448213 -2.744654781711735 0.000000000000000
-2.826573661169002 -5.232731990102264 -2.749127362954663 0.000000000000000
-2.996454938913798 -5.480691362856906 -3.015190870270875 28.000000000000000
-2.962913384908752 -5.354770497459906 -3.081798369955689 2.000000000000000
-2.853275837578313 -5.096119413993446 -3.065224284291588 1.000000000000000
-2.798192890645386 -4.934599443540582 -3.098893492611610 2.000000000000000
-2.460372936262359 -4.122962833591406 -3.057222021268926 4.000000000000000
-2.481981931024980 -5.550431631636052 -0.883861073132800 16.000000000000000
-2.501217088901417 -5.528456069059245 -0.988934055773956 10.000000000000000
-2.539311948703243 -5.547842797042299 -1.101514923402683 11.000000000000000
-2.561788220772162 -5.532940409082365 -1.209325242214218 29.000000000000000
-2.597034284020098 -5.544481574018115 -1.323568284221797 3.000000000000000
-2.627780340743333 -5.547198699371253 -1.436583819516544 18.000000000000000
-2.647960858454524 -5.526689852645476 -1.544798551513536 7.000000000000000
-2.691224603562394 -5.552939705390608 -1.667283647576770 18.000000000000000
-2.711455775012529 -5.531982302532126 -1.777336035932025 15.000000000000000
-2.749808517506706 -5.546691036781318 -1.900354614154254 5.000000000000000
-2.777250103567410 -5.538700355757123 -2.016912549262044 14.000000000000000
-2.805794287092232 -5.531786953202402 -2.135521370274780 4.000000000000000
-2.843967513239147 -5.542851843713212 -2.262526513056893 10.000000000000000
-2.869638560910226 -5.527885297556390 -2.381151542173872 7.000000000000000
-2.790855364625833 -5.313685956303093 -2.410579161016390 8.000000000000000
-2.918937679420684 -5.491292074544743 -2.619354534174457 2.000000000000000
-2.945397806309328 -5.476082826807412 -2.742765873444749 0.000000000000000
-2.850311537031960 -5.234848243926560 -2.749215161627316 0.000000000000000
-3.016053465399632 -5.472806813897662 -3.009967287464465 37.000000000000000
-2.987478153485218 -5.356355667170971 -3.082032486722678 2.000000000000000
-2.875355179233178 -5.094816670105714 -3.063982978293101 3.000000000000000
-2.488421878002524 -4.136838816257804 -3.068015835255927 8.000000000000000
-2.492230382699305 -5.529187797471761 -0.877071274093421 29.000000000000000
-2.534444025087933 -5.557537456134749 -0.990815274082599 4.000000000000000
-2.554721224135716 -5.537337288522680 -1.096225898292319 22.000000000000000
-2.580618374088636 -5.529521111067326 -1.205489564275393 6.000000000000000
-2.621077818120195 -5.551571213829524 -1.322273848012462 20.000000000000000
-2.640279127592351 -5.529531546214173 -1.429150449680671 17.000000000000000
-2.682462948463772 -5.554464240597465 -1.549812740315132 7.000000000000000
-2.709103705946986 -5.545680057846094 -1.662484227423663 18.000000000000000
-2.734541324551508 -5.535024194378366 -1.775828514233912 3.000000000000000
-2.769712046019107 -5.542728527262009 -1.896643259870602 14.000000000000000
-2.795587742328964 -5.531259452140053 -2.011992556659034 7.000000000000000
-2.838058648504925 -5.551234092582730 -2.140954730253207 7.000000000000000
-2.862666788062127 -5.535265992836353 -2.257510409516520 11.000000000000000
-2.904059705470533 -5.550051190926881 -2.388929677733002 7.000000000000000
-2.814337581592557 -5.316119072617315 -2.410141486010764 7.000000000000000
-2.887496482367640 -5.389293342805936 -2.569300552582771 1.000000000000000
-2.978554344179679 -5.494043241428792 -2.750506658795609 0.000000000000000
-2.875837444401990 -5.240069883652893 -2.750931952595227 0.000000000000000
-3.086391187627289 -5.556262924282867 -3.054969026549404 41.000000000000000
-3.013833615341089 -5.360975360788088 -3.084015259375850 2.000000000000000
-2.895698678137529 -5.090361568112275 -3.060851559830710 3.000000000000000
-2.509597628076900 -4.139053086272015 -3.070176427206246 42.000000000000000
-2.517105246607103 -5.540374124574051 -0.875408326013248 2.000000000000000
-2.548073292356337 -5.543425641033748 -0.984964293317232 27.000000000000000
-2.571742799673109 -5.530362655178292 -1.091624420090918 18.000000000000000
-2.616150383866022 -5.561558467700935 -1.209347170725469 9.000000000000000
-2.636780740823475 -5.540917800939316 -1.316735830778598 25.000000000000000
-2.667891035657753 -5.543438480925055 -1.429861262520362 3.000000000000000
-2.698480556576478 -5.543720416948096 -1.544053957765574 16.000000000000000
-2.723542631113301 -5.531438045962737 -1.655585902387542 8.000000000000000
-2.762808404977194 -5.548313209159473 -1.777586636553582 16.000000000000000
-2.787889413013989 -5.535288357114963 -1.891733444328789 15.000000000000000
-2.829443878851141 -5.554284556985423 -2.018136367162794 4.000000000000000
-2.854874571502394 -5.540280324284214 -2.134649645571429 13.000000000000000
-2.881337621868112 -5.527627077302355 -2.252468957184811 4.000000000000000
-2.924703120210715 -5.545625631095587 -2.385248837829165 11.000000000000000
-2.839608229078070 -5.321749587039506 -2.411145461849400 8.000000000000000
-2.964047765101795 -5.488751710118793 -2.615286124091029 2.000000000000000
-2.994300316634349 -5.479736109499039 -2.742090039377952 0.000000000000000
-2.896146851735760 -5.235659498381030 -2.747591496236939 0.000000000000000
-3.038486224924533 -5.362391070164603 -3.084157497852988 1.000000000000000
-2.921328668409677 -5.095074724530687 -3.063238215120772 2.000000000000000
-2.536103113963891 -4.149846439184194 -3.078715889219548 18.000000000000000
-2.542063244890136 -5.551468156167987 -0.873693178427902 17.000000000000000
-2.564953196915305 -5.536450767345085 -0.980371357393703 36.000000000000000
-2.602108096892894 -5.551865676082105 -1.092613823281500 4.000000000000000
-2.628355864470429 -5.543790534329133 -1.202346023899359 22.000000000000000
-2.650743263348045 -5.526697258283404 -1.310344064395933 9.000000000000000
-2.693908526597344 -5.553734695564104 -1.429609660576491 18.000000000000000
-2.716158080246270 -5.536419719195320 -1.539245911483321 18.000000000000000
-2.758521161712960 -5.558698276940919 -1.661087133872224 6.000000000000000
-2.779106493945560 -5.537434932955765 -1.771586142018163 17.000000000000000
-2.809503145741767 -5.534621038185750 -1.889128380428079 3.000000000000000
-2.847826546213521 -5.546697965644938 -2.013139250174180 15.000000000000000
-2.875128810242495 -5.536001635107283 -2.130911593802769 7.000000000000000
-2.919231356113269 -5.556579280468957 -2.262321592821889 9.000000000000000
-2.941829541191571 -5.534532687760467 -2.378697727472640 8.000000000000000
-2.863181181418864 -5.324018758660006 -2.410618547137902 7.000000000000000
