# This PCD file was generated using the MATLAB® pcwrite function
# from Computer Vision Toolbox®.
# .PCD v.7 - Point Cloud Data file format
VERSION .7
FIELDS x y z intensity
SIZE 8 8 8 8
TYPE F F F F
COUNT 1 1 1 1
WIDTH 631
HEIGHT 1
VIEWPOINT 0 0 0 1 0 0 0
POINTS 631
DATA ascii
-5.387730049603991 -5.609309719190844 -0.850285473700033 25.000000000000000
-5.453943221610309 -5.607290044127406 -0.985016597058462 10.000000000000000
-5.521765608307297 -5.605492713576639 -1.122167547630003 7.000000000000000
-5.594055758751780 -5.606680385751329 -1.261774631226735 4.000000000000000
-5.457320423195206 -5.400625530724182 -1.352225452898535 8.000000000000000
-5.500626454825623 -5.374048161792494 -1.484230089712245 6.000000000000000
-5.376082662035094 -5.185274715288205 -1.567828223358181 61.000000000000000
-5.376352999309985 -5.118577070261860 -1.684500282754513 17.000000000000000
-5.533535366376086 -5.199826001107698 -1.852471837105595 6.000000000000000
-5.726802551171525 -5.310466662113159 -2.039573575647621 6.000000000000000
-5.879115446911401 -5.379531000273602 -2.218700470767299 22.000000000000000
-5.839878153556040 -5.271199741514913 -2.327207003399572 8.000000000000000
-5.766706976750218 -5.134918830824840 -2.420364279430022 9.000000000000000
-6.188892643382982 -5.434205553554460 -2.727635212120178 7.000000000000000
-4.970470541038011 -4.303858569475575 -2.295325688137735 1.000000000000000
-4.999913186277828 -4.269160840435906 -2.414777391018409 0.000000000000000
-5.015828145287703 -4.223400272646728 -2.529257233645333 1.000000000000000
-5.140220897146770 -4.264692939381106 -2.699655396773555 2.000000000000000
-5.162421369798317 -4.220474120722407 -2.820390717074865 73.000000000000000
-5.189234743670660 -4.178241458662030 -2.944621722428723 40.000000000000000
-5.209777991998870 -4.133077222021280 -3.068690592238497 40.000000000000000
-5.275070139261933 -5.601604986193836 -0.576465614339167 6.000000000000000
-5.333515058239009 -5.591994400863724 -0.707683364398570 7.000000000000000
-5.404587933606414 -5.594377624885266 -0.841631901783098 32.000000000000000
-5.476538813589221 -5.597870183875173 -0.977259447502094 25.000000000000000
-5.547362864295001 -5.598672257154813 -1.115004129501675 28.000000000000000
-5.622687263717987 -5.602395905886920 -1.255326271582412 16.000000000000000
-5.631602591844988 -5.540326884422270 -1.382110799202662 19.000000000000000
-5.633270635408805 -5.471122740164221 -1.506351190891027 6.000000000000000
-5.372994657618111 -5.151528681589675 -1.553543257191820 64.000000000000000
-5.370358216473686 -5.082363691030490 -1.668901416755495 6.000000000000000
-5.235363235235884 -4.890134880021857 -1.738946994687894 9.000000000000000
-5.707514031272141 -5.260680059354155 -2.017406477620511 6.000000000000000
-5.865912463956617 -5.334928922310818 -2.197632444038336 12.000000000000000
-5.832190950442281 -5.232194475121376 -2.307794118219497 5.000000000000000
-5.801633465139029 -5.134377860625534 -2.418402183363479 10.000000000000000
-6.393973107252400 -5.579698455013521 -2.799315819062365 7.000000000000000
-4.971425978390501 -4.278020015323317 -2.280921850892121 16.000000000000000
-5.003803653057251 -4.245860329005348 -2.401408559206349 0.000000000000000
-5.056982608677211 -4.231360421221897 -2.534287253105512 1.000000000000000
-5.167412802744472 -4.260210928670274 -2.697563302180483 2.000000000000000
-5.172488743995673 -4.201861657107303 -2.809188994669019 41.000000000000000
-5.199366258440924 -4.159649744098831 -2.933271299591048 42.000000000000000
-5.222822936103345 -4.116773193161335 -3.058872186636941 40.000000000000000
-5.313461568135544 -5.610111768012890 -0.570329829440701 21.000000000000000
-5.385972741525749 -5.614562691820577 -0.703795003646716 14.000000000000000
-5.449108399013546 -5.607921550014584 -0.837215351437169 5.000000000000000
-5.515820320309655 -5.605347878669768 -0.972408017835841 3.000000000000000
-5.586937984056820 -5.605784470962945 -1.110571216723097 3.000000000000000
-5.665369222792307 -5.611904072505236 -1.251921822813552 5.000000000000000
-5.713826978039064 -5.588180281699471 -1.388872349878923 5.000000000000000
-5.384962429453028 -5.199073713229975 -1.426959059602072 5.000000000000000
-5.375401204607034 -5.123247653728036 -1.540925490761773 66.000000000000000
-5.381226339398804 -5.062272045849317 -1.658610508218582 6.000000000000000
-5.245781442451555 -4.870490280893213 -1.728756050388726 14.000000000000000
-5.336727885819140 -4.889278783766722 -1.872128320209108 13.000000000000000
-5.843877249226215 -5.282688871534512 -2.173449098217315 12.000000000000000
-5.838612676919495 -5.206050204765339 -2.294067844327566 8.000000000000000
-5.845212343361556 -5.141260283308391 -2.419925486515944 11.000000000000000
-6.459457502973405 -5.602121443169109 -2.809207023924268 7.000000000000000
-4.980862359462539 -4.259584930277727 -2.270471840353930 7.000000000000000
-5.030558691475374 -4.241958637820339 -2.399016916706297 1.000000000000000
-5.468765155896831 -4.547220210419720 -2.723756969261233 13.000000000000000
-5.231953993608732 -4.286203716794946 -2.714785278230089 2.000000000000000
-5.182470698796565 -4.183234725968753 -2.797985111390727 40.000000000000000
-5.203678159097350 -4.136485212907379 -2.918702400028448 43.000000000000000
-5.232936947110097 -4.098196920119961 -3.047375413612396 35.000000000000000
-5.329922704529240 -5.595339899754685 -0.561782315454071 12.000000000000000
-5.402636342966287 -5.599610745758088 -0.695143180683230 52.000000000000000
-5.471503929790765 -5.598505295836540 -0.829317308859776 38.000000000000000
-5.546805478971223 -5.604187765669313 -0.966004381758802 31.000000000000000
-5.620985632169848 -5.607127555921755 -1.104942122720947 14.000000000000000
-5.696886211184302 -5.610129924088386 -1.245950934694545 21.000000000000000
-5.768132209659051 -5.608148787159589 -1.388601452172013 22.000000000000000
-5.373142501447085 -5.157034453107537 -1.410934197120760 7.000000000000000
-5.374823432756005 -5.092302515993661 -1.527523535760276 66.000000000000000
-5.389154777332286 -5.039497584536357 -1.647444955501942 0.000000000000000
-5.258970880228110 -4.853468309327364 -1.719497208857211 15.000000000000000
-5.324390867618511 -4.848582923907731 -1.853699414363335 18.000000000000000
-5.422725318463965 -4.872284027489068 -2.002123491686960 22.000000000000000
-5.672490704116955 -5.027117160355184 -2.213087948493953 9.000000000000000
-5.868753079580616 -5.130346635449158 -2.413064584931072 24.000000000000000
-6.510759936034270 -5.611827863458186 -2.812708496493252 10.000000000000000
-5.001739594832201 -4.250932189939587 -2.265240062779930 6.000000000000000
-5.063097464017822 -4.242780154214175 -2.399300863348037 3.000000000000000
-5.352804152527911 -4.422881442958619 -2.649571936410152 6.000000000000000
-5.262176938716121 -4.283750412152509 -2.714008156219770 18.000000000000000
-5.183732490181313 -4.157668016571938 -2.782144880162320 49.000000000000000
-5.216497012139255 -4.120151177804471 -2.908960156890887 41.000000000000000
-5.242965354442329 -4.079605970235298 -3.035876384133243 36.000000000000000
-5.379451599692098 -5.615092798617712 -0.556641131683266 4.000000000000000
-5.441444398752211 -5.607486867731433 -0.689282150869801 3.000000000000000
-5.505033930925710 -5.600357996642625 -0.823047828985427 3.000000000000000
-5.569416376815997 -5.594458995115187 -0.958088604268177 4.000000000000000
-5.646639955440126 -5.599957384982420 -1.097596692782919 4.000000000000000
-5.734081974720517 -5.613758634384849 -1.241135730713919 5.000000000000000
-5.805596227181224 -5.611424416089076 -1.384136001070167 4.000000000000000
-5.361095809083719 -5.115103750182024 -1.394978620158305 12.000000000000000
-5.376940580155906 -5.064090289828721 -1.514958591491896 67.000000000000000
-5.339775913884865 -4.963551253420295 -1.618942909482872 5.000000000000000
-5.272090800490669 -4.836415826756675 -1.710227044014683 15.000000000000000
-5.303208540881466 -4.800196056483952 -1.832362680049388 23.000000000000000
-5.410388327908817 -4.831750776683106 -1.982998379537974 27.000000000000000
-5.620489408104952 -4.950690299076362 -2.177329643396068 4.000000000000000
-5.843216656238335 -5.076730931078721 -2.386131212169075 16.000000000000000
-6.544860144784141 -5.606460198474408 -2.808648381007924 5.000000000000000
-5.037051841157087 -4.254408859350613 -2.266472591269309 9.000000000000000
-5.095690858469712 -4.243463816938744 -2.399511097961390 3.000000000000000
-5.383362291060691 -4.420218643420352 -2.648278985972761 6.000000000000000
-5.491768029711627 -4.442418583522388 -2.815353803096905 34.000000000000000
-5.196404620656254 -4.141337128873978 -2.772490902317296 48.000000000000000
-5.226363344824901 -4.101523983189053 -2.897607841512664 39.000000000000000
-5.258667938038984 -4.065453483598470 -3.027691445662497 36.000000000000000
-5.395906800779878 -5.600134217769604 -0.547998668122000 76.000000000000000
-5.469200488710582 -5.603784701576362 -0.681940637201401 43.000000000000000
-5.541408322078214 -5.604898877610183 -0.817115891270285 31.000000000000000
-5.617296241119547 -5.609907446747931 -0.954430394751937 13.000000000000000
-5.697687637477622 -5.617732882472138 -1.095083945150306 17.000000000000000
-5.765674404127681 -5.611712793154584 -1.235021535331301 23.000000000000000
-5.840279708896808 -5.611807744570575 -1.378913615795396 25.000000000000000
-5.365939272277019 -5.089517002363256 -1.383505839846905 18.000000000000000
-5.376056656131371 -5.033230685674747 -1.501619024535748 66.000000000000000
-5.378876246950333 -4.970091219965946 -1.617369341001281 17.000000000000000
-5.290892100267917 -4.824577156241078 -1.702796537111612 16.000000000000000
-5.293273939591638 -4.762337076121843 -1.815075914069513 27.000000000000000
-5.394937627652922 -4.788765446747076 -1.962893142729861 33.000000000000000
-5.663417854566509 -4.958113033587088 -2.178464906935877 5.000000000000000
-5.745006831799856 -4.960821477044279 -2.329967118967393 4.000000000000000
-5.281147298643928 -4.496056822913576 -2.251270808933971 0.000000000000000
-5.113015493362045 -4.291793862942137 -2.285763330411064 2.000000000000000
-5.119641201764698 -4.236812009148080 -2.395578002138926 2.000000000000000
-5.413954206943299 -4.417431039043233 -2.646920259550405 6.000000000000000
-5.737071824258186 -4.611527548291038 -2.923391960489682 70.000000000000000
-5.211904183181191 -4.127270010621797 -2.764361959794764 46.000000000000000
-5.239037109361682 -4.085138708905696 -2.887848315914721 38.000000000000000
-5.268542318538405 -4.046818494837471 -3.016179356008417 35.000000000000000
-5.428969600041769 -5.602322086167836 -0.540995678964615 4.000000000000000
-5.491385907619919 -5.594284701048656 -0.673857178641228 6.000000000000000
-5.558205810738366 -5.589531809731809 -0.808243969028222 10.000000000000000
-5.637121788101907 -5.597150089167060 -0.945922208981232 7.000000000000000
-5.712086163833757 -5.599201425897553 -1.085448777771555 6.000000000000000
-5.794453209482484 -5.606788758692911 -1.228237688117789 7.000000000000000
-5.863600319235267 -5.601149052651622 -1.370947331681231 7.000000000000000
-5.384966983447459 -5.077435780385628 -1.375703632051812 17.000000000000000
-5.363536888403041 -4.991735415702415 -1.485134871438305 20.000000000000000
-5.372023694355092 -4.934173242020123 -1.601973734185454 42.000000000000000
-5.301005915134500 -4.804834363072659 -1.692574084388986 17.000000000000000
-5.280241097110313 -4.721989572447196 -1.796867394686439 35.000000000000000
-5.385033522744690 -4.751015555378919 -1.944958907397134 33.000000000000000
-5.697747384034248 -4.957775764803996 -2.176174214913197 5.000000000000000
-5.773773350616441 -4.955108597764740 -2.325591554867139 4.000000000000000
-5.285271588999718 -4.471829906361754 -2.238038766214968 16.000000000000000
-6.732997350374109 -5.616532316672561 -2.990486150382237 8.000000000000000
-5.161038868213619 -4.244416325863932 -2.399709951958364 1.000000000000000
-5.616085017270842 -4.553576908495884 -2.728829495809336 21.000000000000000
-5.748285398633772 -4.591331011597592 -2.911466729639202 50.000000000000000
-5.218640517806649 -4.106303003826421 -2.751619666064492 38.000000000000000
-5.251642549357433 -4.068724261532051 -2.878078077015815 39.000000000000000
-5.281228077588881 -4.030380495465396 -3.006314530161303 36.000000000000000
-5.467649390103666 -5.610085870703670 -0.534462973675501 34.000000000000000
-5.541551764091150 -5.613069035772296 -0.669115868555313 27.000000000000000
-5.608718133611081 -5.607881840382223 -0.804192863692247 8.000000000000000
-5.690832423727843 -5.617817368407063 -0.943004952411084 12.000000000000000
-5.768996693536359 -5.622138015953877 -1.083801309988500 14.000000000000000
-5.840344583956345 -5.618203337633518 -1.224982611164484 21.000000000000000
-5.909780721623345 -5.612139585708925 -1.368238682704108 14.000000000000000
-5.406828150764681 -5.067982253142467 -1.368598271930657 17.000000000000000
-5.370940146610548 -4.968991827233683 -1.474251729662179 49.000000000000000
-5.370752016196720 -4.903605051366299 -1.588337583995846 64.000000000000000
-5.316818172737660 -4.790289990996803 -1.684182389232951 16.000000000000000
-5.278578425111394 -4.692061318229043 -1.782645897515051 43.000000000000000
-5.369113307230708 -4.708268987125979 -1.925004269861715 38.000000000000000
-5.732124221539525 -4.957294643610408 -2.173807195974713 4.000000000000000
-5.796729048164178 -4.944316267463913 -2.318828365675510 4.000000000000000
-5.295103263135462 -4.452521967229105 -2.227274918835669 33.000000000000000
-6.761669076109929 -5.605454438540695 -2.983770742302960 7.000000000000000
-5.187959712303598 -4.239917919443019 -2.397003558591591 1.000000000000000
-5.670572962863387 -4.568865587221799 -2.738333346899741 26.000000000000000
-5.768152381037592 -4.578056924049354 -2.903940238588617 38.000000000000000
-5.225274401803670 -4.085338698972746 -2.738885017763789 8.000000000000000
-5.261269602452237 -4.050040788126198 -2.866711667542833 44.000000000000000
-5.288034235590018 -4.009507222099314 -2.993149805666488 37.000000000000000
-5.481264818857952 -5.592026965773798 -0.525427825308837 20.000000000000000
-5.558160957602650 -5.597676538915526 -0.660242482014218 27.000000000000000
-5.628327822232845 -5.595130492688853 -0.795623463243172 11.000000000000000
-5.707844848721697 -5.602054009447505 -0.933917586382395 10.000000000000000
-5.783374099625087 -5.603421075845313 -1.074072749192656 10.000000000000000
-5.857759589850732 -5.602069852935878 -1.215681681337172 13.000000000000000
-5.933120825947504 -5.601253382802234 -1.360155067025275 8.000000000000000
-5.408520911131919 -5.039675930815704 -1.356401145017812 19.000000000000000
-5.372464904386633 -4.940939578789299 -1.461804682537081 62.000000000000000
-5.369324101026176 -4.873085809002365 -1.574735976676477 64.000000000000000
-5.326775160022307 -4.770503451102934 -1.673947196773036 16.000000000000000
-5.291296904627114 -4.675026568661600 -1.773331229463821 43.000000000000000
-5.358775599143457 -4.670727999830306 -1.907203195683634 37.000000000000000
-5.568204111510640 -4.786182013146949 -2.096678494568166 8.000000000000000
-5.489696219877466 -4.653724268313522 -2.180936919760133 11.000000000000000
-5.299002867275441 -4.428315635848972 -2.214067126783234 34.000000000000000
-6.816644946873217 -5.615954764551633 -2.988541408576706 10.000000000000000
-5.220747837991222 -4.240062905762409 -2.396926900697563 2.000000000000000
-5.745696278953031 -4.600288436951113 -2.757520728277335 47.000000000000000
-5.782133541110483 -4.560107375940430 -2.893457522179790 38.000000000000000
-5.240569433630264 -4.071185459947271 -2.730724622149601 36.000000000000000
-5.273729684024676 -4.033576508028593 -2.856924880656972 42.000000000000000
-5.300565804397015 -3.993026691144179 -2.983272699078515 37.000000000000000
-5.534037124965351 -5.613729863004021 -0.520067423246324 13.000000000000000
-5.605700692785399 -5.613264290430519 -0.654968509687947 5.000000000000000
-5.684701304927900 -5.618691114724926 -0.792152277698046 12.000000000000000
-5.756083247930430 -5.616767554065879 -0.929862294368085 10.000000000000000
-5.834804796504098 -5.620434170471849 -1.071147385790205 13.000000000000000
-5.915258494318867 -5.624052334885259 -1.214601284315204 10.000000000000000
-5.988088410295900 -5.619991639219034 -1.359215643519477 15.000000000000000
-5.424509200439892 -5.024773456365218 -1.347815880063195 6.000000000000000
-5.431758782470736 -4.965861753952361 -1.465001559618689 37.000000000000000
-5.370643358413257 -4.845235151167686 -1.562013523187503 66.000000000000000
-5.333735287316697 -4.748113013953429 -1.662803263034668 19.000000000000000
-5.271871450810570 -4.629794745979141 -1.753338534405831 28.000000000000000
-5.345309725284872 -4.630754321221318 -1.888432778063612 31.000000000000000
-5.455822927793038 -4.660994901604910 -2.039784966064027 27.000000000000000
-5.365208859473967 -4.520299947848818 -2.116838745795256 23.000000000000000
-5.311575775833569 -4.411431847066421 -2.204526215826464 21.000000000000000
-6.854161900107457 -5.611798983943647 -2.985511817247485 11.000000000000000
-5.256520649629621 -4.242435969275515 -2.398114197992812 3.000000000000000
-5.759521470361047 -4.582349058167472 -2.747130419467153 44.000000000000000
-5.796041017632723 -4.542124992949365 -2.882962550978378 38.000000000000000
-5.255813207709935 -4.056988162657402 -2.722544870836753 51.000000000000000
-5.289048245209683 -4.019308020179305 -2.848704213983384 40.000000000000000
-5.313028719971401 -3.976517415968183 -2.973385118221449 39.000000000000000
-5.550435585634069 -5.598333186775872 -0.511204792202602 38.000000000000000
-5.627940477768369 -5.603315985712070 -0.646652876711994 14.000000000000000
-5.701501011417472 -5.602919405177303 -0.783073659302337 23.000000000000000
-5.778778289259424 -5.606354070549540 -0.921591839816578 17.000000000000000
-5.852006617879072 -5.604290173912665 -1.061854128816897 19.000000000000000
-5.929798912713239 -5.604989529150170 -1.204608331741822 12.000000000000000
-6.005699167499986 -5.603468011100641 -1.349703581554773 10.000000000000000
-5.498351390156120 -5.063149291606769 -1.353464902119783 17.000000000000000
-5.424464538876245 -4.929800346852113 -1.450185162884693 0.000000000000000
-5.368912556408312 -4.814807595587278 -1.548477245269108 67.000000000000000
-5.346428090249976 -4.730890024112038 -1.653472181665957 24.000000000000000
-5.252188923993661 -4.584709920548193 -1.733436601409259 20.000000000000000
-5.334549650113784 -4.593417692992094 -1.870761857687414 25.000000000000000
-5.436521025068780 -4.616182833825893 -2.018127644297122 32.000000000000000
-5.853709781877281 -4.901614832556150 -2.293695233203356 8.000000000000000
-5.365237304000382 -4.428491366365346 -2.211943238374413 7.000000000000000
-6.888772430829654 -5.605096657659488 -2.981128956374707 8.000000000000000
-5.286477500093445 -4.239934514536621 -2.396550636528857 2.000000000000000
-5.776214199040945 -4.566702537799178 -2.738122250385528 42.000000000000000
-5.806934510458225 -4.521820474185660 -2.871001774726839 39.000000000000000
-5.265129313198587 -4.038239982958039 -2.711319817973532 47.000000000000000
-5.295508861974795 -3.998346264009575 -2.835748410178004 32.000000000000000
-5.328353803594113 -3.962159016504922 -2.965118154754188 38.000000000000000
-5.363821930578749 -3.924488985563624 -3.096130568828169 35.000000000000000
-5.594964526718696 -5.611157049186896 -0.504864847379614 3.000000000000000
-5.672825747567170 -5.615728950767338 -0.640859102496439 3.000000000000000
-5.749568660944242 -5.617705904035573 -0.778213716694653 5.000000000000000
-5.824334460217828 -5.617934410647308 -0.916884427386574 5.000000000000000
-5.900750899768400 -5.618184254775358 -1.058206264523444 4.000000000000000
-5.984641637997963 -5.623836386719473 -1.202717240315082 10.000000000000000
-6.063771729881520 -5.624479656979100 -1.349185308294590 11.000000000000000
-5.555054452028711 -5.085210577510629 -1.354661366308942 22.000000000000000
-5.373295387591980 -4.854354604974792 -1.423846216008865 3.000000000000000
-5.367026573468621 -4.784430730119913 -1.534976334790182 66.000000000000000
-5.373685132862109 -4.726509831727689 -1.648620302992239 14.000000000000000
-5.308504980535232 -4.605935732866875 -1.738600269277769 28.000000000000000
-5.344149342896469 -4.573781623348592 -1.860313270053717 44.000000000000000
-5.378709916831268 -4.539236274381437 -1.982462528251343 26.000000000000000
-5.838245235020584 -4.858661981190519 -2.271889154050716 6.000000000000000
-5.702108827025649 -4.677478846523204 -2.335132237172901 9.000000000000000
-5.528100585340235 -4.470018463557735 -2.376774043491283 0.000000000000000
-5.319417698279850 -4.239660533140473 -2.396250803851332 1.000000000000000
-5.786951248906146 -4.546373488949098 -2.726313874403385 40.000000000000000
-5.820685924610845 -4.503781085637999 -2.860487248649535 39.000000000000000
-5.292039521114817 -4.032952993172207 -2.709144488915680 18.000000000000000
-5.310698680601989 -3.984013484948405 -2.827502798513478 46.000000000000000
-5.340687615394157 -3.945584974415448 -2.955205408164128 37.000000000000000
-5.373307241016039 -3.905743360012711 -3.084430919855590 35.000000000000000
-5.700768853959470 -5.611153622681083 -0.633060420811906 23.000000000000000
-5.777769573840975 -5.612848669451564 -0.770566392618637 26.000000000000000
-5.849916331965662 -5.610047741188668 -0.908944030502060 27.000000000000000
-5.923689994766971 -5.607308403113116 -1.049840615653020 12.000000000000000
-6.004932459750040 -5.609998253879033 -1.193784631043029 16.000000000000000
-6.081380345307797 -5.607742852293119 -1.339564555465500 8.000000000000000
-5.597377157665720 -5.093750313663095 -1.352191072629575 21.000000000000000
-5.374258340366062 -4.826447324356806 -1.411507533176802 7.000000000000000
-5.367914261934436 -4.756700176298678 -1.522341587594913 67.000000000000000
-5.383344902542551 -4.706622640756299 -1.638351909019954 1.000000000000000
-5.347357895559382 -4.611672348235070 -1.737879653290976 36.000000000000000
-5.374287291056924 -4.571677952382855 -1.856990256538933 41.000000000000000
-5.367635434141068 -4.502248685382435 -1.964286797065373 27.000000000000000
-5.872756237957723 -4.857374236385552 -2.269571258459742 7.000000000000000
-5.751004866976577 -4.688438374872841 -2.339420574636258 23.000000000000000
-5.540993957969513 -4.452579195490192 -2.366852015997889 9.000000000000000
-5.352407246564781 -4.239246295863902 -2.395876355308221 1.000000000000000
-5.800555680320997 -4.528337754628469 -2.715887880510204 49.000000000000000
-5.831406343749939 -4.483436024781219 -2.848516362208042 40.000000000000000
-5.336695250613864 -4.040983714714243 -2.715936379867852 4.000000000000000
-5.325836618835408 -3.969636927907480 -2.819238012312034 42.000000000000000
-5.355900209715560 -3.931146344658751 -2.946904369070187 37.000000000000000
-5.391535680902690 -3.893360766859607 -3.077770124722043 34.000000000000000
-5.734421139489601 -5.612045902564377 -0.625826639322094 3.000000000000000
-5.811707634527541 -5.613412842412430 -0.763614190159854 3.000000000000000
-5.884121606123711 -5.610294689835321 -0.902278458987974 3.000000000000000
-5.972608879614552 -5.620824977071254 -1.045989363369137 4.000000000000000
-6.059990996428800 -5.628425766983127 -1.191666274072688 10.000000000000000
-6.136773769404246 -5.625648567132028 -1.338174092664103 12.000000000000000
-5.639795531879368 -5.102099088396786 -1.349617446083960 21.000000000000000
-5.363366873798427 -4.788115476470518 -1.396145393941901 9.000000000000000
-5.371601252225835 -4.731592361718388 -1.510559402874991 68.000000000000000
-5.369367697690361 -4.666256885607587 -1.620972919119595 0.000000000000000
-5.359745113627351 -4.594478267120620 -1.728503910873224 37.000000000000000
-5.383772586812945 -4.551960844847546 -1.846507297699163 30.000000000000000
-5.454013087660647 -4.546774437995264 -1.981657752897614 35.000000000000000
-5.877685378351146 -4.831588489756898 -2.255806565015232 7.000000000000000
-5.820786950449483 -4.715990300861300 -2.351973375627189 10.000000000000000
-5.536015269244354 -4.420895259374282 -2.349365030031597 7.000000000000000
-5.385445472089903 -4.238691506603801 -2.395427180899298 1.000000000000000
-5.817052741436401 -4.512571516518706 -2.706830565744985 28.000000000000000
-5.847966998331042 -4.467606163526492 -2.839422679709928 30.000000000000000
-5.402210244149899 -4.064417317278561 -2.733111843486838 2.000000000000000
-5.337961927199167 -3.953024264303783 -2.809395954577725 43.000000000000000
-5.368104544030547 -3.914508298095218 -2.936966868812497 39.000000000000000
-5.406776956669392 -3.878800968687855 -3.069405477634880 38.000000000000000
-5.773831433089201 -5.618358130100185 -0.619130441997680 28.000000000000000
-5.842814126814647 -5.611074670585968 -0.756214335095370 33.000000000000000
-5.924138774772126 -5.615867974922600 -0.896409875826980 15.000000000000000
-5.998468659997595 -5.612425645123458 -1.038003907982625 18.000000000000000
-6.083204420256946 -5.617045499154242 -1.183182083112076 12.000000000000000
-6.154369584000211 -5.608705924917487 -1.328449047321185 17.000000000000000
-5.688166681960897 -5.115524705471950 -1.348328886413128 22.000000000000000
-5.349333460826853 -4.747277246938078 -1.380089223775844 17.000000000000000
-5.369277110349168 -4.701346846858788 -1.497152342886797 68.000000000000000
-5.378786052723695 -4.646409615629427 -1.610739669472209 4.000000000000000
-5.369104267802201 -4.574735634682039 -1.718171479869953 33.000000000000000
-5.313162393285316 -4.464995326129364 -1.808785813804824 17.000000000000000
-5.484354612980894 -4.544147157970597 -1.978445118213525 22.000000000000000
-5.873576311490897 -4.798537583179649 -2.238660844323097 6.000000000000000
-5.551817971349587 -4.470247918806952 -2.228278429057255 7.000000000000000
-5.539789884480825 -4.396362297648348 -2.335686319611446 7.000000000000000
-5.424482861088957 -4.242650452454951 -2.397533488407609 5.000000000000000
-5.839442261158425 -4.501343904809443 -2.700503865805759 0.000000000000000
-5.608717608649687 -4.257586236280051 -2.706876840024605 8.000000000000000
-5.366918552334909 -4.012003552553632 -2.699294120117403 4.000000000000000
-5.355956257013084 -3.940753047880277 -2.802651242767233 42.000000000000000
-5.383204163354068 -3.899990104747830 -2.928632124135163 41.000000000000000
-5.416046371370929 -3.859978673618876 -3.057679895340132 48.000000000000000
-5.793249483105546 -5.605081583213403 -0.610226902077612 5.000000000000000
-5.868182901325420 -5.603107140734599 -0.748013239214990 6.000000000000000
-5.952653546148022 -5.610354658959307 -0.888718380717408 3.000000000000000
-6.044660892488379 -5.622851734025931 -1.033447179096826 5.000000000000000
-6.126813139004132 -5.624330664661636 -1.178586159036797 5.000000000000000
-6.204110435164143 -5.620891308186117 -1.325583120685069 9.000000000000000
-5.736664954024606 -5.128726052931120 -1.346918067015006 22.000000000000000
-5.367484849543850 -4.735144164652555 -1.372392119575923 20.000000000000000
-5.363845522223298 -4.668583478776685 -1.482965109305833 69.000000000000000
-5.367394042113446 -4.608756172435183 -1.594349942680612 45.000000000000000
-5.327945171472417 -4.512270613075119 -1.691824507495519 19.000000000000000
-5.375737513151372 -4.490151838004256 -1.816501764756668 15.000000000000000
-5.464132162151804 -4.499729799984101 -1.957045590085547 6.000000000000000
-5.624986248504105 -4.567189139062709 -2.129088319484972 8.000000000000000
-5.534656013855932 -4.428845997934960 -2.206508992699519 7.000000000000000
-5.540459388829509 -4.369496029787465 -2.320775345957152 5.000000000000000
-5.460617087330191 -4.244116667731401 -2.398235754933626 13.000000000000000
-5.511122380172295 -4.156878606067545 -2.643776534653035 4.000000000000000
-5.414731960803776 -4.021795840547327 -2.707334484249465 3.000000000000000
-5.367960421518115 -3.924069598652504 -2.792780460033735 41.000000000000000
-5.398251257563921 -3.885428371116823 -2.920278365692220 42.000000000000000
-5.431165604074754 -3.845347128400388 -3.049286087466736 38.000000000000000
-5.841372722420036 -5.619395867149803 -0.604267164445356 25.000000000000000
-5.913765114791262 -5.614242059216038 -0.742302005660462 11.000000000000000
-5.995685060914373 -5.618325408619818 -0.883106026015641 22.000000000000000
-6.073471992522070 -5.616895997252682 -1.025823236282357 15.000000000000000
-6.155880865645219 -5.618069645837501 -1.171102140081028 24.000000000000000
-6.227546940920506 -5.609047473714819 -1.317004759385873 15.000000000000000
-5.785289225100109 -5.141702491370046 -1.345384730171865 22.000000000000000
-5.385599592115811 -4.722950999439507 -1.364666585762020 22.000000000000000
-5.370091826984816 -4.646140617416214 -1.472071714607054 69.000000000000000
-5.367673817133893 -4.581340848395350 -1.581523892857590 62.000000000000000
-5.322114481359264 -4.480122166238628 -1.676883664087435 22.000000000000000
-5.414687133947618 -4.495212623756296 -1.816053608427946 18.000000000000000
-5.491406311892291 -4.494546256262747 -1.952718788772216 9.000000000000000
-5.536186561063698 -4.467432047874444 -2.080969307491595 14.000000000000000
-5.583044003073600 -4.439896064833542 -2.210874621777439 2.000000000000000
-5.558942224354448 -4.356735263074445 -2.313361881282926 1.000000000000000
-5.481853183451190 -4.233869836696374 -2.392324367847865 20.000000000000000
-5.619186312126131 -4.211390440429550 -2.679401378642798 4.000000000000000
-5.396931847956886 -3.982849390430245 -2.682575881808023 5.000000000000000
-5.382881073806682 -3.909527418446790 -2.784444416695475 45.000000000000000
-5.410264815993790 -3.868691730325403 -2.910302203643380 50.000000000000000
-5.860788438420273 -5.605912128535876 -0.595258000545644 18.000000000000000
-5.936274467212986 -5.603291219615696 -0.733613629980270 8.000000000000000
-6.021342761647872 -5.609834273911908 -0.874852425266116 5.000000000000000
-6.105210859475160 -5.613513391915435 -1.018628371945653 3.000000000000000
-6.193755355366476 -5.619680086187026 -1.165215141843807 4.000000000000000
-6.277454095803774 -5.620848318596846 -1.313932362948491 8.000000000000000
-5.845854143079011 -5.164892784622101 -1.346450096069110 24.000000000000000
-5.400714908499715 -4.708115205700525 -1.356168753127874 22.000000000000000
-5.364353767793818 -4.613484870150295 -1.457958163614647 66.000000000000000
-5.323159757408733 -4.516076919336319 -1.555674598282675 24.000000000000000
-5.328047373899667 -4.458029146510683 -1.665720057615350 8.000000000000000
-5.450728308551382 -4.497633339849029 -1.814516808033217 16.000000000000000
-5.530664102383930 -4.498991195671979 -1.952561601555189 7.000000000000000
-5.551609057872278 -4.452297482364389 -2.072300170603233 23.000000000000000
-5.583581142322886 -4.412802991973701 -2.196245746979197 1.000000000000000
-5.574386846563433 -4.341576799695132 -2.304679191820323 1.000000000000000
-5.518071637852107 -4.235060989667968 -2.392881069615609 20.000000000000000
-5.682727533379027 -4.231856758157071 -2.693398626237163 5.000000000000000
-5.414855972756853 -3.970404654347875 -2.675669201346115 6.000000000000000
-5.394755373075891 -3.892781941530197 -2.774549913114772 45.000000000000000
-5.425198187217200 -3.854051414000743 -2.901915286091943 52.000000000000000
-5.909070992754780 -5.619859074160679 -0.589101000812174 7.000000000000000
-5.990715222078508 -5.622252590521823 -0.728773583719584 13.000000000000000
-6.070336780759995 -5.622872308745276 -0.869895607356401 15.000000000000000
-6.148693762408810 -5.620716767054170 -1.013297607157487 26.000000000000000
-6.225798735172777 -5.615818938434557 -1.158146691849015 17.000000000000000
-6.300906480995235 -5.608765104039632 -1.305230832251341 15.000000000000000
-5.903646593928569 -5.185190010171398 -1.346679417090183 24.000000000000000
-5.406864166266409 -4.685512429382636 -1.345434190752220 17.000000000000000
-5.370360729826285 -4.591085546565058 -1.447101632803002 34.000000000000000
-5.340955322282386 -4.503966246367634 -1.548166753603913 18.000000000000000
-5.426614797615085 -4.513067502669898 -1.683332871018056 0.000000000000000
-5.483835299317301 -4.497438129650932 -1.811905262402937 14.000000000000000
-5.563998091381450 -4.498408204871050 -1.950206363811894 6.000000000000000
-5.585002657843062 -4.451485776286090 -2.070293625408859 23.000000000000000
-5.583980272598576 -4.385746997089635 -2.181644240647216 1.000000000000000
-5.430326623008911 -4.202962683174745 -2.230483681016562 6.000000000000000
-5.551343105271512 -4.233799081026030 -2.392056660921223 18.000000000000000
-5.722421196648035 -4.234217281811093 -2.695893851501862 6.000000000000000
-5.453777477287034 -3.973224318067761 -2.679066954473448 6.000000000000000
-5.409562475383023 -3.878161937761310 -2.766181087605679 49.000000000000000
-5.449070484014937 -3.845714076401400 -2.898292273530283 15.000000000000000
-5.928482221160820 -5.606167562397788 -0.579986047848485 13.000000000000000
-6.004519562987443 -5.602896603678023 -0.718909219717169 12.000000000000000
-6.090183737399648 -5.608731428104739 -0.860679854593454 5.000000000000000
-6.171690106910018 -5.609027900735125 -1.004513430992315 5.000000000000000
-6.266713282059345 -5.619763905886009 -1.152637966822981 4.000000000000000
-6.356898091520979 -5.625420060601192 -1.303165298725611 6.000000000000000
-5.973492482932728 -5.215585414455667 -1.349441492197232 24.000000000000000
-5.433763494149289 -4.680879205242685 -1.339850796013167 8.000000000000000
-5.322502213932676 -4.523005360707240 -1.421891940231513 21.000000000000000
-5.370689289061455 -4.501833959319629 -1.544073690947785 27.000000000000000
-5.462596556240463 -4.515529636514898 -1.681275398471488 0.000000000000000
-5.522997229552113 -4.501999486872408 -1.811189173598459 6.000000000000000
-5.597376514827126 -4.497682378357111 -1.947775493910337 9.000000000000000
-5.621453115115957 -4.452917480738057 -2.069320367727178 25.000000000000000
-5.590272183813684 -4.363435640176871 -2.169410593897164 1.000000000000000
-5.421090081421461 -4.169587747912070 -2.212162819861008 26.000000000000000
-5.566556559107669 -4.218675622793501 -2.383405979665075 13.000000000000000
-5.753144772911457 -4.229751386950952 -2.694058727368068 6.000000000000000
-5.489764126393284 -3.973689605531761 -2.680899989826963 5.000000000000000
-5.424316720958562 -3.863499205666355 -2.757793683099734 54.000000000000000
-5.587146107626852 -3.917360259984711 -2.955026728393946 2.000000000000000
-5.982734900820958 -5.625212337413728 -0.574189224478484 7.000000000000000
-6.062069800141172 -5.624165163911417 -0.714196014593794 9.000000000000000
-6.145202106428985 -5.626770578333091 -0.856341012649653 17.000000000000000
-6.218233652568438 -5.618559656577407 -0.999478677884688 15.000000000000000
-6.298820259296031 -5.615615277326850 -1.145418874532447 18.000000000000000
-6.377411244621002 -5.610468412413025 -1.293728723611440 8.000000000000000
-6.046552878213548 -5.248223808602962 -1.352680725737035 22.000000000000000
-5.502495951306455 -4.711949924792019 -1.344429325813960 20.000000000000000
-5.340135886145280 -4.510886255933940 -1.414311812695362 14.000000000000000
-5.367431322794876 -4.472064066591354 -1.530499258210486 13.000000000000000
-6.467218456833123 -5.313644115938411 -1.974910539935947 2.000000000000000
-5.559223432943325 -4.503944209137561 -1.809398072174849 4.000000000000000
-5.627781110337045 -4.494403568778013 -1.944226410449410 9.000000000000000
-5.654942840839485 -4.451811389701398 -2.067157666304913 25.000000000000000
-5.551107404970232 -4.305950102801305 -2.139704720439269 2.000000000000000
-5.429818227011338 -4.150173945988445 -2.201256513824356 37.000000000000000
-5.545411505935327 -4.176168364135935 -2.359290788400251 8.000000000000000
-5.823199150034985 -4.253870904332175 -2.710451989670353 8.000000000000000
-5.522790534251123 -3.971824629819823 -2.681182169257213 5.000000000000000
-5.442036287138646 -3.850929735626493 -2.750913524764797 42.000000000000000
-6.005070603734342 -5.614021567786081 -0.565233474414220 20.000000000000000
-6.081701268228386 -5.610028196189996 -0.704917954078667 9.000000000000000
-6.165056432091154 -5.612401954842711 -0.847008551556145 14.000000000000000
-6.244191508236113 -5.609296213209599 -0.991046114438933 6.000000000000000
-6.336879208195374 -5.616593789542084 -1.139198009135576 4.000000000000000
-6.436580045366065 -5.629298404916441 -1.292029716376749 9.000000000000000
-6.066102125224895 -5.234114291013705 -1.343811219981477 7.000000000000000
-5.559486873749451 -4.732481738250690 -1.345919127485482 22.000000000000000
-5.366742625566853 -4.506273496921240 -1.409069466658408 10.000000000000000
-5.379072238024619 -4.454815125685943 -1.521219265613126 4.000000000000000
-6.324990180786556 -5.165337177655874 -1.916333753311174 8.000000000000000
-5.604573767383937 -4.513028260629502 -1.810449890140918 2.000000000000000
-5.733856908352644 -4.551037975151523 -1.966554932684409 2.000000000000000
-5.694533466992072 -4.455301468304389 -2.067118143656039 13.000000000000000
-5.523718955786070 -4.258066000402247 -2.114792385485645 15.000000000000000
-5.438460145008537 -4.130750498883752 -2.190350558044386 38.000000000000000
-5.530082174197122 -4.138355373649757 -2.337834456930474 7.000000000000000
-5.905617415785751 -4.286451168633767 -2.732267065512857 23.000000000000000
-5.558890226276280 -3.971982785201791 -2.682851506563615 5.000000000000000
-5.462745415224921 -3.840429120467288 -2.745526670623681 16.000000000000000
-6.053685802302578 -5.627204998213768 -0.558666371887713 7.000000000000000
-6.133600960035341 -5.625462785214332 -0.699293725999434 7.000000000000000
-6.214373195574337 -5.624676035911937 -0.841642012476295 9.000000000000000
-6.293841156698379 -5.621106063832380 -0.986278922717331 13.000000000000000
-6.377963273816813 -5.620028723785602 -1.133418555375161 10.000000000000000
-6.454118757417135 -5.611510273480771 -1.281876560272495 9.000000000000000
-6.073627791334443 -5.209664991697139 -1.332283801078116 5.000000000000000
-5.601633229023562 -4.740031030999623 -1.343655831178393 21.000000000000000
-5.396372858338488 -4.504065887316469 -1.404554896221506 13.000000000000000
-5.393661780693619 -4.440025061011910 -1.512776934340001 0.000000000000000
-6.263489908793550 -5.084140164460544 -1.882782236627618 10.000000000000000
-5.695475123855487 -4.558272068649477 -1.825956971484634 1.000000000000000
-5.782722331257999 -4.561657914626305 -1.968952896718771 2.000000000000000
-5.764570805378862 -4.482230155994139 -2.077931726133093 5.000000000000000
-5.529485281712692 -4.235986569010388 -2.102709277690642 18.000000000000000
-5.443974542481409 -4.109022151836996 -2.178228210387333 37.000000000000000
-5.535826742406168 -4.116497101451070 -2.325397577147971 7.000000000000000
-5.915382004919548 -4.266010704829877 -2.720305939072089 14.000000000000000
-5.588974418525779 -3.967670090904754 -2.681521769220657 5.000000000000000
-5.592677453857317 -3.906153702237929 -2.794692496789038 2.000000000000000
-6.078967520807132 -5.618489885053907 -0.549855701542602 14.000000000000000
-6.156175992507045 -5.613793157181291 -0.690234407766218 28.000000000000000
-6.234216425212497 -5.610095316620302 -0.832201959890555 12.000000000000000
-6.316864020020451 -5.608941669420891 -0.977250378155507 6.000000000000000
-6.422095851946972 -5.625895063405029 -1.128066311863102 4.000000000000000
-6.513499911741870 -5.629893231989097 -1.279936364098621 13.000000000000000
-6.510471208393780 -5.551383599798788 -1.414032804626785 23.000000000000000
-5.640858592511425 -4.744854336675754 -1.340572886127164 21.000000000000000
-5.416972482006767 -4.494217862966092 -1.397637624485660 12.000000000000000
-5.520175124347923 -4.516816890987248 -1.535463372999399 0.000000000000000
-6.422877538192009 -5.181928427223647 -1.915475372987078 8.000000000000000
-5.671297372670341 -4.511237078450971 -1.804480571453074 1.000000000000000
-5.807373383109787 -4.552970229762206 -1.963000885391316 1.000000000000000
-5.828754408558845 -4.504108798780734 -2.086375319412066 5.000000000000000
-5.522956279717876 -4.204632245297260 -2.086031067393626 17.000000000000000
-5.473782198922413 -4.105599273871365 -2.175813190774206 25.000000000000000
-5.587214939837285 -4.128448437077886 -2.332064904424450 3.000000000000000
-7.067310177941436 -5.144658719234929 -3.091212951474776 30.000000000000000
-5.949439116057794 -4.263028979849410 -2.719489312588953 26.000000000000000
-5.603857086469929 -3.952491419203514 -2.672863134457758 6.000000000000000
-6.115991865858496 -5.620481637402984 -0.542038430711865 3.000000000000000
-6.202349307096697 -5.623465323894632 -0.683740318916292 3.000000000000000
-6.289614936697757 -5.627302058900119 -0.827414941832069 8.000000000000000
-6.372627741224549 -5.625625285329050 -0.973186426560570 9.000000000000000
-6.457336588922429 -5.623748482047248 -1.121050038149459 13.000000000000000
-6.537025434314364 -5.617046121222343 -1.270840408229187 10.000000000000000
-6.494844313878876 -5.505334502236390 -1.396665084034400 6.000000000000000
-5.692236527315343 -4.759601022231275 -1.340239316790832 21.000000000000000
-5.386081791803072 -4.441848527224952 -1.377519725157113 6.000000000000000
-5.541026546715645 -4.506570739983708 -1.528483226638480 0.000000000000000
-6.443096410499748 -5.166723914016727 -1.906318085035376 7.000000000000000
-5.719950618427401 -4.522165793507373 -1.806190869975770 0.000000000000000
-5.886919812117463 -4.586967699795909 -1.975424624410641 1.000000000000000
-5.871766613166433 -4.509261734969694 -2.087050417704876 5.000000000000000
-5.528483545902320 -4.182600211903616 -2.073986776734875 19.000000000000000
-5.583113915408816 -4.161302942403193 -2.204725114184298 47.000000000000000
-5.638742947123207 -4.140157487293044 -2.338599999290097 3.000000000000000
-7.089115271746824 -5.127625184657957 -3.081571130048342 22.000000000000000
-5.962143411590646 -4.244672758246366 -2.708877094854515 41.000000000000000
-5.649221254180091 -3.958667966506368 -2.678665181069905 6.000000000000000
-6.150118891386388 -5.619618686966407 -0.533879607130865 35.000000000000000
-6.227889449543990 -5.614237836346786 -0.674885561551590 21.000000000000000
-6.306486026248399 -5.609846096708154 -0.817472184225242 12.000000000000000
-6.401650630465280 -5.618449077910871 -0.964926507245998 4.000000000000000
-6.504604749452645 -5.631838638663158 -1.116013710246779 6.000000000000000
-6.587602726291621 -5.627251452520745 -1.266912550517338 15.000000000000000
-6.533319323898427 -5.505209713528591 -1.390949539719485 7.000000000000000
-5.740723770603362 -4.771587453015957 -1.339066752574421 21.000000000000000
-5.394358777762718 -4.422037688441352 -1.367530642720139 9.000000000000000
-5.525344346007698 -4.466732641385515 -1.511477875597901 0.000000000000000
-6.350465408184554 -5.061545631739365 -1.864019559251341 2.000000000000000
-5.774833229184763 -4.537666109427659 -1.809691535719592 0.000000000000000
-6.009564577838234 -4.653725652635181 -2.001891888888417 2.000000000000000
-5.911805200378519 -4.511882816290324 -2.086539892942763 5.000000000000000
-5.549228706382882 -4.172094609496185 -2.067661319865765 26.000000000000000
-5.613185641113828 -4.157412205132100 -2.202055111710918 45.000000000000000
-5.604562842041799 -4.088991307406844 -2.309625389009139 2.000000000000000
-7.089411771472295 -5.095101162711032 -3.062627773048947 17.000000000000000
-5.977837164489245 -4.228454959010708 -2.699638400687936 7.000000000000000
-5.820219154121151 -4.052028268083632 -2.743525453253976 11.000000000000000
-6.181324195529706 -5.615925324969608 -0.525393123407654 4.000000000000000
-6.271230756680068 -5.620881248823928 -0.667879317758460 3.000000000000000
-6.362068997054411 -5.626634043970996 -0.812460098679118 5.000000000000000
-6.448644495831431 -5.626838212194444 -0.959280928702019 12.000000000000000
-6.530919746177906 -5.621595337652951 -1.107292702343021 14.000000000000000
-6.611133956700736 -5.614161866567741 -1.257692467392196 11.000000000000000
-6.708061367374999 -5.619022803959764 -1.413856930566609 5.000000000000000
-5.783259188247669 -4.778329687155020 -1.336367674856705 22.000000000000000
-5.426899576373323 -4.422059823211736 -1.363661214486806 32.000000000000000
-5.424028450911453 -4.358383388093593 -1.471378131580361 7.000000000000000
-5.758938730305882 -4.562207698507700 -1.676956056746845 0.000000000000000
-6.420816386369670 -5.014412331789303 -1.996829962547158 5.000000000000000
-6.013126985610419 -4.627814644092674 -1.988459573349465 6.000000000000000
-5.939636301368954 -4.505012197237508 -2.081630541234785 5.000000000000000
-5.585312636322757 -4.172990131427785 -2.066983337508954 26.000000000000000
-5.627914343336607 -4.142084163478378 -2.193329643881126 35.000000000000000
-5.585439987123219 -4.049192247534036 -2.287078112517198 2.000000000000000
-5.546867660869055 -3.961003518701142 -2.381409304937355 0.000000000000000
-5.789379905375974 -4.004365540330616 -2.712945434512379 2.000000000000000
-6.221433902808426 -5.620130993316933 -0.517578796845783 20.000000000000000
-6.302742445838060 -5.616715476854941 -0.659521730869759 20.000000000000000
-6.384897699672409 -5.614232350542867 -0.803166532442601 6.000000000000000
-6.483720288588535 -5.624591283732631 -0.951756329269362 4.000000000000000
-6.578321073463740 -5.629311303551763 -1.102057213636024 7.000000000000000
-6.661859583478429 -5.623974611004019 -1.253555130338831 9.000000000000000
-6.753059567198627 -5.623242448962388 -1.409017686920417 14.000000000000000
-5.841100450730583 -4.797376907906245 -1.337047616191327 23.000000000000000
-5.450327701712670 -4.414524858515773 -1.357436634797284 8.000000000000000
-5.410749422796681 -4.321473655981795 -1.455483467566944 3.000000000000000
-5.783242942582638 -4.553621602210427 -1.670609281355353 0.000000000000000
-6.428432888538337 -4.989641206943012 -1.983962505576892 5.000000000000000
-6.041160781952856 -4.620737299322047 -1.983119567058115 6.000000000000000
-5.949007542018631 -4.484110791806413 -2.070237588251825 11.000000000000000
-5.612213314517433 -4.166864987740748 -2.062823765204763 24.000000000000000
-5.645669399598558 -4.128967358236963 -2.185778942402488 13.000000000000000
-5.550675816830378 -3.998434606556900 -2.258347775153899 5.000000000000000
-5.545898529701940 -3.934961387367396 -2.366239290134772 7.000000000000000
-6.249724921347206 -5.613485258214139 -0.508701939552234 5.000000000000000
-6.340239724406305 -5.617708626521091 -0.651710077082404 3.000000000000000
-6.437678652080543 -5.627961888990121 -0.797547834691546 7.000000000000000
-6.521837257729922 -5.624791985606314 -0.944589806394729 17.000000000000000
-6.604656308356601 -5.618809664658773 -1.093203092212297 18.000000000000000
-6.688427330857364 -5.613187544087219 -1.244775254712415 7.000000000000000
-6.798133974868480 -5.627260082950478 -1.404070660106194 5.000000000000000
-5.893003522837553 -4.811161922723722 -1.336191016717883 24.000000000000000
-5.553301126554961 -4.470944780027620 -1.370802455406025 5.000000000000000
-5.403406078538310 -4.289543184934359 -1.441293174547920 1.000000000000000
-5.782955791612287 -4.525703443599463 -1.657170677042611 1.000000000000000
-6.439015734032642 -4.967246406402366 -1.972045515438940 5.000000000000000
-6.038375263596580 -4.590116122207018 -1.967677351762766 2.000000000000000
-5.970630490896045 -4.472443576033545 -2.063109304030865 6.000000000000000
-5.654563961847717 -4.172023050767712 -2.064244671843896 24.000000000000000
-5.654115892452425 -4.109055146354258 -2.174635435868852 2.000000000000000
-5.527961297481074 -3.956750821415318 -2.234748941331121 9.000000000000000
-5.575685391675387 -3.930738424161374 -2.364197084398640 4.000000000000000
-6.301841194397801 -5.628003823330880 -0.501663757076264 15.000000000000000
-6.377783136267258 -5.618537589811493 -0.643811788196078 10.000000000000000
-6.460520834838871 -5.615313156432893 -0.788127336034300 8.000000000000000
-6.556980546632911 -5.622238020766528 -0.936904343529716 4.000000000000000
-6.655217967573040 -5.628713205407221 -1.088263504564650 4.000000000000000
