# This PCD file was generated using the MATLAB® pcwrite function
# from Computer Vision Toolbox®.
# .PCD v.7 - Point Cloud Data file format
VERSION .7
FIELDS x y z intensity
SIZE 8 8 8 8
TYPE F F F F
COUNT 1 1 1 1
WIDTH 636
HEIGHT 1
VIEWPOINT 0 0 0 1 0 0 0
POINTS 636
DATA ascii
1.984728417805437 -4.594597892051104 -1.838680863530991 27.000000000000000
1.953576310777887 -4.491391673903152 -1.895902009482797 7.000000000000000
2.012462103031010 -4.594890785875594 -2.042065363728490 14.000000000000000
2.043800427281143 -4.634378724604771 -2.164134388243041 41.000000000000000
2.032744655081017 -4.577722972080106 -2.242887772076357 52.000000000000000
2.041905559004161 -4.566363305725100 -2.343826753033432 17.000000000000000
2.250508921233157 -4.998704353195759 -2.684581975800279 72.000000000000000
2.263844075537439 -4.991894124626689 -2.802202535537285 74.000000000000000
2.279992637695468 -4.992717536441683 -2.926227122655065 69.000000000000000
2.295913016036161 -4.990791650931452 -3.051137184688466 65.000000000000000
1.881234315274225 -4.665297598173537 -0.996162522639227 69.000000000000000
1.890686811510328 -4.658595264127389 -1.087901441230211 74.000000000000000
1.899462449332407 -4.650507108349951 -1.179163279093573 73.000000000000000
1.912432157603210 -4.651298134975694 -1.274116518273257 64.000000000000000
1.923098064958932 -4.646989348847915 -1.368257221521318 55.000000000000000
1.936545221877304 -4.648117865635601 -1.464352727584214 46.000000000000000
1.949332898276660 -4.647447863858255 -1.561251294448034 57.000000000000000
1.961274727072579 -4.645172769926424 -1.658503959139215 28.000000000000000
1.975999413533479 -4.647889435339967 -1.758878652599567 23.000000000000000
1.961872689683056 -4.583179965247920 -1.833810501558393 31.000000000000000
1.933885275357781 -4.486877431176908 -1.893572987595057 7.000000000000000
1.989328518008253 -4.583850836480838 -2.036590178787327 18.000000000000000
2.024810401576265 -4.633696686688366 -2.163099131672382 41.000000000000000
2.015275876966406 -4.580422553327411 -2.243356497012206 53.000000000000000
2.024327511763049 -4.569135543335613 -2.344247962939582 18.000000000000000
2.228313455613880 -4.995585982061900 -2.681642004324357 73.000000000000000
2.244429793220018 -4.995425191685802 -2.802742595668969 73.000000000000000
2.258949230225422 -4.993132362570300 -2.924845566028591 70.000000000000000
2.274706308635557 -4.991339922159153 -3.049657848171470 68.000000000000000
1.865313846933209 -4.667060582400254 -0.997259130138720 53.000000000000000
1.879028041484411 -4.671297041263055 -1.091485946589462 63.000000000000000
1.886239372061635 -4.659604582299441 -1.181982304393163 68.000000000000000
1.896147211710876 -4.653248113228047 -1.275054409921668 66.000000000000000
1.906689459203237 -4.649004850025099 -1.369143239623370 64.000000000000000
1.919995103943654 -4.650208051743406 -1.465190730360113 56.000000000000000
1.931179315137452 -4.646084367839193 -1.560855694709001 77.000000000000000
1.942988593002688 -4.643904963755704 -1.657993370030943 39.000000000000000
1.956096229614777 -4.643247295506573 -1.756939979981601 29.000000000000000
1.946442490167739 -4.588953348634094 -1.835813932981648 40.000000000000000
1.917174406152440 -4.489153633624608 -1.894106108460932 7.000000000000000
1.972144031143457 -4.586332854915310 -2.037121219846681 20.000000000000000
2.007308107422940 -4.636327011231811 -2.163608561361421 43.000000000000000
1.996352393443994 -4.579723717847111 -2.242160518200931 55.000000000000000
2.005297662450805 -4.568539013896852 -2.342941860881681 18.000000000000000
2.210520329188716 -5.002245398345946 -2.683953212887701 71.000000000000000
2.223569015830896 -4.995645345378966 -2.801428995179121 74.000000000000000
2.237930090786318 -4.993479417519977 -2.923430898030169 69.000000000000000
2.256399845954109 -4.998191135561082 -3.052035567875462 70.000000000000000
1.855177633157727 -4.683364998275234 -1.001451068381137 41.000000000000000
1.864410983524158 -4.676713231713925 -1.093356772890890 48.000000000000000
1.871525853273972 -4.665056251772205 -1.183865342143346 53.000000000000000
1.884221906192565 -4.665932628628706 -1.278923185074879 56.000000000000000
1.894644366810091 -4.661695149494180 -1.373163157274921 62.000000000000000
1.906357802470842 -4.659355953306897 -1.468243177863299 61.000000000000000
1.914508096109237 -4.648193582994200 -1.561618123916257 90.000000000000000
1.924729987534381 -4.642577393755396 -1.657453956548191 49.000000000000000
1.939153166929861 -4.645506319809155 -1.757606334706122 39.000000000000000
1.932447440113624 -4.598143786981225 -1.839178241890725 45.000000000000000
1.903374066587820 -4.498246454417374 -1.897510473742495 7.000000000000000
1.952060912612117 -4.581949301365898 -2.034600401347769 21.000000000000000
1.986911020412646 -4.632146848293110 -2.160938724908918 44.000000000000000
1.978902607172762 -4.582312777335372 -2.242573985846140 54.000000000000000
1.990625411265015 -4.577839456613353 -2.346710971018788 18.000000000000000
2.189825932570935 -5.002277846388894 -2.682710333332082 70.000000000000000
2.202732990658177 -4.995798309562129 -2.800082609860337 74.000000000000000
2.216935484460877 -4.993758828541790 -2.921983199831774 69.000000000000000
2.235218077517925 -4.998611725015615 -3.050492578006623 68.000000000000000
1.844956007271642 -4.699654200225266 -1.005630016227288 32.000000000000000
1.851212358485453 -4.685724037918371 -1.096056131895022 35.000000000000000
1.859671010982379 -4.677702532650372 -1.187563365445432 43.000000000000000
1.869352432674773 -4.671395009003201 -1.280802151900479 48.000000000000000
1.879652248476875 -4.667202584095511 -1.375057621995536 54.000000000000000
1.891236531166313 -4.664912183658641 -1.470154652387012 57.000000000000000
1.900727997613275 -4.657324713372605 -1.564731156875772 72.000000000000000
1.910828819289056 -4.651730371031348 -1.660648601781531 54.000000000000000
1.923657654282892 -4.651203108593226 -1.759566671578987 50.000000000000000
1.914083094373204 -4.596907531358371 -1.838366409608101 48.000000000000000
1.898179611135278 -4.527933946894436 -1.909594809490041 6.000000000000000
1.936347774937762 -4.587729186752925 -2.036589846657622 32.000000000000000
1.970877247448884 -4.638045248534326 -2.162969058501872 44.000000000000000
1.960021925152351 -4.581494885522632 -2.241319849296846 55.000000000000000
1.967319248789362 -4.567159882207114 -2.340239642365876 18.000000000000000
2.169156743028628 -5.002243647249896 -2.681434973614218 69.000000000000000
2.184770442594976 -5.002406255057444 -2.802357181468041 74.000000000000000
2.195965675628432 -4.993970723726299 -2.920502552990901 70.000000000000000
2.214060831485833 -4.998964265063691 -3.048916350295050 68.000000000000000
1.830382364404197 -4.704960579261553 -1.007447441642933 25.000000000000000
1.839398182614495 -4.698341833166984 -1.099588261354037 24.000000000000000
1.849179607307145 -4.693946456606881 -1.192165023152035 32.000000000000000
1.858751219887536 -4.687625421179646 -1.285623511482631 37.000000000000000
1.864642114626280 -4.672668427967597 -1.376929753704544 45.000000000000000
1.876097084388418 -4.670426465099626 -1.472043601272154 49.000000000000000
1.885474789853498 -4.662881517734399 -1.566634854839458 59.000000000000000
1.895454366246943 -4.657331619565742 -1.662567571820325 55.000000000000000
1.908143505605615 -4.656856910509710 -1.761503924790710 55.000000000000000
1.897177526240180 -4.599079716764433 -1.838912502751335 55.000000000000000
1.904240112989303 -4.585177261952131 -1.933288149386852 24.000000000000000
1.919187761538548 -4.590050265830613 -2.037040228642768 40.000000000000000
1.951972501576575 -4.637124699023289 -2.161817263044463 44.000000000000000
1.942591990412593 -4.583973707353996 -2.241678257259971 56.000000000000000
1.949791268389782 -4.569705815318780 -2.340548391115357 19.000000000000000
2.148513021156307 -5.002142931113296 -2.680127216128943 69.000000000000000
2.162548754714702 -4.999168481505063 -2.799120107642445 74.000000000000000
2.175020927961774 -4.994115232001010 -2.918989039449069 71.000000000000000
2.192928373415622 -4.999248883768822 -3.047306966356507 69.000000000000000
1.820023989500716 -4.721206073605414 -1.011595713807278 17.000000000000000
1.828934391090336 -4.714578801777791 -1.103957297595567 8.000000000000000
1.835771197882848 -4.702922163664336 -1.194910553781551 24.000000000000000
1.843811707725385 -4.693017681179371 -1.287462399681089 28.000000000000000
1.852450944864540 -4.685267615856739 -1.380894226461456 36.000000000000000
1.862359092573076 -4.679465408914128 -1.475034269800712 40.000000000000000
1.873043513063880 -4.675485442869759 -1.570897791609082 46.000000000000000
1.881481588616272 -4.666412033272458 -1.665720795159859 52.000000000000000
1.889771247798838 -4.655472219390636 -1.760772286661410 54.000000000000000
1.881695945850710 -4.604673136363431 -1.840820924104777 54.000000000000000
1.890080628046135 -4.594252960172673 -1.936661807706590 52.000000000000000
1.903448672484109 -4.595738681475130 -2.038981393444220 49.000000000000000
1.933095509567157 -4.636142662630662 -2.160635777410706 47.000000000000000
1.923755024382466 -4.583037175787673 -2.240366231559330 57.000000000000000
1.932267558223297 -4.572198573369111 -2.340830256366158 18.000000000000000
2.127895026834503 -5.001975828989346 -2.678787143649030 69.000000000000000
2.141776822334903 -4.999124895744259 -2.797677308064487 73.000000000000000
2.155497552061328 -4.997429160044939 -2.919333501570206 70.000000000000000
2.171820968158411 -4.999465710034064 -3.045664508192103 69.000000000000000
1.809580309185718 -4.737435443393015 -1.015730537244472 12.000000000000000
1.819786839147549 -4.734446938691086 -1.109167275384547 4.000000000000000
1.823726356120916 -4.715495027518683 -1.198559478472592 20.000000000000000
1.833071770500906 -4.709202543431418 -1.292252022297407 21.000000000000000
1.840195903533498 -4.697841616275535 -1.384841935026597 27.000000000000000
1.847172167887140 -4.684899771721772 -1.476879518141007 32.000000000000000
1.857730906848673 -4.680965865037441 -1.572758865208994 38.000000000000000
1.866059026438605 -4.671932082560414 -1.667595372321987 43.000000000000000
1.877059912816099 -4.668035330961762 -1.765309103979110 47.000000000000000
1.835233562782032 -4.533734218669599 -1.812133495221233 51.000000000000000
1.808381428620558 -4.437658063818901 -1.870209484855468 47.000000000000000
1.889095531333266 -4.604807074858684 -2.042417654846355 54.000000000000000
1.914246513107817 -4.635099277183803 -2.159424686740601 46.000000000000000
1.906345797306283 -4.585406049436139 -2.240669779973644 55.000000000000000
1.914748319041291 -4.574638196524408 -2.341085270900757 19.000000000000000
2.107303019226641 -5.001742472711643 -2.677414839323689 69.000000000000000
2.119641657031316 -4.995740859040354 -2.794370862124833 73.000000000000000
2.134591968152530 -4.997443491936441 -2.917755931259641 69.000000000000000
2.152118442959943 -5.002821810657582 -3.045941584843753 70.000000000000000
1.801827662160156 -4.760984230662780 -1.021425587722771 9.000000000000000
1.809140150011052 -4.750654966875411 -1.113510351689634 8.000000000000000
1.813010793450229 -4.731677093477936 -1.203115848906147 15.000000000000000
1.820851085970742 -4.721754953246275 -1.296035294354841 16.000000000000000
1.829272384280898 -4.713985901691218 -1.389832890229508 20.000000000000000
1.836156453082363 -4.701016744499702 -1.482083347095372 24.000000000000000
1.845194041953655 -4.693509790615724 -1.576984715503950 28.000000000000000
1.854808523483327 -4.687999695776647 -1.673226880495191 35.000000000000000
1.864283709883196 -4.680571931952787 -1.769828420745894 36.000000000000000
1.790663669527899 -4.466050482316167 -1.784752283101613 56.000000000000000
1.797490077764390 -4.453374017063750 -1.876386230092313 32.000000000000000
1.873307691449865 -4.610412260928925 -2.044313351086622 56.000000000000000
1.896816380991667 -4.637394530644847 -2.159767483769246 43.000000000000000
1.886165550299392 -4.580980453846545 -2.237653592122716 56.000000000000000
1.894464067010710 -4.570342937638295 -2.337895491929653 19.000000000000000
2.088118287389288 -5.004753016771026 -2.677781406125554 68.000000000000000
2.101687826049688 -5.002115676602844 -2.796526960306052 75.000000000000000
2.115084758823008 -5.000635855058838 -2.918039326002064 70.000000000000000
2.131050183349338 -5.002907613905945 -3.044234636615365 71.000000000000000
1.799451372869156 -4.799219954588167 -1.030265297951002 4.000000000000000
1.803924334927022 -4.781468191178194 -1.121268447165629 7.000000000000000
1.807733151890654 -4.762394795551723 -1.211359840368398 11.000000000000000
1.811332341579790 -4.741520868484604 -1.301789154230469 12.000000000000000
1.816878238880174 -4.726512855175195 -1.393748074419225 14.000000000000000
1.825053534168412 -4.717115987570360 -1.487272791799636 17.000000000000000
1.832592892454959 -4.706027532840571 -1.581193267968869 21.000000000000000
1.842085125706820 -4.700514845027238 -1.677582362010355 26.000000000000000
1.852827485214537 -4.696591931832886 -1.775657212379634 20.000000000000000
1.828222334998234 -4.603770116476734 -1.839445516575415 38.000000000000000
1.798955589299827 -4.500204219350662 -1.895662620791317 52.000000000000000
1.860263649217938 -4.622837534101337 -2.049228217818167 49.000000000000000
1.879391197250378 -4.639636992273219 -2.160083634405785 39.000000000000000
1.868789656608556 -4.583235531329934 -2.237901088901764 56.000000000000000
1.878350991663880 -4.576013162991462 -2.339804497013415 19.000000000000000
2.064828747369823 -4.997763362444561 -2.672801454848827 66.000000000000000
2.080982249748845 -5.001876526553143 -2.794988388052250 74.000000000000000
2.095580096391933 -5.003769606831842 -2.918292956738903 69.000000000000000
2.110007753223386 -5.002925983822103 -3.042494844980816 71.000000000000000
2.515048255871506 -6.771010140746125 -1.454433891433659 49.000000000000000
1.835459312160617 -4.911103515797788 -1.152204569736415 6.000000000000000
1.813233610887154 -4.822264578513956 -1.227014346761581 7.000000000000000
1.807188706726497 -4.775771144400929 -1.311511705852317 7.000000000000000
1.809909146167429 -4.753429104934653 -1.401897509441983 10.000000000000000
1.815236540494039 -4.736780199310753 -1.493577465507835 11.000000000000000
1.822674590249561 -4.725641137280422 -1.587777433931340 15.000000000000000
1.829297252007659 -4.713003268829129 -1.681920257266426 19.000000000000000
1.845402326540671 -4.723135796312817 -1.785456385013863 10.000000000000000
1.803121558948787 -4.584746871600254 -1.831497957139395 37.000000000000000
1.806976764324910 -4.564406395090887 -1.922241720919429 39.000000000000000
1.848523692348255 -4.638671399993759 -2.055647781529487 36.000000000000000
1.861971160857497 -4.641826704252293 -2.160373172353629 38.000000000000000
1.851418981743236 -4.585437982089966 -2.238122040114781 57.000000000000000
1.859496887735872 -4.574940365249224 -2.338266019706463 19.000000000000000
2.045685497499250 -5.000646209587685 -2.673105372382010 64.000000000000000
2.061656904573308 -5.004857223722123 -2.795252936315727 74.000000000000000
2.073380243182768 -5.000338161353233 -2.914724110322268 70.000000000000000
2.088991414691102 -5.002877052600804 -3.040722293453839 72.000000000000000
2.007962743003452 -5.457195645746295 -1.172913171022362 0.000000000000000
1.867554582687667 -5.044629534074028 -1.184067880077130 25.000000000000000
1.865902137764669 -5.009827360828753 -1.275168626879146 68.000000000000000
1.835473781343753 -4.897102836482688 -1.345146760362185 11.000000000000000
1.806865489576336 -4.791174586251579 -1.413232884784064 5.000000000000000
1.810755027650625 -4.770782239938327 -1.504394578867869 7.000000000000000
1.815369230978797 -4.752374512284283 -1.596745142534081 9.000000000000000
1.820529934663090 -4.736091701451762 -1.690032589163697 12.000000000000000
1.835096052519108 -4.742648177689469 -1.792588837599842 12.000000000000000
1.791772548109855 -4.600555921830556 -1.837460297788694 25.000000000000000
1.795551340242626 -4.580163579187885 -1.928406848264578 31.000000000000000
1.842125055601782 -4.668246184329520 -2.068148167326750 26.000000000000000
1.843201175521418 -4.640551539118094 -2.159048595873920 37.000000000000000
1.834053723964554 -4.587587849147658 -2.238316479849204 59.000000000000000
1.840671679358626 -4.573806473117514 -2.336698122410215 20.000000000000000
2.023854366081062 -4.996826813153565 -2.669829826832453 60.000000000000000
2.040992879705431 -5.004489615289109 -2.793651330330110 72.000000000000000
2.055242113069387 -5.006604029841635 -2.916813320224586 71.000000000000000
2.070666379434514 -5.009207810162333 -3.042833196165747 72.000000000000000
1.993718369440421 -5.470350238173957 -1.176416310268590 0.000000000000000
1.851762485727603 -5.050027840656416 -1.185857708600412 25.000000000000000
1.850077326094702 -5.015236572986611 -1.276962021536969 77.000000000000000
1.861653704601873 -5.015013821794652 -1.377845365543870 76.000000000000000
1.861602230714593 -4.984255548158148 -1.470385583870151 50.000000000000000
1.820918084384397 -4.844306689766288 -1.527666856826920 6.000000000000000
1.814657328519630 -4.796958674835405 -1.611701663451196 6.000000000000000
1.815677889658549 -4.769815932697393 -1.701931188148090 8.000000000000000
1.816580523522383 -4.741015151703964 -1.791721667244272 32.000000000000000
1.801915477081377 -4.672301989414030 -1.865752055652705 22.000000000000000
1.808292118122020 -4.658383961791100 -1.960857587910258 24.000000000000000
1.835543448681004 -4.697833343902798 -2.080643679470204 20.000000000000000
1.827147324593170 -4.646048051004999 -2.160872546446152 36.000000000000000
1.815353347608080 -4.586297954591618 -2.236832424442404 59.000000000000000
1.821875605604613 -4.572611628146408 -2.335100892005114 21.000000000000000
2.002074148266781 -4.992933740718655 -2.666519785344760 58.000000000000000
2.021685962985648 -5.007350217055165 -2.793855699713998 72.000000000000000
2.033107495899929 -5.003035254129444 -2.913178359807969 72.000000000000000
2.048358726943508 -5.005805289218295 -3.039038652631537 72.000000000000000
1.972753745828414 -5.465035271358488 -1.175932030828149 1.000000000000000
1.831952934097997 -5.044368399261969 -1.185036666005311 25.000000000000000
1.832899961682954 -5.016947846863249 -1.277801249145123 74.000000000000000
1.844331484344519 -5.016793127243179 -1.378632690132195 76.000000000000000
1.853594627760627 -5.011380103190145 -1.478577836059660 77.000000000000000
1.864075368903534 -5.007812805698099 -1.579309318067013 74.000000000000000
1.864534052427443 -4.977365588843251 -1.672282440958337 38.000000000000000
1.830694321768234 -4.856814806123166 -1.732827815816773 7.000000000000000
1.806121584515242 -4.760479976759654 -1.798820506003466 42.000000000000000
1.788865447708046 -4.684635931118699 -1.870307622523080 17.000000000000000
1.797814022114231 -4.677650284546775 -1.968478741914405 20.000000000000000
1.823443147539904 -4.713639483512381 -2.087027049935599 15.000000000000000
1.808412248012941 -4.644659552567508 -2.159492250965533 36.000000000000000
1.798011344150126 -4.588338773850031 -2.236972620013903 62.000000000000000
1.803108904792434 -4.571355972647969 -2.333474415714468 21.000000000000000
1.980345138340877 -4.988967227455218 -2.663175385968310 56.000000000000000
2.002382689956896 -5.010152883333508 -2.794030717187253 71.000000000000000
2.014964233709172 -5.009188325876923 -2.915209675610171 72.000000000000000
2.026101558893825 -5.002327786449024 -3.035208920316363 73.000000000000000
1.953158790175520 -5.463341597212520 -1.176209731522171 1.000000000000000
1.814838554697832 -5.045992238562649 -1.185912032466063 24.000000000000000
1.814404829361283 -5.014949510965889 -1.277682479199524 76.000000000000000
1.827014843354776 -5.018520270410646 -1.379393728287459 74.000000000000000
1.837475377423940 -5.016789275560630 -1.480353201766591 77.000000000000000
1.849148846647380 -5.016867189303997 -1.582235174627233 78.000000000000000
1.861501469123833 -5.018608729447882 -1.686096883681163 77.000000000000000
1.870357093112161 -5.011481718767285 -1.787852154599571 73.000000000000000
1.788920609054940 -4.762281344780875 -1.799237462829893 36.000000000000000
1.778401334864451 -4.703952408325985 -1.877643318726034 13.000000000000000
1.785900201797258 -4.693425215354487 -1.974623056964340 15.000000000000000
1.819186686498699 -4.750137553341439 -2.102562489915885 15.000000000000000
1.789706772778463 -4.643210527282746 -2.158082868381466 38.000000000000000
1.780675363875600 -4.590327174899730 -2.237086425658063 61.000000000000000
1.786999755300556 -4.576770194096627 -2.335252976656807 21.000000000000000
1.959977774953513 -4.988261909170913 -2.661575895442928 54.000000000000000
1.981776898409028 -5.009595348307824 -2.792335719634174 72.000000000000000
1.994197581388469 -5.008752181975568 -2.913410644921065 70.000000000000000
2.007786232394535 -5.008481895968611 -3.037230241974029 74.000000000000000
1.933591173556249 -5.461585612591365 -1.176457296241722 2.000000000000000
1.796419681640186 -5.043885592839866 -1.185896476830167 25.000000000000000
1.797250512968496 -5.016553522347139 -1.278468361384431 76.000000000000000
1.808390694460630 -5.016552192292613 -1.379126969568926 74.000000000000000
1.820024464451008 -5.018530200670087 -1.481035304698058 76.000000000000000
1.831551596805749 -5.018678640957678 -1.582866844378739 79.000000000000000
1.842435788122360 -5.016913111262261 -1.685475956722838 77.000000000000000
1.855111048954934 -5.020548109544182 -1.790920343230729 84.000000000000000
1.763839842548500 -4.742825913796503 -1.791618084653883 32.000000000000000
1.767825661170249 -4.723256512266150 -1.884965875299440 11.000000000000000
1.775210213145236 -4.712662752752060 -1.982216556778855 12.000000000000000
1.809458627879195 -4.772837364484256 -2.111979868790544 47.000000000000000
1.772339134525797 -4.645129258558335 -2.158237281559564 38.000000000000000
1.762040388667750 -4.588864044642082 -2.235517937412878 61.000000000000000
1.768268796513054 -4.575401243823612 -2.333570851998202 21.000000000000000
1.937041913259397 -4.980814823945004 -2.656384067834710 51.000000000000000
1.962493421016269 -5.012278311103448 -2.792450841914649 66.000000000000000
1.974748364981805 -5.011523187410890 -2.913482493004665 72.000000000000000
1.986880569042847 -5.008106356173942 -3.035297733272659 74.000000000000000
1.914051137615916 -5.459767452650366 -1.176674808760240 3.000000000000000
1.776731064596544 -5.038037127835036 -1.184986338593542 26.000000000000000
1.781402540275445 -5.021771447613934 -1.280162691781654 76.000000000000000
1.792399082214271 -5.021818244620113 -1.380837082380825 75.000000000000000
1.802579455757845 -5.020218636893074 -1.481690974350315 77.000000000000000
1.815263296850937 -5.024043808529377 -1.584609407104321 79.000000000000000
1.815579124163950 -4.993647505766576 -1.677599783038645 68.000000000000000
1.835914641492328 -5.018890189794843 -1.790154935176055 81.000000000000000
1.639912964687091 -4.454381615295462 -1.682398850917636 9.000000000000000
1.758440013557946 -4.746060796405286 -1.893676750541959 7.000000000000000
1.765708615476388 -4.735374248524319 -1.991262868544784 9.000000000000000
1.793102501640766 -4.778231129296620 -2.113732881333488 44.000000000000000
1.756274000204868 -4.650427621572983 -2.159959391450549 38.000000000000000
1.746022260525465 -4.594146904779914 -2.237235008453669 63.000000000000000
1.750858137256928 -4.577344984227090 -2.333579370531952 22.000000000000000
1.915468280629094 -4.976629408843105 -2.652937427257145 50.000000000000000
1.941931599920685 -5.011593320880396 -2.790693470687260 40.000000000000000
1.955303266235532 -5.014235939045195 -2.913524855675032 67.000000000000000
1.967275846774279 -5.010907565768952 -3.035297532371091 72.000000000000000
1.894538923275234 -5.457887253308182 -1.176862353196493 4.000000000000000
1.760956522410469 -5.043181847573297 -1.186647790410962 25.000000000000000
1.761671509765232 -5.015937448619026 -1.279026584251765 79.000000000000000
1.775100352864761 -5.023389164496983 -1.381519467569566 73.000000000000000
1.783849774034225 -5.018223497508505 -1.481248430457075 78.000000000000000
1.796374748213214 -5.022142828753940 -1.584050242756614 83.000000000000000
1.662314053081782 -4.618587646690030 -1.551536057837220 7.000000000000000
1.748312893562274 -4.828180029687795 -1.721956917907027 38.000000000000000
1.661201309204773 -4.558403067326683 -1.721416767108719 3.000000000000000
1.662505023842729 -4.533230046300692 -1.808380046620263 4.000000000000000
1.759936667847331 -4.768552632790174 -2.004700654331298 6.000000000000000
1.775442333534898 -4.780115616897009 -2.113929802379793 42.000000000000000
1.737623137005821 -4.648809513062995 -2.158467035883812 39.000000000000000
1.727424058680303 -4.592571374242501 -2.235611391539419 63.000000000000000
1.732175646018939 -4.575859171656764 -2.331840554691412 22.000000000000000
1.890123440134477 -4.962333068126833 -2.644108148701401 48.000000000000000
1.923939599952126 -5.017470919884550 -2.792593415420323 45.000000000000000
1.934596405503550 -5.013609318656412 -2.911632248017309 52.000000000000000
1.946413817421247 -5.010402927715787 -3.033301790671136 71.000000000000000
1.873780956345130 -5.452238666766442 -1.176220408025308 6.000000000000000
1.741338197394236 -5.037211956987647 -1.185679966380671 26.000000000000000
1.745824637035313 -5.021056060148139 -1.280670284487841 77.000000000000000
1.756529578574175 -5.021253621142375 -1.381170486130740 74.000000000000000
1.765149749943019 -5.016168412413389 -1.480777099560304 78.000000000000000
1.777515836819468 -5.020181412885085 -1.583462039828899 80.000000000000000
1.631830659687018 -4.580366892166246 -1.538625305671511 22.000000000000000
1.646636479532229 -4.594168787602396 -1.638323977512882 8.000000000000000
1.657512644512311 -4.595228777587702 -1.735044758763196 6.000000000000000
1.612748007798572 -4.443104381299469 -1.772052854804052 13.000000000000000
1.765446871061525 -4.833200197522995 -2.031353537945269 7.000000000000000
1.756513891846589 -4.778479254887461 -2.112566912161628 42.000000000000000
1.721547563739278 -4.654010901335445 -2.160139003868543 37.000000000000000
1.710126028576590 -4.594346715647076 -2.235618756140629 63.000000000000000
1.716056595036679 -4.581074906614783 -2.333517187126650 23.000000000000000
1.864902649938501 -4.947941381953072 -2.635237785667298 44.000000000000000
1.902151948465860 -5.013344849808703 -2.788929432926561 73.000000000000000
1.916426291358716 -5.019486840398153 -2.913521259379934 64.000000000000000
1.928079042913416 -5.016334029909644 -3.035208082594759 73.000000000000000
1.856861231625448 -5.457651448034581 -1.177948656883000 7.000000000000000
1.723036844704819 -5.034869983081554 -1.185551468833812 25.000000000000000
1.726164647202302 -5.015100372458782 -1.279476402640055 77.000000000000000
1.737988660270404 -5.019058684222784 -1.380793011678198 74.000000000000000
1.749014419814252 -5.021330815773830 -1.482425511734718 77.000000000000000
1.759954776253318 -5.021777699624514 -1.583986086143766 79.000000000000000
1.616831021908276 -4.585168269387368 -1.540158884011090 40.000000000000000
1.625117776752001 -4.581161074870352 -1.633505254897379 26.000000000000000
1.633321308748682 -4.575288619556574 -1.727232338205716 13.000000000000000
1.607927648443476 -4.476088233592983 -1.784825706465893 9.000000000000000
1.679480531262707 -4.646038378299769 -1.952182504909618 19.000000000000000
1.738878624005082 -4.780253666470876 -2.112709164833139 41.000000000000000
1.701673655704814 -4.648836886607391 -2.156993827343675 37.000000000000000
1.691577337748257 -4.592655291477450 -2.233939006347465 65.000000000000000
1.697411551792163 -4.579476499868194 -2.331723184899413 23.000000000000000
1.846059899623279 -4.950223939952978 -2.635253648383643 41.000000000000000
1.882910806325985 -5.015789281900047 -2.788925379962224 73.000000000000000
1.893267943948739 -5.012158617516604 -2.907751448330850 71.000000000000000
1.906012058304049 -5.012449689694798 -3.031182300997102 73.000000000000000
1.838673204325122 -5.459303413147586 -1.178849901765240 8.000000000000000
1.704765443052338 -5.032469532152230 -1.185394951960776 25.000000000000000
1.710319646162108 -5.020119854373681 -1.281069613906709 79.000000000000000
1.720732921801222 -5.020466398401824 -1.381394713450013 74.000000000000000
1.730350999968682 -5.019163686162422 -1.481899223434521 78.000000000000000
1.692150868024552 -4.878452606018702 -1.538788357985948 48.000000000000000
1.599303203732338 -4.582728089661998 -1.539251934789877 40.000000000000000
1.608724772820799 -4.582382525577886 -1.633753651745300 35.000000000000000
1.613045651727045 -4.565913077090455 -1.723404043716633 23.000000000000000
1.624223937490051 -4.569070814347066 -1.821507204039049 18.000000000000000
1.637398625227023 -4.577494371002182 -1.922876757763741 18.000000000000000
1.719999267682103 -4.778499774395423 -2.111289280339368 39.000000000000000
1.685600284356375 -4.653937580382703 -2.158614527718948 37.000000000000000
1.675551216519868 -4.597740990987527 -2.235554942427455 64.000000000000000
1.678797466655447 -4.577818134476272 -2.329900468606208 24.000000000000000
1.825983970205331 -4.949092467351808 -2.633454440493467 36.000000000000000
1.863674856437689 -5.018176159490965 -2.788892264286748 75.000000000000000
1.875107622083809 -5.017920014647864 -2.909581779603313 72.000000000000000
1.885223262003261 -5.011750309754255 -3.029091627052558 74.000000000000000
1.816773074801349 -5.449748806871098 -1.177314544496881 10.000000000000000
1.687765223155338 -5.033712006485914 -1.186082622445410 26.000000000000000
1.693216155219759 -5.021411226099151 -1.281699009170344 79.000000000000000
1.703484151212350 -5.021822332194950 -1.381970408668873 73.000000000000000
1.712961891027537 -5.020583007182554 -1.482420934781056 77.000000000000000
1.663873074651090 -4.847167325911725 -1.528920961353105 36.000000000000000
1.583051697827628 -4.583835035393246 -1.539528398668392 44.000000000000000
1.592339902241710 -4.583554499871441 -1.633977289449623 41.000000000000000
1.555545876732550 -4.449756601790440 -1.679273417345353 16.000000000000000
1.600155869108542 -4.549174981789740 -1.813177371250757 13.000000000000000
1.619377050786429 -4.575364161857416 -1.921473589143765 33.000000000000000
1.702389744171260 -4.780164430742646 -2.111377080012795 39.000000000000000
1.668273755305714 -4.655542511299016 -2.158611267191434 38.000000000000000
1.657040989566284 -4.595937879548924 -2.233820531337405 63.000000000000000
1.662675972803845 -4.582884391414171 -2.331500646449224 24.000000000000000
1.802257158070143 -4.937813072464922 -2.626261068054634 33.000000000000000
1.841998100638815 -5.013847030134401 -2.785131407250912 75.000000000000000
1.855710225106143 -5.020334611250144 -2.909474858375712 71.000000000000000
1.865677186638022 -5.014247364523839 -3.028939748926045 74.000000000000000
1.801086760717668 -5.458723509598538 -1.179766131961657 14.000000000000000
1.669542812584906 -5.031198632857053 -1.185871457487450 29.000000000000000
1.676119882963894 -5.022651295229426 -1.282302657122441 79.000000000000000
1.686242542057247 -5.023126533319288 -1.382520133531538 75.000000000000000
1.694347633474410 -5.018300507854310 -1.481838759720109 77.000000000000000
1.643210861458090 -4.837539300863425 -1.525875347919338 34.000000000000000
1.565575848611166 -4.581285636387875 -1.538568874009731 43.000000000000000
1.573498982477817 -4.577507890535003 -1.631620808959929 46.000000000000000
1.544405634760616 -4.465051040021169 -1.684751152344325 20.000000000000000
1.557781434992962 -4.476149756470517 -1.783674958741136 7.000000000000000
1.602616321730099 -4.576685694489963 -1.921516322901063 33.000000000000000
1.683560364384788 -4.778293464100236 -2.109900488271788 38.000000000000000
1.652179506641030 -4.660550130125242 -2.160183177979355 38.000000000000000
1.641006036267125 -4.600927049015076 -2.235386650800320 64.000000000000000
1.644100611192818 -4.581113987538066 -2.329623105452571 24.000000000000000
1.779846885861989 -4.929812688621626 -2.620818940330027 32.000000000000000
1.824008230103245 -5.019444459144737 -2.786888461721571 75.000000000000000
1.833905237441962 -5.016091148411481 -2.905515646302895 75.000000000000000
1.846136379361389 -5.016686059019658 -3.028758401397550 71.000000000000000
1.780495661484292 -5.452760062564884 -1.178973663629947 14.000000000000000
1.650133209320017 -5.024918755400428 -1.184758158074563 25.000000000000000
1.660250000521088 -5.027531396033087 -1.283823195643129 79.000000000000000
1.669008287588130 -5.024379050074526 -1.383043924513730 75.000000000000000
1.676984667683677 -5.019611971867524 -1.482307011464930 80.000000000000000
1.626289920470128 -4.838736629169525 -1.526234886284022 34.000000000000000
1.548132201602853 -4.578679986791878 -1.537582604256381 48.000000000000000
1.557154621542388 -4.578573778164672 -1.631792769475359 39.000000000000000
1.528300440213783 -4.466068975658592 -1.684835205324890 26.000000000000000
1.576844038809449 -4.579887142861125 -1.824602048646901 34.000000000000000
1.585863835690242 -4.577956729372288 -1.921533782852855 37.000000000000000
1.664762270495366 -4.776362295382873 -2.108395078247897 35.000000000000000
1.633643501579396 -4.658596031417636 -2.158526331969862 37.000000000000000
1.622535100615141 -4.599012581400331 -2.233597798036450 65.000000000000000
1.625556879691363 -4.579284005214705 -2.327717085573940 26.000000000000000
1.753905816340916 -4.911627836801552 -2.609971337038324 28.000000000000000
1.804801099996147 -5.021655249912197 -2.786767220361609 77.000000000000000
1.815737410170704 -5.021686288624021 -2.907260648093336 71.000000000000000
1.826601057206748 -5.019066436368245 -3.028547619756532 71.000000000000000
1.763571011563881 -5.457912660612862 -1.180568793545463 15.000000000000000
1.633190069540631 -5.025997801067251 -1.185365893056244 29.000000000000000
1.643157076946089 -5.028672556313568 -1.284376557657743 78.000000000000000
1.651781580753838 -5.025579931341793 -1.383541818369424 77.000000000000000
1.660837968214288 -5.024528280207372 -1.483829102266897 81.000000000000000
1.609376994347240 -4.839883144432934 -1.526568975939123 33.000000000000000
1.533139175970062 -4.583247334681840 -1.538997120282445 50.000000000000000
1.540818972957030 -4.579590411625482 -1.631940119711377 44.000000000000000
1.509788581511009 -4.459902457330815 -1.682203468737815 9.000000000000000
1.557818042630797 -4.573954321030978 -1.821823486284000 46.000000000000000
1.569119781585757 -4.579177318574025 -1.921526007134298 39.000000000000000
1.648402121793011 -4.781351148351063 -2.109941146342774 37.000000000000000
1.617541013439198 -4.663506864382789 -2.160048331796466 37.000000000000000
1.605294063973136 -4.600472100998816 -2.233447428551687 66.000000000000000
1.608239837967518 -4.580797862060030 -2.327511884077174 26.000000000000000
1.725732988078585 -4.886598403551630 -2.595499508045423 20.000000000000000
1.785600030089479 -5.023808695036624 -2.786617075993553 77.000000000000000
1.794003752065574 -5.017308773021355 -2.903237367790926 71.000000000000000
1.805893424246977 -5.018115144946760 -3.026333314808117 74.000000000000000
1.744243667737630 -5.455555079482832 -1.180523952440715 19.000000000000000
1.617449328031132 -5.030741567657837 -1.186824734613834 22.000000000000000
1.626071934768500 -5.029762528416852 -1.284904265185520 78.000000000000000
1.634562614197705 -5.026729226582534 -1.384013852130153 77.000000000000000
1.642281445327318 -5.022078896537271 -1.483165267692247 79.000000000000000
1.590077577728079 -4.833699230200765 -1.524581597935292 33.000000000000000
1.518131445910565 -4.587773011930449 -1.540389465018543 41.000000000000000
1.525688839718539 -4.584153258566700 -1.633343952243552 48.000000000000000
1.517644092437784 -4.532246251968760 -1.709174163215619 26.000000000000000
1.540043189199794 -4.571503655636783 -1.820427779918459 52.000000000000000
1.551191124075439 -4.576826878674251 -1.920016098691489 46.000000000000000
1.629643390541598 -4.779307240112630 -2.108380592841596 43.000000000000000
1.599044951357480 -4.661441432168568 -2.158337095543791 38.000000000000000
1.586875218862524 -4.598442997982161 -2.231603242977759 67.000000000000000
1.590930925434197 -4.582259676029635 -2.327280613061065 27.000000000000000
1.691863721289119 -4.844575300753829 -2.572020082330555 14.000000000000000
1.765229980567644 -5.022560924664338 -2.784584147362056 77.000000000000000
1.775835969219420 -5.022792035904062 -2.904925261428466 73.000000000000000
1.786381689456570 -5.020375407924862 -3.026062660137355 72.000000000000000
1.724946235856333 -5.453136587476178 -1.180449847191202 21.000000000000000
1.600510395147408 -5.031722643575058 -1.187382715538303 22.000000000000000
1.606626854990267 -5.023397681223086 -1.283514661040773 78.000000000000000
1.617351580255426 -5.027826985837375 -1.384460063104289 76.000000000000000
1.626126800137822 -5.026898376732793 -1.484637443915092 79.000000000000000
1.573204875630774 -4.834737222909491 -1.524862749464678 32.000000000000000
1.500738324908096 -4.585013666341335 -1.539327827207459 37.000000000000000
1.510544030542726 -4.588674049990792 -1.634725418757789 41.000000000000000
1.508456329575051 -4.554632901674390 -1.717292820910308 53.000000000000000
1.521118289673624 -4.565445860659788 -1.817591604900506 31.000000000000000
1.534476448092128 -4.577943165392885 -1.919956875735270 48.000000000000000
1.600302965446868 -4.745728526289908 -2.092910694114817 12.000000000000000
1.579404243886758 -4.655847546107649 -2.154991847269006 37.000000000000000
1.569662756335049 -4.599795349216615 -2.231399914112182 65.000000000000000
1.573630336273843 -4.583669498939164 -2.327023310853044 27.000000000000000
1.664148466503728 -4.819301563774003 -2.557451528150386 12.000000000000000
1.746053662980538 -5.024596232007338 -2.784375210220401 76.000000000000000
1.754174641204734 -5.018281046491596 -2.900838269634735 73.000000000000000
1.765722034069982 -5.019296934054159 -3.023786365832464 72.000000000000000
1.706848825719212 -5.454395775962635 -1.181156130789625 22.000000000000000
1.583579656475379 -5.032653042367355 -1.187915328105471 21.000000000000000
1.590753500278763 -5.028083815015120 -1.284935971375173 79.000000000000000
1.598975541428767 -5.025186402496467 -1.383865180600045 76.000000000000000
1.607609793958411 -5.024338149166760 -1.483919442960611 81.000000000000000
1.556340779466098 -4.835724623151033 -1.525118601034575 31.000000000000000
1.486898906409622 -4.593074019169836 -1.541890624053766 39.000000000000000
1.493038993420545 -4.585947795802854 -1.633518098551930 39.000000000000000
1.487413753632841 -4.541226903194816 -1.711909617708680 26.000000000000000
1.468294500743751 -4.456268492711212 -1.773707523791621 8.000000000000000
1.520109410214304 -4.586064683398697 -1.922830751954299 39.000000000000000
1.578214216777639 -4.733030967134847 -2.086653241461914 18.000000000000000
1.563314743326426 -4.660606244294021 -2.156436980054324 39.000000000000000
1.552458888690626 -4.601096019193212 -2.231170728808052 68.000000000000000
1.556338264350134 -4.585027383188470 -2.326740016059273 28.000000000000000
1.635477796921315 -4.790532928801786 -2.541043611165138 12.000000000000000
1.726884055715782 -5.026574365582162 -2.784137497572076 75.000000000000000
1.734861123679874 -5.020334482313476 -2.900552114208341 75.000000000000000
1.746234797507690 -5.021437396060691 -3.023456053825904 71.000000000000000
1.687600313712564 -5.451859283557062 -1.181024781048196 22.000000000000000
1.566657300783992 -5.033532815226071 -1.188422609992978 23.000000000000000
1.573704554830345 -5.029017104462978 -1.285385909804923 77.000000000000000
1.581792703038730 -5.026177807365119 -1.384258824556955 76.000000000000000
1.590286290738718 -5.025390025312423 -1.484257594549848 80.000000000000000
1.541809229503458 -4.843962104875557 -1.527651605028945 30.000000000000000
1.469536444424454 -4.590213692945339 -1.540779313076811 38.000000000000000
1.477889082834855 -4.590377383463710 -1.634852695573032 39.000000000000000
1.443272319893185 -4.456102293532465 -1.679491994683170 12.000000000000000
1.474167901879421 -4.524681641246420 -1.800507995660121 14.000000000000000
1.503388995045100 -4.587087525099992 -1.922723476386894 36.000000000000000
1.558540577959467 -4.727261682764219 -2.083450083280848 30.000000000000000
1.546057051923071 -4.661843819025242 -2.156250402716505 39.000000000000000
1.534113798208895 -4.598897611634518 -2.229244628085354 68.000000000000000
1.536761229728657 -4.579498309656460 -2.322963657627148 28.000000000000000
1.615032090436134 -4.785352989450629 -2.537158275160898 11.000000000000000
1.706582130512938 -5.025140806248169 -2.782013894500427 75.000000000000000
1.716689008989795 -5.025652030835802 -2.902155149431126 73.000000000000000
1.725624074899402 -5.020232189056416 -3.021118057952951 69.000000000000000
1.668382402438943 -5.449262280025324 -1.180864413353738 19.000000000000000
1.549743516529423 -5.034362013909771 -1.188904599148884 22.000000000000000
1.556664163420461 -5.029899441969971 -1.285810361597946 77.000000000000000
1.565767992809453 -5.030811556756739 -1.385644136528674 76.000000000000000
1.572971259652872 -5.026390136824168 -1.484569839631258 82.000000000000000
1.524939218185907 -4.844855332276356 -1.527859021687514 32.000000000000000
1.451057598420380 -4.583665738742285 -1.538422647241851 37.000000000000000
1.460426892115623 -4.587546051298970 -1.633594356012755 39.000000000000000
1.464015510650932 -4.571552577129752 -1.722662363642923 31.000000000000000
1.476155653484909 -4.582495989274866 -1.823074050872402 32.000000000000000
1.484387219334162 -4.580990726576402 -1.919628752154544 37.000000000000000
1.541210383385226 -4.728441977323585 -2.083307711604263 49.000000000000000
1.528808265850812 -4.663029658820103 -2.156037960526276 38.000000000000000
1.519215697506275 -4.606993460209176 -2.232307085067017 69.000000000000000
1.519510825708728 -4.580745508625086 -2.322626408995875 29.000000000000000
1.590118776370821 -4.766544255529295 -2.526055054252309 10.000000000000000
1.686311393439810 -5.023643201466902 -2.779859505210735 74.000000000000000
1.696254632674493 -5.024268798484703 -2.899892974180839 73.000000000000000
1.707280305383167 -5.025544291720919 -3.022707814328412 71.000000000000000
1.649195323715966 -5.446604910803816 -1.180675116126843 18.000000000000000
1.532838491853011 -5.035140690743088 -1.189361333790957 21.000000000000000
1.539632515567884 -5.030730879919051 -1.286209365086029 81.000000000000000
1.548590606452485 -5.031703684018139 -1.385987434952211 78.000000000000000
1.555664893173673 -5.027338536034663 -1.484856216691638 81.000000000000000
1.508078355699466 -4.845698061559403 -1.528041219754961 30.000000000000000
1.439463670582944 -4.598868382410063 -1.543358008480510 17.000000000000000
1.445272567949989 -4.591884524895183 -1.634882171399327 24.000000000000000
1.452187688610991 -4.586683044835065 -1.728014341164219 40.000000000000000
1.460745070142387 -4.586910431819602 -1.824384973222270 32.000000000000000
1.468843066665027 -4.585444482059718 -1.920951573428690 41.000000000000000
1.523889189917156 -4.729570379503770 -2.083139400562091 52.000000000000000
1.512697456346252 -4.667647136553433 -2.157409700123766 38.000000000000000
1.499774822592365 -4.601234096584139 -2.228655260454067 69.000000000000000
1.503392313357422 -4.585365466609794 -2.323998943579830 29.000000000000000
1.559763690155491 -4.730671982513246 -2.505924145846543 8.000000000000000
1.667187264941381 -5.025443200783712 -2.779533640615639 76.000000000000000
1.675851514538666 -5.022821198788142 -2.897599852675124 74.000000000000000
1.685601404227797 -5.020921684088352 -3.018328899957171 71.000000000000000
1.628915918309660 -5.440135504467384 -1.179643430919188 19.000000000000000
1.517067000940149 -5.039604706403853 -1.190675488053145 20.000000000000000
1.523735158788857 -5.035230252837293 -1.287533870149751 81.000000000000000
1.530296064030194 -5.028844133751846 -1.385285759272551 79.000000000000000
1.538367383455214 -5.028235275854026 -1.485116764493064 81.000000000000000
1.488974221411382 -4.839169364801444 -1.525889781976257 29.000000000000000
1.427784577300587 -4.614049519467986 -1.548277182134977 15.000000000000000
1.434605082151109 -4.610645627262852 -1.641296791585284 18.000000000000000
1.439149798512649 -4.598199133883773 -1.731996703978253 16.000000000000000
1.446443374437048 -4.594849449834959 -1.827091704840932 18.000000000000000
1.453284660440562 -4.589855011969387 -1.922251457231249 39.000000000000000
1.509935089148591 -4.741190733297203 -2.087587712421819 34.000000000000000
1.495455024202206 -4.668733081847755 -2.157146652652235 38.000000000000000
1.482619300713269 -4.602325164319430 -2.228322034855966 69.000000000000000
1.485037567648150 -4.583084828097458 -2.321874432680752 29.000000000000000
1.527468579990588 -4.687876611881082 -2.482146774250042 6.000000000000000
1.648070715596494 -5.027186287023355 -2.779179186730784 75.000000000000000
1.655479900472575 -5.021309381033164 -2.895275876160964 73.000000000000000
1.666165881453978 -5.022823506629068 -3.017879930801282 71.000000000000000
1.552749372501903 -4.617157944687334 -3.005827323717311 25.000000000000000
1.610914587374204 -5.441109660673041 -1.180210088380666 22.000000000000000
1.499055472213391 -5.036546690980487 -1.190199193748923 20.000000000000000
1.505596207018971 -5.032241269518682 -1.286931181828728 79.000000000000000
1.513148445244166 -5.029630456315328 -1.385576867431190 77.000000000000000
1.522193265863614 -5.032764717761167 -1.486439691685414 80.000000000000000
1.472155977543637 -4.839904606676646 -1.526019716796843 28.000000000000000
1.414906270414552 -4.625566631548495 -1.551957983660220 11.000000000000000
1.421601832408721 -4.622152242627766 -1.645120322670433 17.000000000000000
1.426050173444898 -4.609686133433880 -1.735960441382574 15.000000000000000
1.433214730991698 -4.606323090363809 -1.831197182733089 15.000000000000000
1.439930845811956 -4.601312121961642 -1.926496798743283 25.000000000000000
1.498132716531345 -4.759815497128836 -2.095113074979623 23.000000000000000
1.477117263361868 -4.666277312639468 -2.155245840229025 38.000000000000000
1.465473344492767 -4.603364856103480 -2.227963168046675 69.000000000000000
1.470012425928191 -4.591039599271833 -2.324935023938226 29.000000000000000
1.500969973459333 -4.661941770137545 -2.467315154296327 6.000000000000000
1.628961956078993 -5.028872510266408 -2.778796182006546 73.000000000000000
1.636226507364712 -5.023068866369282 -2.894843342964986 72.000000000000000
1.647819783932364 -5.027968921545785 -3.019384454429545 70.000000000000000
1.532335195794293 -4.612296320803720 -3.000935770194113 25.000000000000000
1.592921473454850 -5.442030382539603 -1.180749971383568 24.000000000000000
1.484380196445151 -5.044658778795568 -1.192349461325106 18.000000000000000
1.488591923763176 -5.032920328775053 -1.287254073098956 81.000000000000000
1.496010107179291 -5.030365642112532 -1.385842439049684 77.000000000000000
1.502697208861053 -5.026186400936973 -1.484471408117189 81.000000000000000
1.456450002350256 -4.844256694947277 -1.527280741747377 29.000000000000000
1.417397202435811 -4.688091715489849 -1.572741948853212 5.000000000000000
1.416246093808420 -4.658989729543999 -1.657949848993002 5.000000000000000
1.415089661645792 -4.628341844668616 -1.742615568159745 7.000000000000000
1.419924227565099 -4.617767077560440 -1.835283739745050 14.000000000000000
1.428709616971111 -4.619835787213931 -1.933693390781409 22.000000000000000
1.485124236383489 -4.774900535319570 -2.101072792720718 29.000000000000000
1.460998764739244 -4.670750215287518 -2.156543307198350 41.000000000000000
1.448337144795453 -4.604353228060592 -2.227578700350171 71.000000000000000
1.450602323441007 -4.585217744456444 -2.321019417227977 30.000000000000000
1.476839219719696 -4.642707829204078 -2.456042738175556 5.000000000000000
