# This PCD file was generated using the MATLAB® pcwrite function
# from Computer Vision Toolbox®.
# .PCD v.7 - Point Cloud Data file format
VERSION .7
FIELDS x y z intensity
SIZE 8 8 8 8
TYPE F F F F
COUNT 1 1 1 1
WIDTH 629
HEIGHT 1
VIEWPOINT 0 0 0 1 0 0 0
POINTS 629
DATA ascii
-2.956960944894140 -5.538071951124929 -0.912401794460138 27.000000000000000
-3.002158539691029 -5.557980669342347 -1.027567507162920 6.000000000000000
-3.029506740755057 -5.544519926326241 -1.138765864561680 25.000000000000000
-3.060028276456946 -5.535985173270324 -1.251318947596930 4.000000000000000
-5.140314976939984 -9.195066110703888 -2.269382549864914 30.000000000000000
-5.199801236294443 -9.196322287532174 -2.463499033259351 27.000000000000000
-4.526483128388993 -7.914149702562198 -2.288489670906222 21.000000000000000
-4.523869309992300 -7.820646677657361 -2.430396677367022 24.000000000000000
-4.545218322137408 -7.768294383174015 -2.584393309938227 55.000000000000000
-4.594347593949177 -7.763157256559619 -2.754629484322555 79.000000000000000
-4.646371349528042 -7.761156172140138 -2.928779977044354 18.000000000000000
-3.322582081479203 -4.921107567949004 -3.086423920414750 5.000000000000000
-2.938694235176579 -4.189140934371223 -2.992717565042738 7.000000000000000
-2.948145436583284 -5.546639606622765 -0.798405635624413 26.000000000000000
-2.986845239912519 -5.554349439701751 -0.911230933680795 3.000000000000000
-3.019137647407061 -5.549744185426846 -1.022324479962343 49.000000000000000
-3.048504927496825 -5.539675224742931 -1.134192272675554 4.000000000000000
-3.082991746475281 -5.537912016234592 -1.248315822061794 0.000000000000000
-5.176891560924711 -9.194682790594420 -2.263816721109132 30.000000000000000
-5.246335606994332 -9.212645503707398 -2.462637107209119 26.000000000000000
-4.580890442473565 -7.952295261176870 -2.295221739422631 19.000000000000000
-4.554998315097790 -7.818401514075025 -2.425698273521596 16.000000000000000
-4.580347916149138 -7.772566322947586 -2.582069271419586 64.000000000000000
-4.621902660292982 -7.754042129261801 -2.747897824958156 35.000000000000000
-4.678106502452205 -7.758417621322629 -2.924495779594300 62.000000000000000
-2.956646305650557 -4.184240507852045 -2.989815712670762 7.000000000000000
-2.966639106227820 -5.542014126274993 -0.793742929145349 16.000000000000000
-3.011190442592409 -5.560062375779478 -0.908285470478080 20.000000000000000
-3.034188627242784 -5.537995995225012 -1.016423007995330 16.000000000000000
-3.069402428672549 -5.538215653336820 -1.130292045444045 2.000000000000000
-5.152331514625479 -9.189562361958743 -2.065700742863882 30.000000000000000
-5.217360784126432 -9.200980861912248 -2.259856992595820 24.000000000000000
-5.287194295294006 -9.218649732180568 -2.458970841465536 29.000000000000000
-4.633627480372058 -7.986853638941106 -2.300852303663597 14.000000000000000
-4.593969427528028 -7.829385057944040 -2.425075362412559 29.000000000000000
-4.607687144027174 -7.763481958958333 -2.575288538338020 77.000000000000000
-4.663224049799315 -7.767815613114114 -2.749255546876987 0.000000000000000
-4.705907405498222 -7.749064711318123 -2.917705878028340 28.000000000000000
-4.767227426834292 -7.759722626628294 -3.099136560177968 61.000000000000000
-2.976595647671775 -4.182100439151253 -2.988898503983089 6.000000000000000
-2.998307102399969 -5.561786131571171 -0.792536148298925 5.000000000000000
-3.026109108884603 -5.548304120946443 -0.902463873301507 76.000000000000000
-3.053003973512588 -5.533126416893052 -1.011770128238922 4.000000000000000
-5.130684731546125 -9.192275302635025 -1.870030199233585 30.000000000000000
-5.192508762610971 -9.195990741406442 -2.061360481375167 28.000000000000000
-5.261786264871875 -9.213928518198770 -2.257483236776996 27.000000000000000
-5.283288933822297 -9.146877163698662 -2.434562834259725 32.000000000000000
-4.665076162404864 -7.984320059299301 -2.295752946123066 9.000000000000000
-4.629112595701703 -7.833566906722482 -2.422313376551065 29.000000000000000
-4.638950024241766 -7.760919822576991 -2.570654815434944 89.000000000000000
-4.676939374919377 -7.735561757414303 -2.734311317417622 0.000000000000000
-4.743619549223653 -7.755873755112043 -2.916984721761051 59.000000000000000
-3.299654006316113 -4.722391546345801 -3.095626192162698 11.000000000000000
-3.004619746265818 -4.191137771004398 -2.995984039478484 5.000000000000000
-3.016855411194858 -5.557009091179119 -0.787792731939647 59.000000000000000
-3.042882605075819 -5.539979626095085 -0.897188494229818 5.000000000000000
-3.077565584799252 -5.538557159526142 -1.008975055152979 1.000000000000000
-5.166728917299811 -9.191954312759881 -1.863907778639531 30.000000000000000
-5.236643259325782 -9.209101053185893 -2.058467674453086 25.000000000000000
-5.300477103554924 -9.216532727129305 -2.252529903118814 30.000000000000000
-5.190754855210037 -8.923555390866568 -2.369955109121197 19.000000000000000
-4.708357728332264 -8.001761493549665 -2.296361579194291 5.000000000000000
-4.664317111588844 -7.837623411166613 -2.419483653028586 28.000000000000000
-4.668246516017372 -7.754956356195690 -2.564876289256803 94.000000000000000
-4.734296059879947 -7.775262175708324 -2.744777389225699 9.000000000000000
-4.785410536621185 -7.769032836374418 -2.918625495559683 43.000000000000000
-3.311160526671375 -4.705027444468214 -3.084431343605211 8.000000000000000
-3.227014522087674 -4.525590761396675 -3.099338886697665 7.000000000000000
-3.022613918712572 -4.186037872547979 -2.992977786085124 4.000000000000000
-3.031585433743694 -5.545207879813852 -0.782037932304714 55.000000000000000
-3.065376411480243 -5.542005164744791 -0.893567126679676 4.000000000000000
-5.145220850333648 -9.195009446276735 -1.668750336081902 32.000000000000000
-5.206686845230895 -9.198367203369649 -1.859106475614875 26.000000000000000
-5.276991859938828 -9.215229051011335 -2.053963594501155 30.000000000000000
-5.337259705991352 -9.215614515183523 -2.246678423437551 33.000000000000000
-5.193418767222171 -8.865677751046741 -2.349416847402631 19.000000000000000
-5.195285009840889 -8.767477012952565 -2.511249986335671 20.000000000000000
-4.701570408215842 -7.844871306228813 -2.417608298566368 28.000000000000000
-4.705521699998902 -7.762066535396606 -2.563398648457857 95.000000000000000
-4.755905965877723 -7.755935992026994 -2.734376589153168 80.000000000000000
-4.953885882162902 -7.986055576154720 -2.996736057959590 19.000000000000000
-3.324609924856016 -4.690523074267728 -3.075119857389444 3.000000000000000
-3.046709868403494 -4.189282844873017 -2.995951305249370 4.000000000000000
-3.052007836193090 -5.543803595606076 -0.777731226813691 3.000000000000000
-5.121445473771504 -9.194930642987574 -1.475950788418593 30.000000000000000
-5.181024230073713 -9.194648723912925 -1.662311273870044 31.000000000000000
-5.248670166023918 -9.208058770776502 -1.854916483892577 25.000000000000000
-5.313490238469592 -9.214406177897327 -2.047868226819282 30.000000000000000
-5.374073736886185 -9.214571127521152 -2.240761122110907 34.000000000000000
-5.197734657781822 -8.811218444100406 -2.329817151116912 19.000000000000000
-5.199449368374774 -8.713320209783301 -2.490879601162818 22.000000000000000
-4.728911916399758 -7.835424021119434 -2.410563937379994 6.000000000000000
-4.740872589447036 -7.765753461449835 -2.560762438534602 94.000000000000000
-4.892180268231384 -7.922392472103493 -2.789385190518768 26.000000000000000
-4.958231908575130 -7.937125390023739 -2.974958299510754 20.000000000000000
-3.325681857508313 -4.658757012875824 -3.054499513442485 2.000000000000000
-3.070861688571711 -4.192439528496154 -2.998876337824791 5.000000000000000
-3.070515789692336 -5.538858327346300 -0.772904402133023 2.000000000000000
-5.156966718606151 -9.194655544827420 -1.469265011889584 31.000000000000000
-5.220759678996790 -9.201039708039668 -1.657045764376674 26.000000000000000
-5.288786426581755 -9.214177125663682 -1.849955142942863 30.000000000000000
-5.348047024577231 -9.210061534259241 -2.040954570309919 34.000000000000000
-5.402987682025445 -9.199897907395874 -2.231502319374624 32.000000000000000
-5.199750468122868 -8.753454965768480 -2.309376805876242 20.000000000000000
-5.201304026735716 -8.655883042864756 -2.469603443816270 21.000000000000000
-5.608209156123005 -9.227743766068114 -2.834013240789314 34.000000000000000
-4.772249410123492 -7.762752056246128 -2.555897509843169 55.000000000000000
-4.956724662465462 -7.971004615501268 -2.802781125982569 21.000000000000000
-4.960261483599169 -7.885011941948203 -2.952012311908060 19.000000000000000
-4.958219916158676 -7.790832806923105 -3.096220185577586 21.000000000000000
-3.345099550456009 -4.652829245921480 -3.050828249154113 19.000000000000000
-3.090953200400701 -4.189928505508989 -2.997761069807910 5.000000000000000
-5.132871780903887 -9.195353443932076 -1.276231296422034 30.000000000000000
-5.190570797370865 -9.190808725645843 -1.461966403879726 30.000000000000000
-5.264489539987113 -9.214150032397216 -1.652933472297269 28.000000000000000
-5.327003378699797 -9.216737915882113 -1.844232413027699 32.000000000000000
-5.382613307239010 -9.205602991417640 -2.033982189975156 36.000000000000000
-5.441813975065860 -9.201995865535268 -2.226282271287664 29.000000000000000
-5.201437638260726 -8.695753221430131 -2.288988074951940 20.000000000000000
-5.206853244236391 -8.605158145921022 -2.450272755567035 17.000000000000000
-5.640025085676481 -9.215817292578731 -2.825429642151236 33.000000000000000
-4.961804153088879 -8.015134321724686 -2.634969705917112 18.000000000000000
-4.958551720717813 -7.918605391732260 -2.780639761456912 21.000000000000000
-4.964025076072604 -7.836177043864922 -2.930318819058228 17.000000000000000
-4.976190634272322 -7.764695438798168 -3.082727285065508 34.000000000000000
-3.115194312336821 -4.192918604292301 -3.000595603236767 7.000000000000000
-5.168140674451277 -9.195039283938733 -1.269232262395563 29.000000000000000
-5.237896559081715 -9.210963171015925 -1.458428297362669 25.000000000000000
-5.302420117280715 -9.216815347479653 -1.646892756168508 31.000000000000000
-5.359323428134957 -9.208943102824463 -1.836399553905820 34.000000000000000
-5.413200999423108 -9.194257489532657 -2.025458998848733 31.000000000000000
-5.482695254314736 -9.207322474593845 -2.221801430630963 25.000000000000000
-5.232998670364792 -8.688258384579862 -2.281821018120847 16.000000000000000
-5.238409384546460 -8.597629020859777 -2.443244224297951 5.000000000000000
-5.675867392778732 -9.210385649599750 -2.818816334073246 30.000000000000000
-4.961432413370210 -7.959174322525628 -2.612552106888617 19.000000000000000
-4.958027051877925 -7.863019770107395 -2.757408901078498 19.000000000000000
-4.961347930918750 -7.777738991335086 -2.905062286945688 28.000000000000000
-5.008429969286446 -7.760847363951084 -3.078079504529876 34.000000000000000
-3.318187587080560 -4.491004829954536 -3.077967308837039 4.000000000000000
-3.133252746334870 -4.187483557084241 -2.997414333510483 10.000000000000000
-5.201483729571898 -9.191147302443062 -1.261695001096698 26.000000000000000
-5.279469620560105 -9.220613031419873 -1.453159265322611 30.000000000000000
-5.338419922340868 -9.215925655199884 -1.640171652779886 34.000000000000000
-5.391631323245868 -9.201045815711650 -1.828515127465222 38.000000000000000
-5.453776841696505 -9.199724713701212 -2.020603710055493 30.000000000000000
-5.527677044206863 -9.219220778644059 -2.218857978683204 24.000000000000000
-5.276693837875970 -8.700687799453236 -2.279850424428623 17.000000000000000
-5.274021852004760 -8.596627644366343 -2.438044841403174 5.000000000000000
-5.713758177163256 -9.208126006487239 -2.813147515071571 29.000000000000000
-4.960733814100822 -7.903283645196606 -2.590189886708031 20.000000000000000
-4.959231236996968 -7.810742155457340 -2.735367711836040 21.000000000000000
-4.995447377300584 -7.777181012932011 -2.901431541965201 18.000000000000000
-5.042752267999792 -7.760074762767570 -3.074637090754088 34.000000000000000
-3.322555327059607 -4.465364162389641 -3.060890882712758 10.000000000000000
-3.157571127416996 -4.190311665866463 -3.000161448690050 7.000000000000000
-5.246634997864625 -9.207852016204754 -1.256927383286783 23.000000000000000
-5.313216171592884 -9.216372557817131 -1.445650991574106 31.000000000000000
-5.372457129448484 -9.211496995341646 -1.632780296625966 35.000000000000000
-5.415911995855892 -9.179461911156265 -1.817888961068745 89.000000000000000
-5.498453452390410 -9.211795837308859 -2.017147263745303 24.000000000000000
-5.570746907844383 -9.227594546072950 -2.215015526362504 29.000000000000000
-5.289986048779485 -8.662971895427312 -2.264721957052333 13.000000000000000
-5.309666288111484 -8.595503749512241 -2.432780960344231 3.000000000000000
-5.757832749935526 -9.215590091214771 -2.810415857924598 24.000000000000000
-4.967947614482105 -7.860499260356646 -2.572149272047444 14.000000000000000
-4.966330224280806 -7.768222605447752 -2.716767501205337 30.000000000000000
-5.019216598503858 -7.760477433209659 -2.891766025450012 30.000000000000000
-5.079189133360951 -7.762360757946271 -3.072389495334832 34.000000000000000
-3.339380785977944 -4.456580160396686 -3.055377757364869 2.000000000000000
-3.179843195897303 -4.190282532769216 -3.000877462522392 4.000000000000000
-5.287965034877770 -9.217489265827888 -1.251126462136335 27.000000000000000
-5.348960996114904 -9.215448547771619 -1.438620285348231 34.000000000000000
-5.398492807299027 -9.193315636873713 -1.622922983494276 51.000000000000000
-5.452180841090401 -9.178162626043509 -1.811253401913960 76.000000000000000
-5.543242438316830 -9.223697356369984 -2.013597364950762 26.000000000000000
-5.607801543343641 -9.225762343179547 -2.208680836527288 33.000000000000000
-5.311258057858749 -8.638560746075164 -2.253075693180283 4.000000000000000
-5.351505138296777 -8.604165944291820 -2.430251254062443 4.000000000000000
-5.653493468783560 -8.986827442729844 -2.735733925845028 9.000000000000000
-5.010115595805452 -7.873048668582418 -2.572206519469143 7.000000000000000
-4.998116404220695 -7.764456078830246 -2.711720894519940 33.000000000000000
-5.055417692792906 -7.762910761637014 -2.889218658782455 35.000000000000000
-5.111502825238359 -7.758172952229390 -3.067563741941897 32.000000000000000
-3.339266080313372 -4.425341457888838 -3.034477718810745 1.000000000000000
-3.202147743441890 -4.190174657490273 -3.001551293730674 26.000000000000000
-5.321437134260832 -9.213210483600262 -1.243383855045604 27.000000000000000
-5.380733816208363 -9.207555781439146 -1.430461509722766 35.000000000000000
-5.432504260615352 -9.188683353613438 -1.615429257325540 85.000000000000000
-5.490502602437105 -9.180123777462343 -1.805218159420604 75.000000000000000
-5.580000015047857 -9.221970883532004 -2.007024876615598 30.000000000000000
-5.640791820786652 -9.217116945876946 -2.200683266754774 34.000000000000000
-5.357081651851854 -8.653954400139970 -2.251782719467009 5.000000000000000
-5.389308476350966 -8.606076914885868 -2.425777047009910 5.000000000000000
-5.709426650778314 -9.014007774944877 -2.739044934391475 24.000000000000000
-5.033675255680224 -7.856205901504589 -2.562638923749714 18.000000000000000
-5.038268421199077 -7.773469004507431 -2.711113231111970 30.000000000000000
-5.089580438632663 -7.762020085614956 -2.885414207561497 35.000000000000000
-5.150130833435768 -7.763375562808604 -3.066433803179248 29.000000000000000
-3.343197878792397 -4.399734917059562 -3.017445376944696 4.000000000000000
-3.226605799559679 -4.192744423295716 -3.004157987718108 36.000000000000000
-3.223118393083314 -4.131820199187870 -3.091055752611255 7.000000000000000
-5.358911578797504 -9.215690116154430 -1.236505711124531 32.000000000000000
-5.406461660435200 -9.189309755341002 -1.420666933041999 65.000000000000000
-5.466522981330934 -9.183938183919491 -1.607877460668667 71.000000000000000
-5.530907946924020 -9.185328484338291 -1.799772740502623 76.000000000000000
-5.618831136318089 -9.223477171042690 -2.001115073352039 34.000000000000000
-5.675823769227781 -9.211704438581279 -2.193427882764984 31.000000000000000
-5.396842167880816 -8.659223734285542 -2.247808473729342 6.000000000000000
-5.420937033239260 -8.597978203814572 -2.418453325657679 4.000000000000000
-5.848925109716411 -9.171655906220684 -2.781867537970871 14.000000000000000
-5.044614728335503 -7.819849044197927 -2.546709085980825 31.000000000000000
-5.074321580886563 -7.775898329142140 -2.708181985870477 29.000000000000000
-5.121672446579711 -7.757822077995502 -2.880363163927728 32.000000000000000
-5.184613292808275 -7.762115073118963 -3.062732537407589 31.000000000000000
-3.381123380380044 -4.418782511924264 -3.031049620009497 21.000000000000000
-3.251116667044192 -4.195223863673875 -3.006715342517262 44.000000000000000
-5.388403766907532 -9.204318973033191 -1.227726796741836 32.000000000000000
-5.440197641746050 -9.184643118008289 -1.412941758730238 76.000000000000000
-5.506648933314914 -9.189260135335287 -1.602042349739678 75.000000000000000
-5.567291533895799 -9.183638119281964 -1.792930525894238 77.000000000000000
-5.647426906597198 -9.208079570739978 -1.991505951174401 34.000000000000000
-5.712928324479729 -9.209507920250939 -2.186904164839518 29.000000000000000
-5.442904372835654 -8.674276026147821 -2.246326648188928 5.000000000000000
-5.465068799781301 -8.609495005067146 -2.416613078542117 4.000000000000000
-5.669066234301522 -8.829571930331465 -2.673187527691433 10.000000000000000
-5.082682221491298 -7.825571786386015 -2.544474729969915 20.000000000000000
-5.106211761632836 -7.771777675310555 -2.702948244215367 32.000000000000000
-5.155892795262647 -7.756699371838814 -2.876436743381299 28.000000000000000
-5.219129174417255 -7.760734816420332 -3.058968089069894 31.000000000000000
-3.273537572547660 -4.194867371312562 -3.007255143518091 44.000000000000000
-5.421897392622418 -9.199706009592878 -1.219812281023134 29.000000000000000
-5.478002505232459 -9.186676734931188 -1.406201664250519 74.000000000000000
-5.538667963645789 -9.180884274382985 -1.593775746104510 74.000000000000000
-5.607813181007092 -9.188558960206914 -1.787333086395590 83.000000000000000
-5.686300781079090 -9.209338674626819 -1.985467351311042 31.000000000000000
-5.756290964332855 -9.217162902124613 -2.182676881638165 24.000000000000000
-5.487013308107270 -8.685844413972799 -2.243891212361077 6.000000000000000
-5.500928228448939 -8.607721134648402 -2.411004250013021 5.000000000000000
-5.579654748866907 -8.631809772649813 -2.608472528556536 7.000000000000000
-5.127163179805099 -7.840845538088302 -2.545309995951704 31.000000000000000
-5.133875091410954 -7.761141029267022 -2.695433261948480 34.000000000000000
-5.192272738772585 -7.758634658877765 -2.873624198857562 32.000000000000000
-5.255810143650335 -7.762383608365488 -3.056380285645261 29.000000000000000
-3.298142377011660 -4.197171000679608 -3.009717005303657 47.000000000000000
-5.459453342569163 -9.201817837104798 -1.212741395784926 28.000000000000000
-5.515854501032110 -9.188575573566084 -1.399389885738964 63.000000000000000
-5.576834479036087 -9.182552804771110 -1.587211763131963 72.000000000000000
-5.644270431237567 -9.186606551027113 -1.780352598695856 90.000000000000000
-5.723143862269821 -9.207117837810870 -1.978637271565495 31.000000000000000
-5.801829332940446 -9.227976802560992 -2.179145824131102 24.000000000000000
-5.537527018203258 -8.707137973726940 -2.243912393377087 7.000000000000000
-5.538923240274394 -8.609097935748796 -2.406245638132990 4.000000000000000
-5.281719280224172 -8.116075611809929 -2.448040462960596 62.000000000000000
-5.167536260645016 -7.849493572946245 -2.543956690510773 31.000000000000000
-5.172159447493136 -7.766413553198717 -2.693423689358725 34.000000000000000
-5.228706621204308 -7.760439042137514 -2.870741531841905 32.000000000000000
-5.290401897351054 -7.760757385850801 -3.052485636733872 30.000000000000000
-3.320635511781090 -4.196649539028001 -3.010168175447081 56.000000000000000
-5.501132256618639 -9.210620718961621 -1.206493210351713 22.000000000000000
-5.551701420219034 -9.186944317144672 -1.391991901708178 69.000000000000000
-5.619176181186659 -9.190838314896620 -1.581737688181188 70.000000000000000
-5.682829644343906 -9.187885321977333 -1.773954493091520 75.000000000000000
-5.770450806044631 -9.221451481504294 -1.975314169766696 25.000000000000000
-5.841181360504401 -9.228672425488206 -2.173177760039336 30.000000000000000
-5.588214583744354 -8.728227283665912 -2.243818675984508 6.000000000000000
-5.581201943574627 -8.616876884870676 -2.403238152164747 4.000000000000000
-5.297231874732904 -8.085476881723611 -2.434218983663283 64.000000000000000
-5.210138360216846 -7.861207330753617 -2.543560805308677 33.000000000000000
-5.204096362935175 -7.761965353340774 -2.688019884380004 34.000000000000000
-5.258751952882549 -7.752615334708901 -2.864279904284901 33.000000000000000
-5.329332052164065 -7.765285676433087 -3.050992992643526 31.000000000000000
-3.345332703042258 -4.198776386227026 -3.012534143278429 65.000000000000000
-5.549042899042548 -9.229487543929665 -1.201490150202092 23.000000000000000
-5.589635723178652 -9.188578391997941 -1.385039933097076 78.000000000000000
-5.653306348311250 -9.185481505138799 -1.573866846622281 74.000000000000000
-5.719347986884564 -9.185675531596699 -1.766838881490112 73.000000000000000
-5.813689698861055 -9.228939708466497 -1.970466935233159 24.000000000000000
-5.882686936726349 -9.232537521055420 -2.167912665854646 31.000000000000000
-5.651785198392721 -8.768831523817246 -2.248666666746742 11.000000000000000
-5.619315397079400 -8.617970449201980 -2.398327710057110 11.000000000000000
-5.314723092987157 -8.058100315532645 -2.421371873480345 21.000000000000000
-5.252856164782609 -7.872755558269038 -2.543073343780965 35.000000000000000
-5.240346866365290 -7.763783809521598 -2.684764734420097 33.000000000000000
-5.299576104544068 -7.760494039848020 -2.863599373101777 32.000000000000000
-5.364008060491527 -7.763406663130340 -3.046964146465358 31.000000000000000
-3.372264814710257 -4.203534100706856 -3.016804117549200 38.000000000000000
-5.584749205098187 -9.227755104157220 -1.193740362832542 26.000000000000000
-5.627615427765957 -9.190076855412705 -1.378015961002740 76.000000000000000
-5.691610525407013 -9.186741101212577 -1.567085692094607 66.000000000000000
-5.757987777222275 -9.186685054550809 -1.760298402502178 79.000000000000000
-5.842256052559606 -9.212992460913343 -1.960579029645200 21.000000000000000
-5.913663490119988 -9.219734203340085 -2.158698993695693 33.000000000000000
-5.728424626967438 -8.828845657583974 -2.258391384971519 15.000000000000000
-5.852046026991704 -8.915345813130752 -2.475655535461785 32.000000000000000
-5.336370846021919 -8.037162021344304 -2.410458221249247 7.000000000000000
-5.297843380262595 -7.887345220464251 -2.543528433382959 35.000000000000000
-5.272326606459323 -7.759108704446154 -2.679242480144159 33.000000000000000
-5.333989595143189 -7.758755724439053 -2.859346884760295 30.000000000000000
-5.398714869543552 -7.761406687577039 -3.042871667915652 30.000000000000000
-5.620479921246345 -9.225898833537498 -1.185925869604904 33.000000000000000
-5.665639947309872 -9.191439423707223 -1.370919876494338 71.000000000000000
-5.729959410513762 -9.187863815122817 -1.560231927830457 69.000000000000000
-5.792457892997726 -9.180877257703196 -1.752409865538471 80.000000000000000
-5.875000895561678 -9.203601799954940 -1.952061060780543 51.000000000000000
-5.948859609945311 -9.213432181792117 -2.150979491459342 31.000000000000000
-6.017252994637718 -9.212744180368064 -2.350641415787992 26.000000000000000
-5.940614834480302 -8.990420176156427 -2.490991859583651 31.000000000000000
-5.366551512668894 -8.029081665069096 -2.403388540690513 5.000000000000000
-5.340800724035754 -7.898554801926853 -2.542853449787736 33.000000000000000
-5.308660822798461 -7.760676529864595 -2.675854268695057 33.000000000000000
-5.370612577395725 -7.760045137425274 -2.856189771118374 28.000000000000000
-5.433451964159757 -7.759285533818963 -3.038715478263178 24.000000000000000
-5.652077057706853 -9.217138737556411 -1.177180711012892 33.000000000000000
-5.703708693692548 -9.192665815103785 -1.363751571701493 75.000000000000000
-5.766247173489753 -9.185495770037079 -1.552738546199054 66.000000000000000
-5.831165737259774 -9.181622305413610 -1.745730215508374 70.000000000000000
-5.905598812838997 -9.190793426487048 -1.942790481095959 82.000000000000000
-5.988336751380958 -9.213596536417766 -2.144732574511490 28.000000000000000
-6.065660184375388 -9.225715338884260 -2.347953792892606 23.000000000000000
-5.988686472211045 -9.003417938480174 -2.489039124363019 28.000000000000000
-5.390218065190568 -8.011240327035559 -2.393382884574147 5.000000000000000
-5.377345543825655 -7.900009710228788 -2.539004820907050 33.000000000000000
-5.345046520667736 -7.762112773380250 -2.672395738887652 34.000000000000000
-5.407286665213539 -7.761202163643143 -2.852961951247309 32.000000000000000
-5.472609208485303 -7.763271042950437 -3.036931867014645 23.000000000000000
-4.512433847055727 -6.100170656650651 -2.991019012925904 57.000000000000000
-5.683657245943316 -9.208277417506789 -1.168384916399798 30.000000000000000
-5.739718616325603 -9.190389306764869 -1.356014231307051 76.000000000000000
-5.804673529371723 -9.186349674608426 -1.545742822474983 58.000000000000000
-5.874172090083774 -9.188885160066960 -1.740237849025808 66.000000000000000
-5.946853595665202 -9.194428944234373 -1.936958621434394 78.000000000000000
-6.030006377019700 -9.216906111328065 -2.139173865786772 24.000000000000000
-6.112032601733899 -9.235234504232817 -2.344333834412153 29.000000000000000
-6.026038433973932 -9.000029208810695 -2.482514659135634 37.000000000000000
-5.431231774739066 -8.019059874859190 -2.391019893787599 0.000000000000000
-5.416126357975534 -7.904522148596412 -2.536109003333936 35.000000000000000
-5.381483123244857 -7.763417131215768 -2.668866770930375 34.000000000000000
-5.439612077799675 -7.755953993831086 -2.847360547705808 33.000000000000000
-5.509631795453537 -7.764003099301213 -3.033855196374506 28.000000000000000
-4.498130306353174 -6.113829686794811 -2.839494023225536 0.000000000000000
-4.509262629721494 -6.055200051082244 -2.967431023220384 56.000000000000000
-4.506620343745939 -5.976424741633659 -3.085115295240079 56.000000000000000
-5.719417826509585 -9.206071604916758 -1.160390163242407 29.000000000000000
-5.779976507316148 -9.194708949646282 -1.349197875097646 74.000000000000000
-5.843142834203914 -9.187065885257667 -1.538674182218643 66.000000000000000
-5.912986516920046 -9.189341439222064 -1.733404270249130 63.000000000000000
-5.983872595727968 -9.191310007725285 -1.929659322259976 78.000000000000000
-6.076058644495624 -9.226622950675745 -2.135051351774378 23.000000000000000
-6.154168493967429 -9.238061341427404 -2.338967464477260 31.000000000000000
-6.067771730380127 -9.002978992895446 -2.477702863840419 37.000000000000000
-5.964649465287832 -8.748839059811734 -2.603456906068176 66.000000000000000
-5.450585533023420 -7.902522177618258 -2.531095529498516 32.000000000000000
-5.417970052177522 -7.764589301478892 -2.665267246087536 34.000000000000000
-5.478575842673957 -7.759987556218225 -2.845146017941373 33.000000000000000
-5.544487859911841 -7.761499222671121 -3.029496358764237 30.000000000000000
-4.508086587894912 -6.086658656570687 -2.825030568761179 51.000000000000000
-4.510285380745565 -6.016259890968258 -2.946815010915929 54.000000000000000
-4.509800149849935 -5.940756114678859 -3.065487790600257 56.000000000000000
-5.759418616253555 -9.210486448453356 -1.153175002161003 23.000000000000000
-5.818174391158497 -9.195525138807662 -1.341812272869705 56.000000000000000
-5.879518814736596 -9.184308016557864 -1.530976408750087 76.000000000000000
-5.953991010148219 -9.192975080179686 -1.727120211875674 63.000000000000000
-6.025232258120644 -9.194653960937238 -1.923672210727075 77.000000000000000
-6.124384066688167 -9.239437097513036 -2.131587653556852 29.000000000000000
-6.189825169756027 -9.230979441071195 -2.331055324606361 34.000000000000000
-6.100808723038670 -8.992864127927310 -2.469263797477577 37.000000000000000
-6.001570218737545 -8.745392569765183 -2.597241557933825 67.000000000000000
-5.491692311434427 -7.909935052651687 -2.529066827777419 34.000000000000000
-5.454506727591264 -7.765628984168377 -2.661597046681864 34.000000000000000
-5.513169024593725 -7.757627308898174 -2.840565056902856 34.000000000000000
-5.579372072142776 -7.758873231640553 -3.025073462897202 32.000000000000000
-4.502375154455520 -6.113171112069438 -2.681876381025297 7.000000000000000
-4.511171234065642 -6.050470418099063 -2.806393738705745 53.000000000000000
-4.506587727387636 -5.971419976600016 -2.923325934346259 56.000000000000000
-4.506026977053454 -5.896301072978715 -3.041340911317992 57.000000000000000
-5.803719175327618 -9.221486754546952 -1.146717824771892 24.000000000000000
-5.875608500395359 -9.226344551630294 -1.338727367571055 35.000000000000000
-5.920207904350721 -9.188084120932643 -1.524317734571325 68.000000000000000
-5.992899302848347 -9.193147160980519 -1.720135815124967 64.000000000000000
-6.064483838477667 -9.194556100461691 -1.916917809481104 77.000000000000000
-6.161929825718200 -9.235721417639468 -2.124261452524171 32.000000000000000
-6.225481331848150 -9.223778706877461 -2.323082554143124 32.000000000000000
-6.136025880033664 -8.985865501655040 -2.461654643877358 38.000000000000000
-6.082686951159761 -8.805766830867150 -2.609913020502925 67.000000000000000
-5.521805413454682 -7.901330904105125 -2.521890346501191 21.000000000000000
-5.491092568097367 -7.766535881179863 -2.657856056097019 34.000000000000000
-5.550021022307977 -7.758263822814509 -2.837060645729505 34.000000000000000
-5.618757444111299 -7.762305097991065 -3.022993276530029 31.000000000000000
-4.512022727710964 -6.085866086500936 -2.667753527183029 57.000000000000000
-4.511793780982384 -6.011319197896950 -2.786398101292103 56.000000000000000
-4.509381267609222 -5.935556338949308 -2.904247153823818 58.000000000000000
-4.508754411826764 -5.860723343132764 -3.021787475831383 57.000000000000000
-5.843863157628172 -9.225593500747102 -1.139336628871787 28.000000000000000
-5.911837114393295 -9.223489833545818 -1.330681488320509 35.000000000000000
-5.960958334908967 -9.191709906261540 -1.517578574114956 70.000000000000000
-6.029680361107097 -9.189875136454056 -1.712461888411807 62.000000000000000
-6.103776109117371 -9.194317630042594 -1.910089141285278 84.000000000000000
-6.197304702425975 -9.228613549712437 -2.116119650528523 33.000000000000000
-6.265537997816722 -9.222938100167113 -2.316676584765489 29.000000000000000
-6.171243205402461 -8.978749186026183 -2.453985402199472 35.000000000000000
-6.104325027579315 -8.779603372917755 -2.596882086641588 75.000000000000000
-5.603125623645282 -7.965445443976130 -2.537864875183385 15.000000000000000
-5.525492662995227 -7.764170120848394 -2.652971384261603 34.000000000000000
-5.589162299328831 -7.761878733829561 -2.834621546712303 33.000000000000000
-5.651469960055066 -7.756338109371153 -3.017234897006182 32.000000000000000
-4.505231983172122 -6.109572081312645 -2.525076981212271 25.000000000000000
-4.512492563369941 -6.046463179964488 -2.648340967259448 54.000000000000000
-4.514446990340629 -5.975211214671309 -2.767828627547353 57.000000000000000
-4.509699524414761 -5.896768631342093 -2.883752053820368 58.000000000000000
-4.511271769081620 -5.825183343953610 -3.002266149896210 56.000000000000000
-5.881928831446819 -9.226196489909704 -1.131464339417073 29.000000000000000
-5.941627875591010 -9.210497457440511 -1.321133897257093 34.000000000000000
-6.001769440754291 -9.195185015589622 -1.510758785876818 69.000000000000000
-6.073016359715263 -9.196370856178877 -1.706557754737457 69.000000000000000
-6.143108461428508 -9.193938279102507 -1.903186105240137 84.000000000000000
-6.230477638583347 -9.218131333072238 -2.107173253756016 31.000000000000000
-6.305633983345451 -9.221954371846371 -2.310195150125335 25.000000000000000
-6.381884317473790 -9.225092790346908 -2.515398888421394 29.000000000000000
-6.165966150038467 -8.810732169006929 -2.600760673842605 75.000000000000000
-5.602125164640340 -7.912269085538907 -2.516435486502438 14.000000000000000
-5.559920174186969 -7.761683132338121 -2.648023151304885 33.000000000000000
-5.621617789530982 -7.756028946936691 -2.828705075243598 34.000000000000000
-4.492269609056620 -6.125106595444084 -2.379954401662701 0.000000000000000
-4.514566228597888 -6.082143187696095 -2.511299665903178 57.000000000000000
-4.512731655376622 -6.007110694737769 -2.628968259171056 56.000000000000000
-4.510073940683768 -5.930179112206791 -2.745142755251803 57.000000000000000
-4.509787211764574 -5.858031586095773 -2.863296918049008 57.000000000000000
-4.511300944745974 -5.786759298104991 -2.981271643398083 54.000000000000000
-5.917885688257228 -9.223313128791629 -1.123111708148507 32.000000000000000
-5.977866845836598 -9.207407903490427 -1.312967506143856 31.000000000000000
-6.038288634701357 -9.191884312664735 -1.502775148391921 71.000000000000000
-6.107679025610982 -9.189532262539021 -1.698131242238396 80.000000000000000
-6.184680456322779 -9.196689457968979 -1.896883408873959 72.000000000000000
-6.274683423020946 -9.223793403213893 -2.101877064838477 28.000000000000000
-6.356874320397746 -9.236964508913742 -2.307669719811663 25.000000000000000
-6.431291339689775 -9.236483991366381 -2.512544364038950 33.000000000000000
-6.218895198727024 -8.828880885537687 -2.600743896702870 76.000000000000000
-5.719941186023780 -8.026314416912159 -2.548126705895312 77.000000000000000
-5.596629469786420 -7.762202109458591 -2.644076585470776 32.000000000000000
-5.660864080781510 -7.759369249774845 -2.826119371959766 35.000000000000000
-4.510487289477585 -6.109860989722085 -2.371294814596745 43.000000000000000
-4.514659662743719 -6.042546320266811 -2.492512406593952 55.000000000000000
-4.515018415673546 -5.970822071043168 -2.610953178835751 57.000000000000000
-4.514558892500879 -5.897148441846702 -2.728029006621125 56.000000000000000
-4.509644731134373 -5.819346119218052 -2.842882189555838 58.000000000000000
-4.506522630793165 -5.742553919983468 -2.957313688845260 58.000000000000000
-4.537994291125124 -5.710892410889009 -3.095495386035348 3.000000000000000
-5.951703348363517 -9.216960996661246 -1.114289566990495 32.000000000000000
-6.022816184298709 -9.217492680263337 -1.306620794049037 29.000000000000000
-6.079199054873969 -9.195069010513338 -1.495801037276251 72.000000000000000
-6.148935774547659 -9.192436952199962 -1.691459641941439 83.000000000000000
-6.224101232864623 -9.196021495888878 -1.889827635051086 71.000000000000000
-6.316747056392743 -9.226044547688687 -2.095753952547260 23.000000000000000
-6.403791728261438 -9.245327429686730 -2.303426191335976 29.000000000000000
-6.471853732855553 -9.234891026345421 -2.506112725327503 34.000000000000000
-6.530695161548908 -9.211729643500563 -2.707877708090730 29.000000000000000
-6.089149994612078 -8.489171922541475 -2.690196352062273 69.000000000000000
-5.635650767769542 -7.765708451622364 -2.641120343365583 32.000000000000000
-4.502890226415639 -6.132084127998117 -2.230405312046244 1.000000000000000
-4.514971735571074 -6.076175154341541 -2.355485028769420 52.000000000000000
-4.509956109475738 -5.996928698752476 -2.471263254427052 56.000000000000000
-4.512519215071183 -5.928560652513867 -2.590344170776868 56.000000000000000
-4.511977114363336 -5.855219930390203 -2.706814749151268 55.000000000000000
-4.506976524515941 -5.777769808490111 -2.821071187964308 60.000000000000000
-4.517566701725040 -5.718798007400004 -2.943898851187468 16.000000000000000
-4.549138804510298 -5.687206604448500 -3.081798367125272 2.000000000000000
-5.983351561889158 -9.207157844718207 -1.105008827694416 27.000000000000000
-6.067864037610245 -9.227402720168778 -1.300178857272370 23.000000000000000
-6.117972216842556 -9.194801672288410 -1.488211732659309 74.000000000000000
-6.190251121930196 -9.195188909733048 -1.684706491280980 77.000000000000000
-6.263560234668948 -9.195211824657273 -1.882697183924422 75.000000000000000
-6.367793386839469 -9.241092331755564 -2.092480800029489 24.000000000000000
-6.441841606730518 -9.240648590623184 -2.295889008294903 33.000000000000000
-6.503448675578178 -9.220386811770469 -2.496148706597748 33.000000000000000
-6.582860029202759 -9.225573992923998 -2.706259842847504 23.000000000000000
-6.128014668039047 -8.488286888236576 -2.685011346584834 48.000000000000000
-5.667912724289217 -7.759722970250477 -2.634911910255731 32.000000000000000
-4.514053214347552 -6.107504519263697 -2.218435512971255 54.000000000000000
-4.516979514154101 -6.039457981494992 -2.338516486678812 53.000000000000000
-4.511863330418326 -5.960479515172224 -2.453812795801413 56.000000000000000
-4.514367053899304 -5.892365109573210 -2.572403451667873 55.000000000000000
-4.506842381714988 -5.810388038369450 -2.684277666328650 56.000000000000000
-4.508670892352407 -5.742133576612032 -2.802175721256408 72.000000000000000
-4.500772910064619 -5.660184018894981 -2.912554906654007 2.000000000000000
-4.532421186262895 -5.629066052686246 -3.049444140300088 2.000000000000000
-6.023692963765945 -9.210577250573287 -1.097264685250766 25.000000000000000
-6.110816990114874 -9.233824328316011 -1.293177477039675 30.000000000000000
-6.156783474281598 -9.194394426088087 -1.480548678137040 81.000000000000000
-6.231624390964769 -9.197787786411647 -1.677871653634368 76.000000000000000
-6.305287228536010 -9.197513635418852 -1.876155615066343 72.000000000000000
-6.412253860156563 -9.246240183936569 -2.086906536925872 28.000000000000000
-6.477656388424004 -9.232628504554159 -2.287488275468033 34.000000000000000
-6.548566336721608 -9.224898895750064 -2.491299921074480 30.000000000000000
-6.617002763706377 -9.213923640192153 -2.697125428638861 27.000000000000000
-6.501806517200732 -8.948150822353416 -2.825272530801589 21.000000000000000
-4.509404267730418 -6.133884341298526 -2.079519184270117 12.000000000000000
-4.515920159344613 -6.070590519326239 -2.201998151927315 54.000000000000000
-4.516480221529127 -5.999728822930423 -2.320400926528456 56.000000000000000
-4.508953915907246 -5.918023822530206 -2.433908917808897 55.000000000000000
-4.513697457740820 -5.853217245438392 -2.553190775811056 53.000000000000000
-4.513003502532277 -5.780449290356319 -2.668636615905308 57.000000000000000
-4.519422681275878 -5.718263022517891 -2.789032562246939 11.000000000000000
-4.502163042395480 -5.624894761754300 -2.893230522940974 2.000000000000000
-4.517652943908947 -5.573930580054899 -3.018735789551592 4.000000000000000
-6.070657083782335 -9.223821713639797 -1.090619808233064 22.000000000000000
-6.156049559961568 -9.243389404470451 -1.286548146250412 31.000000000000000
-6.195632219635923 -9.193847011244580 -1.472811777804049 77.000000000000000
-6.270826464412132 -9.196964946844876 -1.670361403928823 77.000000000000000
-6.342590455701825 -9.193166306484404 -1.868211865008895 69.000000000000000
-6.450036990551667 -9.241542778348737 -2.079064668658846 33.000000000000000
-6.513466870119022 -9.224488454156816 -2.279026566538759 30.000000000000000
-6.593760273454956 -9.229240784009670 -2.486359589234782 23.000000000000000
-6.496071637316137 -8.987646631418682 -2.625276616207382 67.000000000000000
-6.494191600944695 -8.880360935255156 -2.798672740749368 35.000000000000000
-4.518006859799487 -6.106098448249127 -2.066775206715614 61.000000000000000
-4.515276438642382 -6.030643207917550 -2.184480986742361 57.000000000000000
-4.513443594059130 -5.957007204392879 -2.301150166777025 56.000000000000000
-4.512738068832966 -5.884688824972217 -2.417774297851810 53.000000000000000
-4.512799139253211 -5.814124339689013 -2.534020144235494 54.000000000000000
-4.514350549009572 -5.744615126376802 -2.650286809094409 65.000000000000000
-4.502127939613421 -5.659288905220208 -2.758784714798109 2.000000000000000
-4.498685883210544 -5.583865026776144 -2.870967204087922 2.000000000000000
-4.551499803093357 -5.578944316431888 -3.020611503751098 6.000000000000000
-6.115538802558999 -9.233560193553808 -1.083482951602742 27.000000000000000
-6.188103811192820 -9.232972065423189 -1.277083419756100 34.000000000000000
-6.236743662577831 -9.196441268026453 -1.465523964674484 73.000000000000000
-6.310065166986207 -9.196000613620587 -1.662776684548186 75.000000000000000
-6.386661260712668 -9.198412260553722 -1.862169118476364 70.000000000000000
-6.483313053461686 -9.230274798155344 -2.069710849696553 33.000000000000000
-6.551544248353177 -9.219425104557150 -2.271291417526996 28.000000000000000
-6.641311173807829 -9.236585040326624 -2.482180228240839 20.000000000000000
-6.492831216393068 -8.925826141380746 -2.601609211483508 21.000000000000000
-4.511830417787888 -6.130158186659954 -1.928328521712500 28.000000000000000
-4.517239263773922 -6.065931949380895 -2.049857316814842 57.000000000000000
-4.514404600840114 -5.990751209437103 -2.167006009807422 56.000000000000000
-4.519433746589471 -5.926516818889303 -2.286642299444857 53.000000000000000
-4.514010322304141 -5.848373018905364 -2.400430761732447 53.000000000000000
-4.511672519420326 -5.775087300756680 -2.514891994926693 56.000000000000000
-4.517823328962282 -5.711774720282064 -2.633332093191231 7.000000000000000
-4.505494146814890 -5.626724408209366 -2.741430087942740 2.000000000000000
-4.525379254383658 -5.580414647312556 -2.868032595361057 5.000000000000000
-4.569031021319301 -5.563863583942501 -3.011609793034353 6.000000000000000
-6.156099727756798 -9.236497417698343 -1.075479239578556 27.000000000000000
-6.222357295445050 -9.225746281136518 -1.268020206431045 34.000000000000000
-6.275675460468760 -9.195606598201280 -1.457635347399095 62.000000000000000
-6.349339884265803 -9.194894530089762 -1.655117402058492 79.000000000000000
-6.428547357203260 -9.200255738110691 -1.855383849653827 71.000000000000000
-6.523378269227467 -9.228539727832104 -2.062458350705630 30.000000000000000
-6.601045083051369 -9.230181783022061 -2.267406461993747 22.000000000000000
-6.597296018442129 -9.117075723055354 -2.443945888337608 21.000000000000000
-4.494853192956571 -6.139825788112095 -1.785690361009381 0.000000000000000
-4.522451387770608 -6.105387121714402 -1.916918761777778 64.000000000000000
-4.518560152297153 -6.028911564234178 -2.034024459222581 60.000000000000000
-4.513305068559595 -5.950915429481127 -2.149573657560427 58.000000000000000
-4.513612017355580 -5.880872592490421 -2.266307152104116 53.000000000000000
-4.510405887847792 -5.806090806147755 -2.380657950574686 54.000000000000000
-4.522014906132644 -5.750982831663762 -2.502279292689534 55.000000000000000
-4.504702650179686 -5.658358026764707 -2.606910522900917 3.000000000000000
-4.501632273615640 -5.585455432577213 -2.719848981806853 2.000000000000000
-4.547389020466410 -5.571112050920228 -2.862090776448741 8.000000000000000
-4.610017519060488 -5.577193770803438 -3.017987428215482 6.000000000000000
-6.190062417356428 -9.229362753962759 -1.066248763186377 31.000000000000000
-6.258839127401778 -9.221693614539840 -1.259347313833498 31.000000000000000
-6.321379709715192 -9.204440311608128 -1.451219182495985 75.000000000000000
-6.393166543440104 -9.200146014915871 -1.648548104261957 77.000000000000000
-6.472758810466100 -9.205172472578383 -1.849164441475843 71.000000000000000
-6.563478047695856 -9.226660305732400 -2.055130049421847 28.000000000000000
-6.655243871187434 -9.247111689243978 -2.264974706629086 26.000000000000000
-6.490428742174347 -8.912551156754818 -2.383100212115619 28.000000000000000
-4.516842393546185 -6.130680262268411 -1.779127402322976 40.000000000000000
-4.519034600465550 -6.061948021962681 -1.899665354429015 60.000000000000000
-4.517348014746584 -5.988851559097951 -2.017188121310239 60.000000000000000
-4.514311245862508 -5.914193202572429 -2.133286839158147 56.000000000000000
-4.514539725411928 -5.844395469149757 -2.249527209850856 54.000000000000000
-4.513587875364574 -5.772875446106871 -2.364621232903551 58.000000000000000
-4.511085603728520 -5.700153278573554 -2.478055543485748 5.000000000000000
-4.505376469332043 -5.622688357871314 -2.588685863492810 3.000000000000000
-4.528166362245464 -5.582032397752703 -2.716703831165241 5.000000000000000
-4.569374354602822 -5.561740662740267 -2.856115335192102 6.000000000000000
-4.627519522737512 -5.561961715832548 -3.008910257600955 14.000000000000000
-4.546729919426022 -5.396472395875991 -3.071440821559921 53.000000000000000
-6.224021157958878 -9.222113228935791 -1.056959894209648 32.000000000000000
-6.295336357374904 -9.217512871155765 -1.250608099122757 29.000000000000000
-6.355900812231987 -9.196777688155178 -1.442147364078940 70.000000000000000
-6.437067580153831 -9.205230345507685 -1.641888928849029 70.000000000000000
-6.514764171849080 -9.206698375279331 -1.842209763251862 74.000000000000000
-6.610485751470277 -9.234238608235584 -2.049857423280900 22.000000000000000
-6.624431511078113 -9.146235185685661 -2.233703893348657 22.000000000000000
-4.509920839599587 -6.153802675148849 -1.641262518878751 0.000000000000000
-4.520242994594111 -6.096429239899478 -1.765281221993123 60.000000000000000
-4.522357304548572 -6.027890866323683 -1.885375324355257 60.000000000000000
-4.515909170885448 -5.948849278510965 -2.000395116438816 60.000000000000000
-4.515110786763030 -5.877516311780210 -2.117035802251275 56.000000000000000
-4.512911439309904 -5.804942035114368 -2.231621453093706 55.000000000000000
-4.523647859239738 -5.748670728446993 -2.352286313672816 48.000000000000000
-4.504567474922819 -5.655357972713089 -2.456480015049572 4.000000000000000
-4.503479600849360 -5.584133444940046 -2.569148721626618 4.000000000000000
-4.549982009927477 -5.572716757971788 -2.710689145725995 9.000000000000000
-4.607927324437990 -5.572365619203031 -2.860406121273998 9.000000000000000
-4.547691683052466 -5.430539513202026 -2.936999310767190 34.000000000000000
-4.573285565661997 -5.392661516606889 -3.068798608937175 71.000000000000000
-6.257975477749975 -9.214748760501360 -1.047612619587338 27.000000000000000
-6.345358787442974 -9.232862214864188 -1.244452160572419 22.000000000000000
-6.397212812414114 -9.198770488064698 -1.434540254086516 69.000000000000000
-6.478764192511430 -9.206909791560767 -1.634564965944832 75.000000000000000
-6.554532946065230 -9.204851850681276 -1.834531075221932 81.000000000000000
-6.659887707052129 -9.244828771228043 -2.045192587540388 25.000000000000000
-6.489005996745015 -8.902878847702066 -2.167840722319417 16.000000000000000
-4.522467798859972 -6.132011154697072 -1.631253569174737 50.000000000000000
-4.518797006090800 -6.055964428643708 -1.749658382869896 53.000000000000000
-4.518477870071148 -5.984573813768486 -1.868212516078887 60.000000000000000
-4.516590334816974 -5.911976779030176 -1.984676878397556 59.000000000000000
-4.513350901389186 -5.837841857939645 -2.099726192296793 55.000000000000000
-4.515775278251043 -5.771578605269796 -2.216075368648061 64.000000000000000
-4.502838023599222 -5.685641421317495 -2.324088501203820 5.000000000000000
-4.504891588453997 -5.619515923332023 -2.438812941513607 4.000000000000000
-4.522723437797119 -5.571962416171977 -2.561758680665987 6.000000000000000
-4.576527878950552 -5.569118894205102 -2.707454028307057 5.000000000000000
-4.591846816438275 -5.517051128903230 -2.830855993411403 21.000000000000000
-4.574178075098520 -5.426787036430610 -2.934157016677305 74.000000000000000
-4.554573335394474 -5.335706949995424 -3.035923101180956 22.000000000000000
-6.300913368530189 -9.220422509854066 -1.039690079809353 26.000000000000000
-6.388728308751205 -9.238197919222381 -1.236870972347648 28.000000000000000
-6.438578209343873 -9.200609028166367 -1.426851132033675 72.000000000000000
-6.518226063540658 -9.205202777282178 -1.626587474959696 64.000000000000000
-6.601235101484712 -9.212491184628236 -1.828688411969949 45.000000000000000
-6.707090451088354 -9.252035006061163 -2.039718100017309 27.000000000000000
-6.498366226121535 -8.859756693363041 -2.150898353156590 25.000000000000000
