# This PCD file was generated using the MATLAB® pcwrite function
# from Computer Vision Toolbox®.
# .PCD v.7 - Point Cloud Data file format
VERSION .7
FIELDS x y z intensity
SIZE 8 8 8 8
TYPE F F F F
COUNT 1 1 1 1
WIDTH 638
HEIGHT 1
VIEWPOINT 0 0 0 1 0 0 0
POINTS 638
DATA ascii
9.140765151543800 -2.918638130347314 -2.233801224013723 120.000000000000000
9.138233079861887 -2.843851485288473 -2.388242221329424 115.000000000000000
9.144402654340121 -2.770592832989463 -2.544849592625218 116.000000000000000
9.159085751046165 -2.698485609172159 -2.704644084177043 47.000000000000000
9.384927797298371 -2.685070343967788 -2.930936964085207 15.000000000000000
9.132982351193389 -3.094633475757613 -1.938755534746560 0.000000000000000
9.143485077923673 -3.024370413266029 -2.095375916905646 117.000000000000000
9.140499327062395 -2.948130493610624 -2.249065282426252 119.000000000000000
9.141640347690950 -2.874431567220928 -2.404673557644101 114.000000000000000
9.147765185470117 -2.801087121316613 -2.561546222556807 114.000000000000000
9.140269265945554 -2.722326702363429 -2.715045316677081 108.000000000000000
9.295947394514625 -2.689427228420448 -2.919590248895807 26.000000000000000
9.143119983503221 -3.053973840100894 -2.110456052905022 115.000000000000000
9.143817305598011 -2.978862111341358 -2.265256189366058 117.000000000000000
9.148616501684099 -2.906240066801332 -2.422103379138049 113.000000000000000
9.143620229393497 -2.829351901154174 -2.576183401868218 114.000000000000000
9.139792878464448 -2.751639108039361 -2.730906874625894 113.000000000000000
9.203394865121034 -2.692238958192021 -2.906849213264579 29.000000000000000
9.138935108529317 -3.082361737477326 -2.124685200547604 29.000000000000000
9.147007529196973 -3.009647588683221 -2.281466776603855 118.000000000000000
9.144380268536851 -2.934569139682152 -2.436611883090746 114.000000000000000
9.146736521121658 -2.859932962159250 -2.592909266660580 114.000000000000000
9.146553409290199 -2.783222374781829 -2.748988530990191 115.000000000000000
9.140310654840608 -2.703241493685634 -2.903188343842596 83.000000000000000
9.150069673834459 -3.040486522570081 -2.297696818565209 115.000000000000000
9.147408719826181 -2.965300075626420 -2.453097057586157 113.000000000000000
9.142363588167612 -2.888241833810244 -2.607555010191632 113.000000000000000
9.142157195378893 -2.811491052554618 -2.763768419456893 114.000000000000000
9.143230397603929 -2.733642545586647 -2.920434270667637 98.000000000000000
9.138252404362690 -3.066428664086061 -2.310216925362402 53.000000000000000
9.150308712070514 -2.996083993232594 -2.469601421141042 112.000000000000000
9.145232639582517 -2.918908151676650 -2.624309274835996 113.000000000000000
9.141319692421042 -2.840910736420279 -2.779662653749057 71.000000000000000
9.135041976412280 -2.760778036770789 -2.934172578576392 31.000000000000000
9.146691334087494 -2.688752770511578 -3.096646924981117 5.000000000000000
9.789914558787581 -4.207613566023579 -0.656153191452481 22.000000000000000
9.145725099676003 -3.024488248333667 -2.484127057307630 111.000000000000000
9.147972898809963 -2.949626970774617 -2.641082462915043 112.000000000000000
9.147689888590349 -2.872662840761621 -2.797806624034131 112.000000000000000
9.137718663225264 -2.791252786396252 -2.951441260499663 1.000000000000000
9.714900028924331 -4.208086749733739 -0.665122044982218 21.000000000000000
9.141031751310598 -3.052902916280809 -2.498651297259311 80.000000000000000
9.146917948067999 -2.979203814162950 -2.656809493544551 114.000000000000000
9.150262667015916 -2.903326921242114 -2.814853799579213 117.000000000000000
9.169468405097684 -2.830794712276032 -2.978213300766988 2.000000000000000
9.643611930325347 -4.209774265811381 -0.674155448097010 20.000000000000000
9.823405915816195 -4.205287639954849 -0.857118473928992 1.000000000000000
9.139896262903916 -3.082564648964218 -2.514182866919417 0.000000000000000
9.145743316126346 -3.008811505836361 -2.672544951516621 112.000000000000000
9.145398428115508 -2.931700032557699 -2.829658373394853 117.000000000000000
9.219238078579609 -2.876240973701709 -3.011036883146261 10.000000000000000
9.412516039211001 -4.220691981299488 -0.507823798762749 22.000000000000000
9.572384096362438 -4.211099974876610 -0.683007842781981 21.000000000000000
9.748155983984983 -4.206013014812421 -0.864877697207116 0.000000000000000
9.148105113623807 -3.039664568185220 -2.689363520056241 108.000000000000000
9.151370634505932 -2.963627741854533 -2.847867643977274 115.000000000000000
9.243266918459335 -2.913974357097256 -3.035639326450840 14.000000000000000
9.341704287450755 -4.220742538806581 -0.517290466694248 20.000000000000000
9.501218366740357 -4.212064220033467 -0.691679516705218 33.000000000000000
9.687599315986711 -4.212713553401120 -0.873764275925903 0.000000000000000
9.853016832440741 -4.202359932091593 -1.059210225021715 0.000000000000000
9.849228924397330 -3.953556387223448 -1.565907241141587 0.000000000000000
9.135731441745621 -3.065667373593796 -2.701880563382280 19.000000000000000
9.153559007102963 -2.994434948033881 -2.864964370716944 114.000000000000000
9.245292316339350 -2.944934248413531 -3.053115827799137 13.000000000000000
9.274593324116820 -4.222088719443823 -0.526784127886320 20.000000000000000
9.433760364401209 -4.214295120647169 -0.700441305993726 24.000000000000000
9.601520258084390 -4.207913168973401 -0.880156517884890 0.000000000000000
9.781212266193352 -4.204901624079595 -1.066156149671076 0.000000000000000
9.808637316685449 -4.134008758331601 -1.238249399661978 0.000000000000000
9.807289357774083 -4.051322991069990 -1.406937622966605 1.000000000000000
9.795560010578265 -3.964995788444191 -1.572790029463476 1.000000000000000
9.828461541281438 -3.896743542392714 -1.746250124229725 0.000000000000000
9.151978051994510 -3.024090091524578 -2.880933330390284 112.000000000000000
9.247186413720936 -2.975944054554326 -3.070609778864404 14.000000000000000
9.214800900596931 -4.226426701662374 -0.536531171352867 18.000000000000000
9.369997070005773 -4.217823694411090 -0.709308248188062 24.000000000000000
9.537420041136354 -4.212329662581559 -0.888365787649516 0.000000000000000
9.705819145911436 -4.205497203857242 -1.072516654979287 0.000000000000000
9.755053494253300 -4.144520168408259 -1.246381922972907 1.000000000000000
9.728037051297491 -4.051510187384203 -1.410668043908701 1.000000000000000
9.716268050546288 -3.965708994006397 -1.575382920051569 1.000000000000000
9.756416230008206 -3.901046167151751 -1.749081229841275 0.000000000000000
9.859495069031542 -3.860980248000832 -1.935687089456897 0.000000000000000
9.150276439681930 -3.053774467412013 -2.896909832836405 51.000000000000000
9.230820817960204 -3.001109585376863 -3.082068182774612 11.000000000000000
9.140544336647482 -4.223765260239144 -0.545263474091743 20.000000000000000
9.302647555365624 -4.219384493402980 -0.717734601005455 24.000000000000000
9.469725302978208 -4.214804641323729 -0.896069484811426 0.000000000000000
9.634147432724719 -4.207301170552261 -1.079094113037999 0.000000000000000
9.661320017788567 -4.137569237181055 -1.249188665258733 1.000000000000000
9.645215020855151 -4.049756421060803 -1.413660543251793 1.000000000000000
9.648033519502308 -3.970530581530268 -1.579569595710428 1.000000000000000
9.691753268422881 -3.907932980659761 -1.753052880744369 0.000000000000000
9.838580740251716 -3.885949965865637 -1.947628784018363 30.000000000000000
9.152823843201363 -3.006006453919545 -3.072830111528889 2.000000000000000
9.080851256741335 -4.227467467455639 -0.554692044781194 19.000000000000000
9.235357330427203 -4.220605617720216 -0.725991183825998 23.000000000000000
9.394817013275164 -4.213677039612783 -0.902903700798481 0.000000000000000
9.566183930218866 -4.210344681527121 -1.085903621855334 0.000000000000000
9.585944903669882 -4.138000759611231 -1.254139552546798 1.000000000000000
9.569789960018495 -4.050665876048836 -1.417522515427085 1.000000000000000
9.557942529713314 -3.965914834364632 -1.579961431574832 2.000000000000000
9.605215515210862 -3.905581703935732 -1.752861221042605 0.000000000000000
9.766437585182466 -3.890465935304138 -1.949316726695114 19.000000000000000
9.840511567471847 -3.838880065485820 -2.132957555430561 0.000000000000000
9.147228182542392 -3.034486143814856 -3.087800255764261 1.000000000000000
9.013968807867780 -4.227481068247230 -0.563519430364176 19.000000000000000
9.168128117683885 -4.221487404377303 -0.734078274040250 24.000000000000000
9.338142185177382 -4.220372162223702 -0.911319560712835 1.000000000000000
9.491006023364752 -4.209819947964116 -1.091705395323019 0.000000000000000
9.547059887272210 -4.153890504894124 -1.263718790787073 3.000000000000000
9.552759213269169 -4.076072975436474 -1.429921855283515 3.000000000000000
9.551855881319149 -3.995923245224748 -1.594121275430858 3.000000000000000
9.555271849396505 -3.917741228960930 -1.759164445704377 2.000000000000000
9.687064530140470 -3.891683789639064 -1.949353244118395 18.000000000000000
9.365186145368458 -3.218869016756881 -3.015969946063997 9.000000000000000
8.957982126629679 -4.232274897477827 -0.572871199452574 21.000000000000000
9.104580310153798 -4.223708936395128 -0.742291180451242 25.000000000000000
9.266995876900850 -4.220183595901093 -0.918157848297323 1.000000000000000
9.423171291212618 -4.212158688668520 -1.098163010641230 0.000000000000000
9.551784984404417 -4.188735342664605 -1.279048021310654 4.000000000000000
9.550203257316792 -4.107685930992977 -1.444489541761409 3.000000000000000
9.552938907111997 -4.029009560062741 -1.609504334231146 3.000000000000000
9.552699757178400 -3.949239725763751 -1.774141183123018 2.000000000000000
9.589564042986400 -3.885113706199967 -1.945491443147328 23.000000000000000
9.780000172671446 -3.881513624751054 -2.152451765642708 17.000000000000000
9.315709424787492 -3.232992123825221 -3.017062120707755 28.000000000000000
8.894819303196696 -4.233360417349077 -0.581612534512013 21.000000000000000
9.041086695942472 -4.225612132065018 -0.750344897894912 25.000000000000000
9.206784307077260 -4.224618267522333 -0.925908859808835 1.000000000000000
9.351772370112165 -4.212522413976830 -1.104021942422114 1.000000000000000
9.501902438284366 -4.199576074879511 -1.287025580408270 1.000000000000000
9.551157064271989 -4.140900534817867 -1.459618270080371 3.000000000000000
9.557523612649849 -4.063688768582629 -1.625521450407833 2.000000000000000
9.557278930929265 -3.983797269291909 -1.790486736504322 2.000000000000000
9.557696006685598 -3.904789003397076 -1.954772079485333 53.000000000000000
9.693292149054059 -3.880069295127854 -2.149592886593410 13.000000000000000
9.865928746394079 -3.867619017236693 -2.357479397276673 8.000000000000000
9.266243840842767 -3.246874225791442 -3.018031948792910 20.000000000000000
8.831713363818277 -4.234129426904796 -0.590195777325210 22.000000000000000
8.974040505529477 -4.225498272546166 -0.757934927170954 26.000000000000000
9.121310062582296 -4.217053665833371 -0.930927022766174 1.000000000000000
9.284068428702849 -4.214168063652382 -1.110133749804635 1.000000000000000
9.441153592919648 -4.205331668115083 -1.293391045294814 1.000000000000000
9.551975640061618 -4.174161198152146 -1.474762239654415 3.000000000000000
9.554699288392390 -4.095321526775738 -1.640316768408215 2.000000000000000
9.558079213337770 -4.016894848156110 -1.806170958247657 4.000000000000000
9.554850262947189 -3.936298854818649 -1.969971517106625 54.000000000000000
9.610329410032444 -3.879642582783212 -2.147323464343614 23.000000000000000
9.840821925843642 -3.891262098400252 -2.368256553962992 32.000000000000000
9.252821836620416 -3.273261817800722 -3.030681298303779 14.000000000000000
8.765070720758940 -4.232846054021703 -0.598375754060340 23.000000000000000
8.914268486529611 -4.228464782089946 -0.765975806856894 26.000000000000000
9.068444939397958 -4.224182389427771 -0.939091860232999 1.000000000000000
9.216429914714647 -4.215472811526481 -1.116075536168569 1.000000000000000
9.365966396507121 -4.204285240512631 -1.297598965746773 1.000000000000000
9.541786926211140 -4.202679022132382 -1.488225551357913 2.000000000000000
9.555376056712493 -4.128546317605976 -1.655745668328239 2.000000000000000
9.529722745308092 -4.037742093030432 -1.816338951772984 3.000000000000000
9.551879014510110 -3.967834013406136 -1.985176197272848 53.000000000000000
9.560112423103604 -3.892076953223208 -2.152190383727447 52.000000000000000
9.754029961408628 -3.890229943609604 -2.364044521109109 16.000000000000000
9.253699577459138 -3.304753526299641 -3.048047286467630 14.000000000000000
8.709268510709956 -4.236465492792094 -0.607139305874514 23.000000000000000
8.858142997852809 -4.232853433846992 -0.774182431446869 24.000000000000000
9.008396652360176 -4.227669689427809 -0.946369246562548 1.000000000000000
9.152468994988412 -4.218100965505402 -1.122290310293297 1.000000000000000
9.294481267581419 -4.204491503388892 -1.302123329223729 1.000000000000000
9.466358604715985 -4.202266080068865 -1.491412270038781 1.000000000000000
9.559537858693155 -4.163393446922851 -1.671822638419576 2.000000000000000
9.512181786902381 -4.063112546065383 -1.828532223103720 4.000000000000000
9.498067756146122 -3.978152995980690 -1.989761704382505 18.000000000000000
9.556985825351429 -3.923597196641186 -2.167612274494977 53.000000000000000
9.674592266146322 -3.891661001180412 -2.361377381045486 16.000000000000000
9.254443367020379 -3.336291488160981 -3.065428693125500 14.000000000000000
8.653507003560678 -4.239809688968747 -0.615764842007909 25.000000000000000
8.791279024017165 -4.231777322948255 -0.781292397797850 24.000000000000000
8.944797717702079 -4.229156868976544 -0.953113826874953 1.000000000000000
9.088566355152716 -4.220409261761793 -1.128345368768500 1.000000000000000
9.241123475934934 -4.212563577009012 -1.309024450566633 1.000000000000000
9.398244324331024 -4.204702655865326 -1.495558489641485 1.000000000000000
9.484007095719317 -4.163386128133491 -1.673884511073344 2.000000000000000
8.915842059721356 -3.839226434030913 -1.728496674669034 13.000000000000000
9.422577449539338 -3.979044893243612 -1.989632112975821 5.000000000000000
9.557349250493914 -3.956638965439026 -2.183865243382246 54.000000000000000
9.584408897127066 -3.888286519990777 -2.355843380008427 34.000000000000000
9.251465682514821 -3.366569897466353 -3.081630388402212 13.000000000000000
8.583469870049818 -4.235813324045993 -0.623213024399678 25.000000000000000
8.728075185691399 -4.232103772690285 -0.788558945227742 14.000000000000000
8.884853990761673 -4.232037854944602 -0.960088098646309 1.000000000000000
9.024723610326154 -4.222398033722224 -1.134240980585853 1.000000000000000
9.166165524129189 -4.210441680820648 -1.312697389604200 1.000000000000000
9.326590008424835 -4.205170047662711 -1.498954197095567 1.000000000000000
9.502433977363435 -4.204528747302265 -1.692474673062417 1.000000000000000
8.891771540571641 -3.859711720822905 -1.738426962061545 23.000000000000000
9.423023065799320 -4.011843510937065 -2.005453550986943 4.000000000000000
9.557575660348080 -3.989725314611869 -2.200132589338012 54.000000000000000
9.562920635751487 -3.912495910237421 -2.367049781203127 53.000000000000000
8.531389321571430 -4.240344094886537 -0.631808674155261 26.000000000000000
8.679263264637836 -4.239111975016947 -0.796983592287877 3.000000000000000
8.807017963052584 -4.226010748867346 -0.964947536877922 1.000000000000000
8.957347932181875 -4.222373249483597 -1.139520146325809 1.000000000000000
9.105696445121529 -4.214601795567005 -1.318265509715143 1.000000000000000
9.024451308496387 -4.100511477026569 -1.464747147923895 1.000000000000000
8.803285839145071 -3.925894143857400 -1.582193921595592 20.000000000000000
8.889283157179568 -3.889568245940219 -1.752570629577349 24.000000000000000
9.553160612918207 -4.100411510153974 -2.049137318772215 38.000000000000000
9.550454157372332 -4.019820834296264 -2.214741937131099 41.000000000000000
9.570185550980115 -3.948519734391647 -2.385396492604765 51.000000000000000
8.472205555712611 -4.241047605110486 -0.639737628203115 26.000000000000000
8.616167104939125 -4.238846266905283 -0.803954442308841 1.000000000000000
8.754373406093539 -4.231710683988211 -0.972396500251974 1.000000000000000
8.900813293466799 -4.227122853266979 -1.146017058438811 1.000000000000000
9.034497471070754 -4.213434126028768 -1.322106013461975 1.000000000000000
8.884961061475559 -4.068309686040038 -1.456270316437131 24.000000000000000
8.772019674837100 -3.942653878347750 -1.590803325310905 92.000000000000000
8.893876394296996 -3.922626875901769 -1.768151881321242 22.000000000000000
9.556739082001789 -4.135224336596804 -2.065941384588896 46.000000000000000
9.557616289467672 -4.056030002654641 -2.232709448376019 39.000000000000000
9.566497560095600 -3.980137531071516 -2.401067609718821 47.000000000000000
9.848843925730513 -4.016339657295873 -2.644028949129273 26.000000000000000
9.443296352185698 -3.613775710546401 -3.032146948724797 7.000000000000000
8.409515560249522 -4.239660493257722 -0.647245659568961 28.000000000000000
8.438857868947684 -4.181636667561507 -0.799935402520012 4.000000000000000
8.537172978106710 -4.157010423264144 -0.961185665081355 9.000000000000000
8.837154464759863 -4.228165211856768 -1.151440796228399 1.000000000000000
8.949030939481178 -4.205161756841272 -1.323644908201692 35.000000000000000
8.878657196847376 -4.096679421722485 -1.469424409932617 23.000000000000000
8.765880231250488 -3.970672779902974 -1.603944340153204 65.000000000000000
8.797659694078760 -3.910999780506951 -1.763578357787536 45.000000000000000
9.333658688310909 -4.071298106736267 -2.033421553983318 28.000000000000000
9.564618680913243 -4.092323241167636 -2.250710105394436 53.000000000000000
9.566274726946640 -4.013285197596946 -2.417650465086136 41.000000000000000
9.729722414503298 -4.001484379510811 -2.629250938431525 6.000000000000000
9.343079179344663 -3.607549506231286 -3.017293159205226 23.000000000000000
8.357568806215278 -4.243378942031519 -0.655434820329848 28.000000000000000
8.354676398260979 -4.169741017315165 -0.804379343879761 11.000000000000000
8.481275054161344 -4.159982271683007 -0.967748394441239 22.000000000000000
8.773561935609576 -4.228889424944948 -1.156706182922669 1.000000000000000
8.888774624442913 -4.208322245177527 -1.328715754630643 39.000000000000000
8.954726813127836 -4.163403242154855 -1.496357292047516 22.000000000000000
8.867289065673202 -4.047841095974483 -1.636955432359885 19.000000000000000
8.773404686759308 -3.931038309061469 -1.773269301330434 84.000000000000000
9.549090131529356 -4.198726528865203 -2.096466836306321 33.000000000000000
9.560694290316613 -4.124055814511722 -2.266191590730886 53.000000000000000
9.569500307063944 -4.047992889353413 -2.435159428219693 51.000000000000000
9.589323569202794 -3.977081216012112 -2.608316408408960 22.000000000000000
9.292976570318704 -3.620252920135643 -3.018402765993470 23.000000000000000
8.175086747763915 -4.250776888455617 -0.504813342837121 26.000000000000000
8.302107860859909 -4.245027380318177 -0.663213093203899 29.000000000000000
8.291993765705245 -4.168148710880146 -0.810698287585167 18.000000000000000
8.425425677571951 -4.162678505733576 -0.974173398125264 21.000000000000000
8.710037310631630 -4.229295855576612 -1.161813501990503 1.000000000000000
8.821419873385443 -4.207771362761586 -1.332556781590885 26.000000000000000
8.955239019920620 -4.195369748583138 -1.510821885188505 34.000000000000000
8.878682372401478 -4.084415482712425 -1.653569924311118 8.000000000000000
8.767017761610486 -3.959073140591662 -1.786559664565369 54.000000000000000
8.896311000608408 -3.942969619831789 -1.968203535597204 47.000000000000000
9.345228222069734 -4.063874595268722 -2.231200742058152 42.000000000000000
9.565413713367956 -4.079708447109064 -2.450856070580064 51.000000000000000
9.567288566614460 -4.001306708439059 -2.619341540946660 52.000000000000000
9.267825323187351 -3.642514134850665 -3.027535062769774 12.000000000000000
8.119992977382662 -4.251457463642383 -0.513053098709778 23.000000000000000
8.246697452937113 -4.246402563759500 -0.670854966603991 28.000000000000000
8.240048502412350 -4.171641361745412 -0.817919939154723 21.000000000000000
8.366064689931726 -4.163327031144781 -0.980043690667314 22.000000000000000
8.639448048530967 -4.225895281239065 -1.165800364014293 0.000000000000000
8.757716510007882 -4.208598136986724 -1.336774944292129 32.000000000000000
8.898417459232975 -4.200379172163717 -1.515558488238245 42.000000000000000
9.029430443910670 -4.185772335813565 -1.696440924794324 25.000000000000000
8.796308869281303 -4.003399748990087 -1.807198031757779 11.000000000000000
8.767923791263934 -3.916982961798039 -1.954675642548332 53.000000000000000
9.427243616112412 -4.132693166090695 -2.267052050001285 36.000000000000000
9.568350592781545 -4.114520706487122 -2.468400755449929 52.000000000000000
9.566615245050354 -4.034491276408001 -2.636227777290481 51.000000000000000
9.263953063587460 -3.673136300039251 -3.043623392764372 11.000000000000000
8.064951964826465 -4.251866496227510 -0.521157464975539 21.000000000000000
8.191338955352840 -4.247504786746033 -0.678360674780425 29.000000000000000
8.188144472218012 -4.174880245144947 -0.825014570043508 22.000000000000000
8.310322124688494 -4.165462892185458 -0.986189169347800 22.000000000000000
8.504845334228500 -4.190550440159602 -1.160860391834359 1.000000000000000
8.694083401146889 -4.209106720492343 -1.340834974711034 40.000000000000000
8.820225659263484 -4.194923614525268 -1.516473273080754 46.000000000000000
8.983125344064216 -4.196254948024963 -1.702499181793396 40.000000000000000
8.843244289888814 -4.056127108753812 -1.831628594170043 8.000000000000000
8.761295178341953 -3.945013783644333 -1.968104937450809 32.000000000000000
8.969479972792540 -3.963663813368219 -2.172494923416130 53.000000000000000
9.560427062162352 -4.144751587768669 -2.483185990771294 51.000000000000000
9.569369271041703 -4.069233924642476 -2.654115864272230 49.000000000000000
9.259955449303471 -3.703780627545364 -3.059715369104553 11.000000000000000
8.013492139822789 -4.253876592352112 -0.529359671713981 23.000000000000000
8.136033739194508 -4.248334348721394 -0.685730454451758 27.000000000000000
8.129195591827729 -4.174226362196984 -0.831257665798269 22.000000000000000
8.251081910676779 -4.165531636857008 -0.991770883644908 21.000000000000000
8.384763459391596 -4.161547371233739 -1.157535834015083 20.000000000000000
8.634082596500793 -4.211034000879401 -1.345291923799340 38.000000000000000
8.770660512317502 -4.202730353139895 -1.522139204038543 57.000000000000000
8.915436298558628 -4.196446900303567 -1.704355895720071 43.000000000000000
8.857794851086313 -4.094320791141810 -1.849494967631077 14.000000000000000
9.039954970501867 -4.102569201081751 -2.046127093226123 71.000000000000000
8.776942339829009 -3.909644579821770 -2.141097480916536 43.000000000000000
9.281498113119714 -4.056587920362555 -2.427126535746285 35.000000000000000
8.945236084927245 -3.835321026446074 -2.497071887034112 68.000000000000000
9.259377246062970 -3.735876997337074 -3.076988800086714 11.000000000000000
7.962076638608574 -4.255635527311572 -0.537436377264457 24.000000000000000
8.084313441587682 -4.250747775912087 -0.693267281604402 25.000000000000000
8.080927135084334 -4.178768158490549 -0.838456507544173 22.000000000000000
8.198996565490205 -4.168910761283759 -0.998069328018995 21.000000000000000
8.325291326465598 -4.162080862501083 -1.162328363019224 23.000000000000000
8.591917860066767 -4.221396643607585 -1.352398559302802 20.000000000000000
8.710447857116117 -4.205145609943323 -1.525815364857642 45.000000000000000
8.847829596908186 -4.196298946184294 -1.706044131412810 36.000000000000000
9.007511839499614 -4.195681754807627 -1.895901124438888 0.000000000000000
8.986350333618647 -4.110236847953183 -2.049371790378675 56.000000000000000
8.762922011899812 -3.934514321641867 -2.152935406870526 41.000000000000000
9.049580689605852 -3.987270835914345 -2.382508053161584 69.000000000000000
8.810034566690902 -3.808466419351048 -2.475200692143334 15.000000000000000
9.272818933613557 -3.773776426654766 -3.099006373991953 11.000000000000000
7.910706719076998 -4.257143567940734 -0.545387794776220 24.000000000000000
8.025588626282307 -4.249176712639947 -0.700063187466996 27.000000000000000
8.029160077404068 -4.181237359020736 -0.845166610172208 22.000000000000000
8.146955405045746 -4.172035734682214 -1.004240736442470 22.000000000000000
8.272974136354518 -4.165888780473319 -1.167975003129649 23.000000000000000
8.539112531287111 -4.226292782774197 -1.357712227346485 1.000000000000000
8.646745198571120 -4.205534885730762 -1.528715080022704 42.000000000000000
8.762533052260387 -4.187317969530523 -1.704107605197216 18.000000000000000
8.961037302693009 -4.206131295220292 -1.901228546785688 0.000000000000000
9.537310420446422 -4.396306563626542 -2.191388268349129 40.000000000000000
8.923009595622501 -4.038179783300572 -2.207850491806754 70.000000000000000
8.789848406390899 -3.904058408471172 -2.329744392827872 32.000000000000000
8.881009697436948 -3.870613635826109 -2.511191119008644 57.000000000000000
7.862893857928204 -4.260302906636287 -0.553461220557813 24.000000000000000
7.977489388651365 -4.252942182950214 -0.707650932619688 27.000000000000000
7.977439362216545 -4.183453862639060 -0.851750551117169 23.000000000000000
8.091426326972142 -4.173084518237913 -1.009844343859567 22.000000000000000
8.213623747698131 -4.165851960757025 -1.172483847354058 22.000000000000000
8.482805872354074 -4.229165635947828 -1.362328358243065 1.000000000000000
8.586664741867541 -4.207344160506722 -1.532089986201461 38.000000000000000
8.723517169849504 -4.200111297479698 -1.711004756312587 42.000000000000000
8.886176330670375 -4.202928082391871 -1.900370951807925 0.000000000000000
9.550257212151774 -4.436501475090282 -2.210801176782918 16.000000000000000
8.993715424470569 -4.102322299957335 -2.241100312550266 63.000000000000000
8.772027399074611 -3.927407979033812 -2.340655010057188 44.000000000000000
9.107547889464694 -4.001718864460246 -2.591759551140920 74.000000000000000
9.648136665127085 -4.076456650843990 -3.089071068269585 7.000000000000000
7.804604111192728 -4.257496293606934 -0.560663872098755 25.000000000000000
7.925912823395104 -4.254589851150139 -0.714805648012985 26.000000000000000
7.925766254021460 -4.185417944965433 -0.858208548416962 23.000000000000000
8.039483086700550 -4.175692060901138 -1.015757604541061 19.000000000000000
8.157875182261474 -4.167325332872608 -1.177356394912160 22.000000000000000
8.285050209142360 -4.160699721997761 -1.343854477001845 7.000000000000000
8.533731727624774 -4.212351727178834 -1.536592245022668 32.000000000000000
8.659693665821488 -4.200695086196319 -1.712904669541560 40.000000000000000
8.832690870963328 -4.209480054225625 -1.903910095324273 0.000000000000000
9.513394794664398 -4.453585770747203 -2.218690889567628 17.000000000000000
9.567219922264805 -4.398223131126127 -2.400819911581570 41.000000000000000
8.849746999104589 -3.993850286479606 -2.377215585727575 31.000000000000000
8.791896960182811 -3.894379929627319 -2.517926290669395 24.000000000000000
9.367670277219609 -3.991174972584893 -3.016898393302003 15.000000000000000
7.753384184833005 -4.258243471465780 -0.568236060190238 24.000000000000000
7.870877301056089 -4.254090363440362 -0.721513472780557 26.000000000000000
7.874142015610080 -4.187129886264507 -0.864540822376032 23.000000000000000
7.987587875292922 -4.178046288315738 -1.021544491035302 5.000000000000000
8.105712559481447 -4.170339116623010 -1.182607101039376 23.000000000000000
8.232618389336881 -4.164407588466061 -1.348584403246050 21.000000000000000
8.498518259761456 -4.225891487304597 -1.544177621268889 1.000000000000000
8.599485030171023 -4.202689491918917 -1.715352514901470 38.000000000000000
8.765092046163774 -4.208975979006916 -1.904244372558119 0.000000000000000
9.444660705051376 -4.455484003176199 -2.219013849415872 14.000000000000000
9.551460208249502 -4.425342919623584 -2.413700050537316 21.000000000000000
8.951824940540739 -4.072034539061670 -2.420691832225163 63.000000000000000
8.770317372089247 -3.916200748786313 -2.527751745728816 48.000000000000000
8.816397720005838 -3.861586310916855 -2.698017495498394 0.000000000000000
9.313422719588388 -4.001196420458821 -3.017011841402408 20.000000000000000
7.702214888960969 -4.258740883713474 -0.575683845226986 25.000000000000000
7.819404893364148 -4.255225680640771 -0.728413015018338 27.000000000000000
7.826077359776106 -4.190469105567723 -0.871138240511986 22.000000000000000
7.928709843992271 -4.176443320813231 -1.026294985769012 3.000000000000000
8.046555384222852 -4.169449331899584 -1.186692343177597 23.000000000000000
8.169656005791024 -4.162470719364220 -1.351437108221518 22.000000000000000
8.431527573386738 -4.223363674748166 -1.545858353807613 1.000000000000000
8.560533166243122 -4.214818844554918 -1.721914637035246 9.000000000000000
8.701115136857556 -4.209842165350890 -1.905184588952474 0.000000000000000
9.368943630284491 -4.453681183457308 -2.217494795635369 12.000000000000000
9.521479605915253 -4.445824564526013 -2.422958120892105 28.000000000000000
9.551101899940171 -4.379017097555884 -2.599930336811447 39.000000000000000
8.752200932121649 -3.939530017360035 -2.538555905645599 16.000000000000000
8.738319302411838 -3.858665388317609 -2.690400191439257 12.000000000000000
9.266245074961757 -4.014002640389259 -3.019285513775575 14.000000000000000
7.654584755236916 -4.260930018514892 -0.583273179747948 26.000000000000000
7.764487654291912 -4.254194750168472 -0.734856784678140 27.000000000000000
7.771045190641606 -4.189798490026847 -0.876829092796705 22.000000000000000
7.876926169635628 -4.178271983663265 -1.031820405227594 3.000000000000000
7.994502512109742 -4.171935241651816 -1.191680294095116 23.000000000000000
8.113817621409952 -4.163832081550555 -1.355310297735448 21.000000000000000
8.234263050052524 -4.154720889747974 -1.523256495417457 8.000000000000000
8.496899674241709 -4.214529187903071 -1.723380297608222 1.000000000000000
8.637217326740618 -4.210389825483834 -1.905967042766951 0.000000000000000
9.307441994759367 -4.458253951229803 -2.219151013458427 11.000000000000000
9.438565355448638 -4.441298003479078 -2.418598783431732 20.000000000000000
9.559777742184250 -4.417523514373348 -2.619549487983974 48.000000000000000
8.628399141431837 -3.914882601688601 -2.518499249778370 2.000000000000000
8.484557354105416 -3.777079489191078 -2.628128809101209 9.000000000000000
9.271742217132074 -4.049587565394367 -3.038705778658757 17.000000000000000
7.610477572413298 -4.264840513457103 -0.591018201554862 25.000000000000000
7.720104765743321 -4.258669445764687 -0.742173131861790 27.000000000000000
7.719575120945529 -4.190755736188387 -0.882785541161012 22.000000000000000
7.828698728137640 -4.181720078321802 -1.037684639289030 1.000000000000000
7.935481187084718 -4.170478541493718 -1.195484447562984 23.000000000000000
8.058041018711107 -4.164918944195434 -1.359047140113709 21.000000000000000
8.185266843339166 -4.160091546908892 -1.527713659253482 20.000000000000000
8.443907422409849 -4.219198670534547 -1.726848580603227 1.000000000000000
8.573400215591199 -4.210619374993472 -1.906592043996396 1.000000000000000
9.231918919343995 -4.455727824423204 -2.217274593125360 10.000000000000000
9.359303120376550 -4.438018159152915 -2.414940148313979 17.000000000000000
9.578829613938179 -4.461042196297853 -2.642118420887106 51.000000000000000
8.522451809464171 -3.897612190851121 -2.503284715147200 6.000000000000000
8.308742949609700 -3.728750952703435 -2.589252967561171 24.000000000000000
7.559450096264038 -4.264619683572298 -0.598108014142377 25.000000000000000
7.668783575093562 -4.259063027423684 -0.748703283556180 27.000000000000000
7.675142706040327 -4.195279369370392 -0.889426475236211 22.000000000000000
7.777014188174833 -4.183054057924956 -1.042963597353668 18.000000000000000
7.890551006531273 -4.176146696249787 -1.201277480322630 24.000000000000000
7.998819317762951 -4.163905372529601 -1.362050502147907 22.000000000000000
8.125774288096080 -4.159833672987078 -1.530069289934120 22.000000000000000
8.246897025996651 -4.151095277533563 -1.700482707776280 10.000000000000000
8.509665400756877 -4.210531235366997 -1.907059905498543 1.000000000000000
8.565991818411792 -4.165652333606124 -2.072348619905458 18.000000000000000
9.287190989131908 -4.437694650107641 -2.412909804321973 18.000000000000000
9.573085437529132 -4.493179735985559 -2.657929093466641 51.000000000000000
8.504441260967566 -3.920214834562103 -2.513724425952776 34.000000000000000
8.249035600834164 -3.731780097924664 -2.586171873040134 26.000000000000000
8.320084751647542 -3.693825762404115 -2.758620119262837 31.000000000000000
7.511947857492705 -4.266120723236892 -0.605353913904478 26.000000000000000
7.617517216897570 -4.259206679429806 -0.755109205459467 28.000000000000000
7.620283894618630 -4.193836108740549 -0.894733512527526 22.000000000000000
7.725384025652129 -4.184136199094381 -1.048117323407518 23.000000000000000
7.838654903387367 -4.177872835499941 -1.205887173823849 23.000000000000000
7.950180935305601 -4.168106704338485 -1.366714892416092 17.000000000000000
8.069862751389298 -4.161088657418358 -1.532944995374530 22.000000000000000
8.190739529345992 -4.153065293611337 -1.702772629980284 21.000000000000000
8.316183760197926 -4.145408486306033 -1.878051156992854 12.000000000000000
8.449595279229019 -4.140060516712158 -2.059044082867507 19.000000000000000
9.211671309653337 -4.435320859400269 -2.409783508342278 20.000000000000000
9.581233937418997 -4.531966636722494 -2.677659171755185 51.000000000000000
8.514378119710154 -3.955776634287302 -2.532463712321975 5.000000000000000
8.196399152616250 -3.737702794677235 -2.585150430759027 8.000000000000000
8.270861120484302 -3.701891163990726 -2.758195449134916 31.000000000000000
7.457562932786535 -4.263432456786045 -0.611917306465179 27.000000000000000
7.569779315297270 -4.261055320932576 -0.761740552714499 27.000000000000000
7.572453322107958 -4.195979449765077 -0.900734778747513 23.000000000000000
7.677296008446664 -4.186868201410052 -1.053624535928370 24.000000000000000
7.779829894557682 -4.175598027397649 -1.209285708730348 24.000000000000000
7.887599355799820 -4.164689904831658 -1.368835417053313 13.000000000000000
8.014016088965775 -4.162069098369066 -1.535684520400919 22.000000000000000
8.138147643194397 -4.156548304961399 -1.705659733385287 21.000000000000000
8.259847400554138 -4.147836898649895 -1.879626021781323 21.000000000000000
8.382505951516293 -4.138062321489469 -2.057478601653751 19.000000000000000
8.558464454341417 -4.152239278693319 -2.254278411432546 22.000000000000000
9.582204135866357 -4.567512779344321 -2.695458200216056 51.000000000000000
8.513657392734984 -3.986527380377714 -2.548104637692044 2.000000000000000
8.227627242940398 -3.781893961883762 -2.610594570647101 36.000000000000000
8.211216119231509 -3.704999686465660 -2.754143635789901 31.000000000000000
7.417079265669855 -4.268436521772528 -0.619503693587655 26.000000000000000
7.518620388705179 -4.260709791509173 -0.767903329257430 26.000000000000000
7.524668385542742 -4.197892296653826 -0.906621174089841 23.000000000000000
7.625772359363256 -4.187457403898042 -1.058533142471601 22.000000000000000
7.735028308585637 -4.180567458738031 -1.214729924024042 24.000000000000000
7.839070113352788 -4.168384180084488 -1.373247641600188 23.000000000000000
7.958235673566946 -4.162775347900504 -1.538288128693156 22.000000000000000
8.075121666821319 -4.154380631828679 -1.706203865872902 23.000000000000000
8.200078277690357 -4.148220214159593 -1.880262028172798 21.000000000000000
8.329503304444932 -4.142684177270697 -2.059205309975667 20.000000000000000
8.463203797153373 -4.137212369852561 -2.244440084873657 21.000000000000000
9.583019218477729 -4.603114190580641 -2.713275954775270 50.000000000000000
9.580831193306908 -4.521336197239610 -2.885410306505510 46.000000000000000
8.439894545803460 -3.910293842314123 -2.694000393926709 23.000000000000000
8.176012003296453 -3.718893996685580 -2.758164455460957 44.000000000000000
7.369715189497183 -4.269251815158900 -0.626407985626708 27.000000000000000
7.477901167901610 -4.266037560436571 -0.775018487547319 25.000000000000000
7.466526339863859 -4.193731354130596 -0.911123342638716 22.000000000000000
7.574306820440512 -4.187795684379296 -1.063317213122459 22.000000000000000
7.676340825104978 -4.177748941262693 -1.217859318889123 24.000000000000000
7.787101077641596 -4.169979349329653 -1.376927388338735 24.000000000000000
7.899035442984369 -4.161370513448508 -1.540076141065129 23.000000000000000
8.019165871976448 -4.155515205862093 -1.708079650243853 22.000000000000000
8.140386812032080 -4.148307950251571 -1.880751897612705 22.000000000000000
8.266080514389293 -4.141801991498349 -2.058196587513920 22.000000000000000
8.403036578843457 -4.138877625709115 -2.243678286658611 21.000000000000000
9.583678832682805 -4.638770358776995 -2.731112152680570 51.000000000000000
9.577972856694311 -4.555203539155535 -2.902511442404989 31.000000000000000
8.362445312240187 -3.905063811677433 -2.685242824498270 24.000000000000000
8.172070877330182 -3.746968956399312 -2.772714412930359 50.000000000000000
8.295937277295526 -3.732337663799044 -2.965418057300784 6.000000000000000
7.322399441673926 -4.269839067921935 -0.633198823925707 26.000000000000000
7.430296773693493 -4.267207316424293 -0.781311444620550 21.000000000000000
7.418854301873449 -4.195154763405613 -0.916766796218655 22.000000000000000
7.522900643576925 -4.187883362803633 -1.067976987777551 22.000000000000000
7.628157263863425 -4.180350336419450 -1.222515367005853 23.000000000000000
7.742145892335158 -4.175072967755301 -1.381723089376737 19.000000000000000
7.850360377177215 -4.165213807656966 -1.543773262156643 19.000000000000000
7.966761560787377 -4.158193509600328 -1.710567441020197 23.000000000000000
8.087743672241379 -4.151678003036340 -1.882718261244555 22.000000000000000
8.209717150732127 -4.144121854151254 -2.058779823808445 21.000000000000000
8.339462534766868 -4.138517218541610 -2.241833147906958 22.000000000000000
9.587663987520287 -4.676178729629026 -2.749965045409059 51.000000000000000
8.281660437703325 -3.897802635516517 -2.675169342142673 24.000000000000000
8.171480500201712 -3.776667954491014 -2.788451469246648 48.000000000000000
8.308935247851919 -3.768565241852570 -2.986555049702690 7.000000000000000
7.275133156519242 -4.270198557741653 -0.639876419612011 28.000000000000000
7.375844609528384 -4.264161007286881 -0.786754853830073 20.000000000000000
7.378143045843339 -4.200283238547791 -0.923160826209627 12.000000000000000
7.478479596913967 -4.191601876568803 -1.073506696246657 22.000000000000000
7.580021326177891 -4.182719956894406 -1.227056012122342 23.000000000000000
7.676393678602679 -4.168640970577681 -1.382659954410338 3.000000000000000
7.798255922776590 -4.166966418101151 -1.546664615647847 21.000000000000000
7.910936942723793 -4.158789386145565 -1.712176255509617 23.000000000000000
8.031678037317910 -4.152994145868203 -1.883741895602887 22.000000000000000
8.153420886260724 -4.146165799535045 -2.059226314481549 20.000000000000000
8.279456301918531 -4.139579075816068 -2.240773174528677 22.000000000000000
9.577579908017579 -4.706829215743484 -2.764832334764905 50.000000000000000
8.259474763536936 -3.989196377655313 -2.534096464422424 0.000000000000000
8.211431140268919 -3.895060791292475 -2.668273610550076 22.000000000000000
8.205381831870630 -3.822536227407916 -2.816083412003531 34.000000000000000
7.132219631538152 -4.277914218840142 -0.503107407764136 27.000000000000000
7.234784846687897 -4.274387887659738 -0.647055181543980 29.000000000000000
7.335235419890222 -4.268860094335509 -0.793555813902032 21.000000000000000
7.420249770056691 -4.252670859489035 -0.939946759570134 1.000000000000000
7.420271374089920 -4.187308216270345 -1.076924619839529 22.000000000000000
7.521550062801141 -4.179088515640022 -1.229783652201401 23.000000000000000
7.631545473658346 -4.173249707587182 -1.387214677549333 3.000000000000000
7.746210774707694 -4.168465917321942 -1.549430388861585 18.000000000000000
7.855183014717098 -4.159111523236160 -1.713649655730191 23.000000000000000
7.972209794956794 -4.152227146883695 -1.883809094859939 22.000000000000000
8.097193097186134 -4.147934191266275 -2.059536329324006 21.000000000000000
8.226471899924466 -4.143841717039570 -2.241458432332768 22.000000000000000
9.591659280307899 -4.749497707193911 -2.786744297534866 51.000000000000000
8.179395101958168 -3.910165813360492 -2.673649767282473 40.000000000000000
8.366899204072771 -3.928683702986703 -2.887957421911392 19.000000000000000
8.427528850911088 -3.884305344044362 -3.062827690434058 9.000000000000000
7.088753861266551 -4.279340448694416 -0.510323445029166 43.000000000000000
7.184181070377849 -4.272273678567909 -0.653204381063380 29.000000000000000
7.291216746833786 -4.271356573042429 -0.799884602063190 15.000000000000000
7.389773635774022 -4.263611831564862 -0.947584171332179 1.000000000000000
7.372500705811547 -4.188606094469133 -1.081719154024859 22.000000000000000
7.476986585622896 -4.182899095648795 -1.234650863214276 23.000000000000000
7.576355442430144 -4.171930870253330 -1.389759340240764 2.000000000000000
7.680375200856969 -4.162206399454897 -1.549276819163699 4.000000000000000
7.802966048214923 -4.161007989940994 -1.715749794711445 23.000000000000000
7.919756966029683 -4.154802761711638 -1.885381555626776 24.000000000000000
8.044501121006135 -4.151215944310953 -2.060597946672173 22.000000000000000
8.163149131742230 -4.142573126590076 -2.239165055057304 22.000000000000000
9.584755628951937 -4.781932314996759 -2.802635700205055 50.000000000000000
8.150795813130213 -3.926797494942144 -2.680090492198929 24.000000000000000
8.400058336880299 -3.975390271416267 -2.915971900916856 15.000000000000000
8.422596446296247 -3.913154024252729 -3.077945854837691 14.000000000000000
7.134035542547672 -4.334455867731208 -0.523951532450324 21.000000000000000
7.140485217389237 -4.274009128765956 -0.659864249274847 28.000000000000000
7.247237892372017 -4.273644213053543 -0.806109218159148 9.000000000000000
7.348975238087484 -4.268431077509298 -0.953815016934537 0.000000000000000
7.324781957833127 -4.189674130692518 -1.086399534613377 23.000000000000000
7.422115004785019 -4.180670212041806 -1.237687130857947 23.000000000000000
7.524693949823465 -4.172255829264908 -1.392809483258612 3.000000000000000
7.635390452492956 -4.166934208427411 -1.553179944699531 4.000000000000000
7.750809970477084 -4.162651076664976 -1.717724313006297 24.000000000000000
7.867363971089515 -4.157124094073167 -1.886827870495603 24.000000000000000
7.984948439333643 -4.150645793515728 -2.059748022927416 22.000000000000000
8.106838581586143 -4.144525825061423 -2.238626788347108 22.000000000000000
9.584632687584367 -4.817854540193375 -2.820559851098241 27.000000000000000
8.135961775678091 -3.950008700914287 -2.691032004158710 17.000000000000000
8.095502752641607 -3.861372755775184 -2.826278758885850 19.000000000000000
8.417543056877820 -3.942020845562427 -3.093065880119481 15.000000000000000
7.131360136854293 -4.360707846827225 -0.534140124971883 11.000000000000000
7.093415713421453 -4.273479636809127 -0.666100075336533 38.000000000000000
7.199876267710204 -4.273691069775069 -0.811843808739214 2.000000000000000
7.297911291535169 -4.267041595641436 -0.958598352778295 0.000000000000000
7.277116271390967 -4.190512617929053 -1.090965980970173 22.000000000000000
7.374206115673235 -4.182076654655384 -1.241749982143697 24.000000000000000
7.473096513912196 -4.172329715085488 -1.395735376913555 7.000000000000000
7.586993558369362 -4.169552932539512 -1.556268963904684 2.000000000000000
7.695263702693283 -4.162173834722239 -1.718802349185288 26.000000000000000
7.811578679518324 -4.157353564992794 -1.887313929725648 23.000000000000000
7.928934312174995 -4.151589756522739 -2.059650253501652 22.000000000000000
8.047147222465815 -4.144425314935725 -2.236992710958311 23.000000000000000
7.875791393843905 -3.921591970581762 -2.476414007576875 1.000000000000000
7.993671877245252 -3.910862425879658 -2.659569326936424 10.000000000000000
8.032523711065734 -3.861322827919443 -2.820257585710035 36.000000000000000
7.101382931489783 -4.370246396356170 -0.542257222618083 4.000000000000000
7.107763236416416 -4.309931844127705 -0.678077631264404 32.000000000000000
7.155986392530775 -4.275552142869843 -0.817856114188467 1.000000000000000
7.253763199821192 -4.269435618810452 -0.964169558611152 0.000000000000000
7.212348865735068 -4.181176144157668 -1.092819239607759 3.000000000000000
7.322914348875523 -4.181290697280890 -1.245114269400700 25.000000000000000
7.431886448930137 -4.177955587637427 -1.400482387585732 22.000000000000000
7.528316785835441 -4.166221824982197 -1.557105673083983 18.000000000000000
7.646685520204288 -4.165178452100727 -1.721297480755096 25.000000000000000
7.759315484659478 -4.159157548886639 -1.888504088706964 24.000000000000000
7.876441163811434 -4.154077647928252 -2.060318783101210 23.000000000000000
7.997878990357747 -4.149393618678381 -2.238106398915231 24.000000000000000
7.837181149015154 -3.931918137226701 -2.479345760411248 24.000000000000000
7.910187923614845 -3.899749806423182 -2.647289644221091 12.000000000000000
8.038257760774901 -3.894199845193407 -2.838310014258078 16.000000000000000
7.098544289337553 -4.396467346111986 -0.552419991387212 2.000000000000000
7.193399323912629 -4.390112988197654 -0.697029495496112 28.000000000000000
7.108728365149005 -4.275153717771473 -0.823369734657947 1.000000000000000
7.209657371515730 -4.271620476744851 -0.969636575219281 0.000000000000000
7.226471926021656 -4.217486653224645 -1.106575723704808 2.000000000000000
7.278549970558784 -4.184199017911823 -1.249533074626056 23.000000000000000
7.380401836276104 -4.177557509564486 -1.403174254814303 23.000000000000000
7.486918665508130 -4.172178369236685 -1.561384178009838 15.000000000000000
7.587840387104166 -4.162289815157596 -1.721336037636529 23.000000000000000
7.707115943802534 -4.160708275787707 -1.889568858913710 24.000000000000000
7.824010574703889 -4.156311432268528 -2.060861423025728 23.000000000000000
7.938340935986142 -4.148733957780799 -2.236196264106332 24.000000000000000
7.826054694929562 -3.955954984904096 -2.490932369492072 29.000000000000000
7.603941553060853 -3.777455291134655 -2.559751624887324 20.000000000000000
7.745916000986195 -3.781704340273555 -2.750600223300756 22.000000000000000
7.102372954405555 -4.426932687754443 -0.563124670583447 2.000000000000000
7.193690204437497 -4.418657377374690 -0.707864551981667 31.000000000000000
7.098979585307386 -4.297199363135189 -0.833166538490063 2.000000000000000
7.158770463659392 -4.269526330743712 -0.974071023962849 0.000000000000000
7.209656383272234 -4.235839874664902 -1.115621526926029 3.000000000000000
7.234228673897849 -4.186897036289150 -1.253847160250116 6.000000000000000
7.328984922528024 -4.176909352558013 -1.405742602993267 23.000000000000000
7.438686878090168 -4.174091559194935 -1.564123136196999 23.000000000000000
7.542819721823717 -4.166696379602986 -1.724371167779876 23.000000000000000
7.651547047864695 -4.160138883452784 -1.889660351676274 23.000000000000000
7.768209584602529 -4.156453939312780 -2.060367564309987 22.000000000000000
7.882324284330519 -4.149587966588159 -2.235115116543239 24.000000000000000
7.831975989881303 -3.988700389375952 -2.507991486770824 2.000000000000000
7.671860936058851 -3.840245937394946 -2.597759980848080 29.000000000000000
7.700627246470565 -3.788662288544538 -2.750004013501735 16.000000000000000
7.102689103730468 -4.455337338146283 -0.573578851656926 2.000000000000000
7.156569136405596 -4.424188884373536 -0.714987350400335 24.000000000000000
7.092547383164142 -4.321299490095291 -0.843354216491295 1.000000000000000
7.121576635894866 -4.275363713202848 -0.980258812204568 2.000000000000000
7.206431671230884 -4.262210303000139 -1.126769675168759 3.000000000000000
