# This PCD file was generated using the MATLAB® pcwrite function
# from Computer Vision Toolbox®.
# .PCD v.7 - Point Cloud Data file format
VERSION .7
FIELDS x y z intensity
SIZE 8 8 8 8
TYPE F F F F
COUNT 1 1 1 1
WIDTH 634
HEIGHT 1
VIEWPOINT 0 0 0 1 0 0 0
POINTS 634
DATA ascii
1.032029426287176 -4.729432857475573 -1.866205805882029 2.000000000000000
1.018068482695104 -4.645381844276350 -1.929089963016383 1.000000000000000
1.061517239470620 -4.822993123488777 -2.104125110606937 56.000000000000000
1.037263070898969 -4.693006129765544 -2.146968744004502 43.000000000000000
1.026794295971244 -4.626708310115776 -2.216548597903177 86.000000000000000
1.027114175327371 -4.608687559366459 -2.308803034254418 28.000000000000000
1.060071006975986 -4.738456206983800 -2.479432643704125 7.000000000000000
1.075903299015958 -4.769154371767437 -2.714417556202087 1.000000000000000
1.140956308992869 -5.009848631825069 -3.090574604692444 27.000000000000000
1.029457423923720 -4.874620470390538 -1.530763431095041 2.000000000000000
1.028581395700544 -4.850466068313773 -1.619152627937048 0.000000000000000
1.036574499556276 -4.869281488939429 -1.722624476878656 0.000000000000000
1.039156037349095 -4.860201680789286 -1.817651878686873 4.000000000000000
1.043570121014080 -4.860324311075220 -1.917235768938670 5.000000000000000
1.043478440706232 -4.819102869420532 -2.101666071887751 54.000000000000000
1.021083867811203 -4.696248543806112 -2.147634361266992 42.000000000000000
1.010701114428091 -4.629933484897863 -2.217210676213549 87.000000000000000
1.010939739167813 -4.611929279653147 -2.309468588928917 28.000000000000000
1.027981718067133 -4.672239181952675 -2.443730470806046 3.000000000000000
1.059599331118083 -4.794591377585322 -2.616722908425461 1.000000000000000
1.058701700583906 -4.772600289395472 -2.715124525108009 6.000000000000000
1.118998902841215 -5.022399759347871 -2.975647511507808 16.000000000000000
1.118052170191708 -4.993471365898886 -3.078958762743914 27.000000000000000
1.028544390755854 -4.829552048393906 -2.105456588984655 54.000000000000000
1.003367540424395 -4.692303836670387 -2.145011487892565 43.000000000000000
0.994598057022050 -4.633113793296306 -2.217849247206735 85.000000000000000
0.993998332695377 -4.611613634667155 -2.308352442576913 29.000000000000000
1.020474666514884 -4.717282537474679 -2.466227263785272 6.000000000000000
1.039468360767832 -4.784177944417822 -2.609875652805841 11.000000000000000
1.037019638752181 -4.755500403787931 -2.704150546551562 16.000000000000000
1.044421847186451 -4.768958947637857 -2.824148289460818 30.000000000000000
1.054772686711077 -4.792927729529276 -2.953858892851456 21.000000000000000
1.062379255145598 -4.800497353990983 -3.076780049428600 31.000000000000000
1.009780569738525 -4.821959062673463 -2.101378118968548 49.000000000000000
0.987193258203767 -4.695451216214401 -2.145628893147120 42.000000000000000
0.976989127817298 -4.629160137861700 -2.215072157325589 63.000000000000000
0.976327088542087 -4.607733397646845 -2.305453177227590 40.000000000000000
0.999327554661663 -4.699629144751144 -2.455941029483315 7.000000000000000
1.021636984380213 -4.784052647366671 -2.608646035661113 11.000000000000000
1.018405692379830 -4.751998588945870 -2.700918224675603 43.000000000000000
1.027792834364330 -4.775720072294645 -2.826813697559741 31.000000000000000
1.033541832967765 -4.779607904058826 -2.944215271165482 36.000000000000000
1.036648901106922 -4.767522677882602 -3.054115677525806 43.000000000000000
0.984404340385850 -4.781874214673848 -2.083144519630566 27.000000000000000
0.961402743874334 -4.652068567495140 -2.124989131123877 37.000000000000000
0.951326678072454 -4.586136249067813 -2.193607954164516 82.000000000000000
0.949906918001333 -4.561594165412800 -2.281420504248418 50.000000000000000
0.952094070102589 -4.556399378725756 -2.380068398853914 18.000000000000000
0.980627175651312 -4.673344994105881 -2.547147602405412 4.000000000000000
1.007754617170644 -4.786071234530963 -2.719038206713270 8.000000000000000
1.012561088106017 -4.789211509077098 -2.833462398581819 21.000000000000000
1.019543291360060 -4.799733075371474 -2.955178147291255 23.000000000000000
1.021091802795897 -4.780862610920044 -3.061135120469171 34.000000000000000
0.959313963595512 -4.741687656268788 -2.064876482901307 31.000000000000000
0.944642991941935 -4.651517379916945 -2.123919885990427 41.000000000000000
0.934656525595826 -4.585597621873500 -2.192472492285648 113.000000000000000
0.932463395736137 -4.557576993601274 -2.278465264823803 64.000000000000000
0.935248311526414 -4.555955247948992 -2.378814489293573 21.000000000000000
0.953958159703722 -4.628107355658057 -2.521373065224281 4.000000000000000
0.990499499860159 -4.789327453698141 -2.719645065450646 0.000000000000000
0.942399041118355 -4.741090083532571 -2.063851948936342 29.000000000000000
0.927898718398656 -4.650916893665097 -2.122826421687541 39.000000000000000
0.920135154405330 -4.595664487816534 -2.196405065794896 120.000000000000000
0.917183199212481 -4.564070988546166 -2.280764562727506 64.000000000000000
0.919825550567512 -4.562443094220640 -2.381179952990022 21.000000000000000
0.936726504351716 -4.627721812064960 -2.520047278561104 4.000000000000000
0.926909405604987 -4.747663604627133 -2.065945122964286 28.000000000000000
0.911872082433782 -4.653849822838120 -2.123343385264728 37.000000000000000
0.902760501334730 -4.591480812952880 -2.193524885091445 125.000000000000000
0.900478601457395 -4.563477072125599 -2.279520848884979 65.000000000000000
0.902986183020353 -4.561904411555780 -2.379878167701501 21.000000000000000
0.919510255292514 -4.627285638847438 -2.518696588898345 4.000000000000000
0.911386163703627 -4.754196394944267 -2.068015449388259 30.000000000000000
0.895836593768407 -4.656738048196940 -2.123836987092082 35.000000000000000
0.886799192859982 -4.594355677377577 -2.194016203516127 119.000000000000000
0.883789878978308 -4.562834047715683 -2.278253037487722 65.000000000000000
0.886162622096972 -4.561316234724319 -2.378552083524466 19.000000000000000
0.902984977682735 -4.630262082337880 -2.519205267330036 4.000000000000000
0.893788841488404 -4.749843929952334 -2.065347464211723 30.000000000000000
0.879792410666333 -4.659581541235939 -2.124307222297948 33.000000000000000
0.870829230169009 -4.597186016414221 -2.194484263413343 118.000000000000000
0.868458458558233 -4.569198667752987 -2.280483159412272 62.000000000000000
0.870021730679099 -4.564176091409067 -2.379024757070845 19.000000000000000
0.885787725308398 -4.629727062633954 -2.517805280637832 3.000000000000000
0.878235840915438 -4.756288407538010 -2.067370888846773 29.000000000000000
0.863074764847855 -4.658791066597773 -2.123118401802313 34.000000000000000
0.854189121675428 -4.596411452436458 -2.193230198661857 131.000000000000000
0.852435526354231 -4.571992463617716 -2.280929325084840 67.000000000000000
0.854526562695371 -4.570490527745949 -2.381297270277820 19.000000000000000
0.869907705649111 -4.636076644517861 -2.520150378411635 3.000000000000000
0.861994165728962 -4.759072795997002 -2.067798873355555 28.000000000000000
0.848331157063272 -4.668725545882720 -2.126813584961736 32.000000000000000
0.839513248211232 -4.606275478393527 -2.197049777139406 89.000000000000000
0.836404231139068 -4.574741554604638 -2.281352158415310 58.000000000000000
0.837072426104584 -4.566258953930928 -2.378075885900409 18.000000000000000
0.852717775876287 -4.635445061313051 -2.518701546085413 3.000000000000000
0.845744180825549 -4.761811865359898 -2.068203215237180 29.000000000000000
0.830969086755238 -4.664249935108847 -2.123941364467080 35.000000000000000
0.822232097881582 -4.601845045534621 -2.194049350881086 141.000000000000000
0.820998217414035 -4.580980620850509 -2.283513625620627 64.000000000000000
0.821548185222991 -4.572485369303610 -2.380301688202827 19.000000000000000
0.838047651070135 -4.648650048442702 -2.524770259181911 3.000000000000000
0.829486046585981 -4.764505588593189 -2.068583910500955 28.000000000000000
0.814904086970379 -4.666912171616644 -2.124317799072303 34.000000000000000
0.806241481552226 -4.604494955472019 -2.194424042535353 134.000000000000000
0.803696090294836 -4.576568752842310 -2.280365550729132 63.000000000000000
0.804756766482199 -4.571659066576529 -2.378856011991845 18.000000000000000
0.821454421672541 -4.651399821345043 -2.525159071247973 3.000000000000000
0.812601505278734 -4.763528726989918 -2.067367616260001 30.000000000000000
0.799446623757595 -4.673127054856682 -2.126307744643068 37.000000000000000
0.789630889034536 -4.603531610161681 -2.193075414418013 136.000000000000000
0.788261750054116 -4.582720329182069 -2.282480623773837 62.000000000000000
0.789191690501619 -4.577799372181969 -2.381035359605890 18.000000000000000
0.804251951711156 -4.650627481109530 -2.523637618620715 3.000000000000000
0.796339929457854 -4.766129699223004 -2.067700753720303 35.000000000000000
0.782147515123586 -4.668502655420679 -2.123363421771239 35.000000000000000
0.774836547821996 -4.613231483959683 -2.196803951098605 122.000000000000000
0.771602293476162 -4.581749569013272 -2.281047300594405 59.000000000000000
0.773594021168699 -4.583898515919378 -2.383191701513786 18.000000000000000
0.787654979680270 -4.653282627224534 -2.523977896922875 3.000000000000000
0.781851675064901 -4.779572690774063 -2.072731736574946 24.000000000000000
0.766071698593387 -4.671028366486038 -2.123669501616721 26.000000000000000
0.758810423482842 -4.615749387762714 -2.197109084816211 54.000000000000000
0.757295615501839 -4.594900931542048 -2.286642250124777 35.000000000000000
0.756224121195989 -4.579420890858013 -2.379849865620635 10.000000000000000
0.771050185873962 -4.655891447210494 -2.524294048373904 1.000000000000000
0.800414210734664 -4.999951394624651 -2.167460989878482 2.000000000000000
0.803765590359827 -5.008618189050973 -2.276247946086115 1.000000000000000
0.765773097230981 -4.761201581501937 -2.265421608412157 2.000000000000000
0.740621169601734 -4.593840439564288 -2.285162204081265 0.000000000000000
0.740031436459802 -4.581917837781837 -2.380134114050688 0.000000000000000
0.735595510561072 -4.686760740090177 -2.129124939967537 0.000000000000000
0.726736159992633 -4.620650961353601 -2.197649482310864 0.000000000000000
0.723964301009531 -4.592731231471504 -2.283658364626815 0.000000000000000
-0.123081321371799 -9.515415978115438 -3.085729371113871 4.000000000000000
-0.153943746554605 -9.507946558417602 -3.081439528073139 4.000000000000000
-0.184828245955704 -9.504194890776436 -3.078340786468585 3.000000000000000
-0.215944437587839 -9.511770559026155 -3.078894092416648 3.000000000000000
-0.213957932518182 -8.953213151184181 -3.072005903733773 13.000000000000000
-0.231304983541961 -8.910513657797878 -2.882476081216662 20.000000000000000
-0.239548843671679 -8.813147826598348 -3.022158456802090 47.000000000000000
-0.235831650204181 -7.988338115175396 -3.055482546243389 24.000000000000000
-0.250377650778805 -8.932924725833278 -2.715836312185795 15.000000000000000
-0.259754403057154 -8.891296410823106 -2.874452954037792 36.000000000000000
-0.272859860875614 -8.956684990247924 -3.069548090809219 25.000000000000000
-0.249149874955183 -7.875177172128591 -2.853753466470880 27.000000000000000
-0.263979870089726 -8.032978321616127 -3.070893992412098 19.000000000000000
-0.267513066460127 -8.894441065294005 -2.533151968454464 15.000000000000000
-0.279088047584323 -8.928823295650249 -2.712769879062545 18.000000000000000
-0.265371593670355 -7.863331055264649 -2.693224578935705 14.000000000000000
-0.274958679948445 -7.867414320186385 -2.849311081445342 42.000000000000000
-0.278819001344732 -8.717359158311774 -2.315704054815063 0.000000000000000
-0.295846878302164 -8.890241339550972 -2.530135875627596 32.000000000000000
-0.325447448789056 -9.437243926567890 -2.865298418757500 3.000000000000000
-0.281749300640202 -7.886327973411764 -2.546313497464887 12.000000000000000
-0.290760796652400 -7.851667307752337 -2.687600165110733 40.000000000000000
-0.330652931454026 -9.754384542201805 -2.405276458491901 4.000000000000000
-0.303894659920836 -8.643523150956618 -2.294310261178417 20.000000000000000
-0.295257639661078 -8.093877242979058 -2.301819737035782 0.000000000000000
-0.300646135896037 -7.971727915710781 -2.418690128736678 16.000000000000000
-0.307264986087951 -7.882135783435837 -2.543318249807661 51.000000000000000
-0.318968972809519 -7.911788870232357 -2.706525386404544 7.000000000000000
-0.341886183903295 -8.223770552621991 -2.974931215185224 4.000000000000000
-0.343314921218518 -8.005862864839905 -3.055498429756772 5.000000000000000
-0.335868732149494 -9.766775132293528 -2.043905993429501 2.000000000000000
-0.338208240896302 -9.471425031220193 -2.157805149628995 2.000000000000000
-0.339335242351893 -9.159982377540404 -2.256806246988702 3.000000000000000
-0.319465996259761 -8.333934152261293 -2.210399742808218 20.000000000000000
-0.321000075978504 -8.089564472807844 -2.298904432878181 32.000000000000000
-0.325896744460959 -7.959790207012309 -2.413401577090036 42.000000000000000
-0.334519577214220 -7.919714907334947 -2.553780812637811 10.000000000000000
-0.350868183042592 -8.047465090918484 -2.751243560388049 4.000000000000000
-0.351559793268747 -7.832416376415328 -2.831705390434860 4.000000000000000
-0.352434442248591 -7.624534943436495 -2.908346757220115 3.000000000000000
-0.354067924767228 -7.442642948253202 -2.988391850053789 5.000000000000000
-0.356552986799842 -7.282351963509485 -3.072452415770447 6.000000000000000
-0.343190080976763 -9.155759651178641 -1.914127941953804 4.000000000000000
-0.348375239266177 -8.971933579372990 -2.042132840925285 4.000000000000000
-0.350829072549616 -8.728578197113960 -2.148687417639154 3.000000000000000
-0.346061511207518 -8.337245624636541 -2.209525022474195 13.000000000000000
-0.347043610730875 -8.092868744102292 -2.298137555278853 23.000000000000000
-0.354617174163542 -8.028101128367174 -2.432417507850577 3.000000000000000
-0.357864545790218 -7.865929549432837 -2.534772039104439 3.000000000000000
-0.358304251477941 -7.642303115441445 -2.611106500142570 4.000000000000000
-0.359728942745898 -7.463587802796932 -2.696773664528003 3.000000000000000
-0.361413175104088 -7.291721128959039 -2.779843070094697 4.000000000000000
-0.362310474301068 -7.112109535111268 -2.854157157689658 2.000000000000000
-0.362581980577236 -6.924748503169369 -2.920097340023833 2.000000000000000
-0.364516411023013 -6.774093689586309 -2.995970372150205 3.000000000000000
-0.366603435587174 -6.626434429192922 -3.069415689772626 6.000000000000000
-0.355146245075311 -8.752107789045255 -1.827890695184568 4.000000000000000
-0.355262544828161 -8.468535878040877 -1.925760267161173 4.000000000000000
-0.359776764344144 -8.301038291914704 -2.041680669449522 3.000000000000000
-0.361802367795859 -8.097105593590454 -2.144163252390887 3.000000000000000
-0.364072087025891 -7.900040416794743 -2.241698670307442 3.000000000000000
-0.362748614718548 -7.652695009794950 -2.317043057342533 3.000000000000000
-0.364541554406406 -7.477385280442767 -2.407969024495292 4.000000000000000
-0.366874839395883 -7.312752610963603 -2.496947757375643 3.000000000000000
-0.367779252860320 -7.139837334611530 -2.578267103395772 3.000000000000000
-0.367577190567624 -6.947687825728917 -2.647197930868149 2.000000000000000
-0.368528564593161 -6.785265409612083 -2.721536334168749 4.000000000000000
-0.370492581783297 -6.644435760601484 -2.800465795199745 2.000000000000000
-0.371193302222264 -6.484929626081663 -2.866688556009121 2.000000000000000
-0.372234538426742 -6.332304027411317 -2.931810217737949 3.000000000000000
-0.373455075347424 -6.190354060731829 -2.997430884854261 3.000000000000000
-0.375855765642332 -6.062249723988506 -3.066313214176708 5.000000000000000
-0.373126062454454 -5.869978894467267 -3.098391311636745 7.000000000000000
-0.363068061521571 -8.313233601347628 -1.734453421723311 2.000000000000000
-0.364981661264079 -8.097635430653490 -1.839682803954572 2.000000000000000
-0.367297766964172 -7.900655978984023 -1.941510610871634 2.000000000000000
-0.366960933830940 -7.667654498502262 -2.028796235367154 3.000000000000000
-0.370772402653521 -7.522661174121505 -2.132998050818471 3.000000000000000
-0.371555621872322 -7.338465847390057 -2.220324621884108 2.000000000000000
-0.373041650363020 -7.172502242250601 -2.308243382315768 3.000000000000000
-0.371867907356739 -6.956722807338885 -2.373883325129754 2.000000000000000
-0.372862687321303 -6.801043764435404 -2.454460659826890 4.000000000000000
-0.374384256418363 -6.655908017098937 -2.534590479044726 2.000000000000000
-0.374684717708430 -6.495486175250500 -2.603907584659138 3.000000000000000
-0.376281843225297 -6.360425774328468 -2.679391711511604 2.000000000000000
-0.376111207271600 -6.199405102692858 -2.739135033632049 2.000000000000000
-0.377412613676011 -6.063532647205013 -2.806064068284473 3.000000000000000
-0.378736573041901 -5.934580470402159 -2.872303822467561 3.000000000000000
-0.372415047715544 -5.683951455188454 -2.873743705916740 3.000000000000000
-0.367870489763178 -5.480966115524847 -2.891875817394286 7.000000000000000
-0.376282315507381 -5.461074326431175 -3.003766771943304 8.000000000000000
-0.370471351879941 -7.921304022826360 -1.650967460427728 2.000000000000000
-0.369570689049585 -7.668281343385162 -1.740477734556371 2.000000000000000
-0.373648774176556 -7.527435045417239 -1.848163475069435 3.000000000000000
-0.375308925367460 -7.354084217573527 -1.944233661722654 2.000000000000000
-0.378084843203421 -7.202935879398771 -2.040779892249454 2.000000000000000
-0.376481796184864 -6.989812799943086 -2.113320249960524 2.000000000000000
-0.377456413128331 -6.829582047382283 -2.196404269314262 3.000000000000000
-0.380102005544079 -6.698985769701623 -2.284481587300832 3.000000000000000
-0.379417506287721 -6.526119987772353 -2.353827576761005 2.000000000000000
-0.381023339871304 -6.393980460027447 -2.433462366929171 3.000000000000000
-0.380021926322495 -6.224234711890423 -2.493820680564756 2.000000000000000
-0.379682324122777 -6.069047188835795 -2.555332376117253 2.000000000000000
-0.381883513582652 -5.957708104924057 -2.631055894232572 2.000000000000000
-0.376448167597982 -5.729521600937169 -2.650253761719150 2.000000000000000
-0.368446302227553 -5.473929621910949 -2.648170277142444 7.000000000000000
-0.377385722833212 -5.466016110172687 -2.762380114961427 10.000000000000000
-0.385310382523126 -5.452155691229512 -2.875501734952270 9.000000000000000
-0.395315490874973 -5.453512718055997 -2.998436375292256 7.000000000000000
-0.375841518658680 -7.537202806820278 -1.569261291727056 2.000000000000000
-0.378280340915455 -7.371409516827010 -1.671481294812802 2.000000000000000
-0.380520038738581 -7.208535940162270 -1.768286769590059 3.000000000000000
-0.380202666353387 -7.013475105410648 -1.852649151426921 3.000000000000000
-0.380997817919250 -6.840933173306576 -1.936717320905243 3.000000000000000
-0.384616200037379 -6.736749083383303 -2.035334411393626 3.000000000000000
-0.384981262636089 -6.577921982077685 -2.114032124902153 3.000000000000000
-0.385510737620008 -6.422338243927316 -2.188736839313549 2.000000000000000
-0.382537322116040 -6.224893820438201 -2.243823995205196 2.000000000000000
-0.383800636756670 -6.098456005074732 -2.319661058299920 3.000000000000000
-0.386399342709575 -5.997460264863180 -2.401655662109140 3.000000000000000
-0.381590377913386 -5.785030667495568 -2.434492341253038 2.000000000000000
-0.370215662928313 -5.482250301834747 -2.419894210695037 7.000000000000000
-0.377938752358708 -5.464372908532090 -2.526423364356436 11.000000000000000
-0.386751990510590 -5.462544629404337 -2.641482362159915 11.000000000000000
-0.395819893049886 -5.454718258564554 -2.755494752662118 9.000000000000000
-0.404904841713783 -5.455074189662522 -2.875868156650183 9.000000000000000
-0.415359153397979 -5.459888599563581 -3.000771443153268 8.000000000000000
-0.381737121274281 -7.207868929354508 -1.499095149577613 2.000000000000000
-0.382594179871467 -7.027787112055903 -1.592006909893746 1.000000000000000
-0.383216342700840 -6.850847363258528 -1.679026992046480 3.000000000000000
-0.387811999455278 -6.757831428026079 -1.783624468171906 3.000000000000000
-0.389064813117515 -6.605758650301821 -1.868677935107200 3.000000000000000
-0.389043107086700 -6.449272510291925 -1.947057664482805 3.000000000000000
-0.387345927544669 -6.269228813012688 -2.013442132892347 3.000000000000000
-0.386472623187815 -6.104115975945786 -2.078943737509449 3.000000000000000
-0.388773571542411 -6.002558200930255 -2.162363094976213 3.000000000000000
-0.384606298654394 -5.802939787844660 -2.205984545205321 2.000000000000000
-0.371399362560389 -5.477883413578861 -2.192395908755382 8.000000000000000
-0.379273786424988 -5.467906188473922 -2.299845496762647 13.000000000000000
-0.387945686929354 -5.466995247102910 -2.411971208813884 12.000000000000000
-0.396807349677383 -5.463722206711869 -2.524937142806845 11.000000000000000
-0.405512606783440 -5.458295394705093 -2.638246938760825 11.000000000000000
-0.415530310779889 -5.461181150519898 -2.757582093434270 9.000000000000000
-0.424794992166081 -5.461467919079770 -2.878065562750977 7.000000000000000
-0.434334494521608 -5.452218966017292 -2.995389439366772 7.000000000000000
-0.385378078427233 -6.874635892711476 -1.428246855172742 2.000000000000000
-0.389699038008650 -6.769875578416458 -1.532065048402176 3.000000000000000
-0.390539903500904 -6.609545216705555 -1.618408666591422 3.000000000000000
-0.391929879301191 -6.471297090743409 -1.706552352858484 3.000000000000000
-0.392048979027438 -6.312944396624366 -1.784436785983904 3.000000000000000
-0.390401774377317 -6.142692317578717 -1.853132900286014 3.000000000000000
-0.392401243138988 -6.032776985447959 -1.936162985967972 3.000000000000000
-0.392143475652331 -5.887950523279590 -2.004017497407371 2.000000000000000
-0.372571117274082 -5.472241839198785 -1.970112691166533 8.000000000000000
-0.381102693585604 -5.473858147779399 -2.079678271976434 19.000000000000000
-0.389565496877959 -5.473488700484381 -2.189434668884190 17.000000000000000
-0.397829037594892 -5.467213475187055 -2.298356994372152 14.000000000000000
-0.406658296576330 -5.466297244696495 -2.410470381989612 11.000000000000000
-0.415396271620938 -5.459395844800537 -2.521750770258244 10.000000000000000
-0.424803079756242 -5.461179440696711 -2.638458159596465 10.000000000000000
-0.435003125824522 -5.464026415470637 -2.757840389065692 9.000000000000000
-0.444156856827839 -5.460745698695679 -2.876512663053902 7.000000000000000
-0.454128941811006 -5.454986729333232 -2.995744763328135 7.000000000000000
-0.392511022236555 -6.635263634252533 -1.377009659148652 2.000000000000000
-0.393305731201104 -6.480809869872163 -1.465179180978190 2.000000000000000
-0.394174560055435 -6.333338901521769 -1.549344627471931 2.000000000000000
-0.393001163277726 -6.165472801546669 -1.624511994123348 3.000000000000000
-0.395670391338556 -6.058564891526107 -1.711169306814857 3.000000000000000
-0.396165605149525 -5.931682597555108 -1.788143835142576 3.000000000000000
-0.375928714868941 -5.503662740482236 -1.765117004723639 6.000000000000000
-0.382928621203537 -5.479073717058225 -1.863630026079458 18.000000000000000
-0.390668154085643 -5.471512147096703 -1.968633337510199 20.000000000000000
-0.399088268897498 -5.469392289407854 -2.076769736440297 20.000000000000000
-0.407702572859012 -5.469043248027525 -2.186449304989414 16.000000000000000
-0.416380138811544 -5.466468668438295 -2.296842153258628 14.000000000000000
-0.425650869245868 -5.469197706900224 -2.410552173330327 11.000000000000000
-0.434244114154157 -5.458639714162573 -2.520211999076587 9.000000000000000
-0.443530352568018 -5.456824351380702 -2.635170739160834 9.000000000000000
-0.454200588309995 -5.463255357562049 -2.756272614174518 8.000000000000000
-0.463814014724221 -5.463498512153526 -2.876790671467356 7.000000000000000
-0.474247654255072 -5.461195015508256 -2.997989687277351 7.000000000000000
-0.395488031211442 -6.352891537651711 -1.316950389347214 1.000000000000000
-0.394614328982449 -6.183974533693348 -1.396654036615322 2.000000000000000
-0.397087953950514 -6.072660701258114 -1.484186364383767 3.000000000000000
-0.399367400262319 -5.967758396141838 -1.571057416164761 3.000000000000000
-0.382138430440708 -5.577562561287140 -1.574048949336819 4.000000000000000
-0.383711927834082 -5.479926080938201 -1.650718420534268 21.000000000000000
-0.391645288509330 -5.472486220319833 -1.753883843473670 23.000000000000000
-0.400892797759563 -5.478297074352812 -1.862134831273483 20.000000000000000
-0.409041502663902 -5.474486435302159 -1.968478427311589 20.000000000000000
-0.417614031382720 -5.472336822125992 -2.076668540233679 19.000000000000000
-0.426387787448017 -5.471956724009521 -2.186400481449400 17.000000000000000
-0.434926906983059 -5.465671775578581 -2.295300988372944 13.000000000000000
-0.443774141501509 -5.461093178354069 -2.405780914520115 9.000000000000000
-0.453688867034802 -5.465073969758922 -2.521989079475194 9.000000000000000
-0.463141661027897 -5.463192462939585 -2.637059710112841 8.000000000000000
-0.473393565719295 -5.462430398722834 -2.754677598385022 9.000000000000000
-0.483803804895626 -5.469724755750063 -2.878896485583224 8.000000000000000
-0.495360184129126 -5.477833604861249 -3.005957632008869 6.000000000000000
-0.397231796205433 -6.078360120955104 -1.258628277159729 2.000000000000000
-0.401371408483630 -5.996189394723047 -1.352853922292694 2.000000000000000
-0.385873330733163 -5.629771251590291 -1.374642290705618 2.000000000000000
-0.384189401582043 -5.480579548385000 -1.441543033535974 22.000000000000000
-0.392527327884884 -5.473039143308633 -1.543296741613569 27.000000000000000
-0.401654664428201 -5.482932145612824 -1.650372266232264 25.000000000000000
-0.410003125010926 -5.479266250121882 -1.754811328250577 26.000000000000000
-0.418852583239173 -5.477469988891278 -1.860614155140512 24.000000000000000
-0.426849335257809 -5.469900336137131 -1.965597608290384 20.000000000000000
-0.435566000881110 -5.467769552861277 -2.073710292128489 19.000000000000000
-0.444792295189668 -5.471113194684463 -2.184844210713770 17.000000000000000
-0.453774320001822 -5.468500343372305 -2.295277077183465 14.000000000000000
-0.463079420260653 -5.467537948281806 -2.407415675497158 8.000000000000000
-0.472552724834061 -5.464210864711005 -2.520394720718586 9.000000000000000
-0.482481367601672 -5.465913658547448 -2.637184788220511 8.000000000000000
-0.494508525217232 -5.482913547931100 -2.763823500949560 6.000000000000000
-0.504488186631098 -5.482950897985159 -2.884683192281852 7.000000000000000
-0.514949861280073 -5.476935755955035 -3.004301144277798 7.000000000000000
-0.386579018662962 -5.647523687630627 -1.168089405816415 2.000000000000000
-0.384319948770527 -5.485285426607036 -1.236300111473539 24.000000000000000
-0.392999467222890 -5.481590310330878 -1.337181770908186 31.000000000000000
-0.401555676270952 -5.479728089484538 -1.440046215983610 29.000000000000000
-0.410593108892242 -5.479861857531132 -1.543953147380342 25.000000000000000
-0.419033105908377 -5.478246892191351 -1.647700896506579 23.000000000000000
-0.427219117634143 -5.470797250205582 -1.750845873476859 25.000000000000000
-0.436506553627652 -5.472815508513288 -1.857785896818185 23.000000000000000
-0.445543874923560 -5.476525464804842 -1.966737269912331 19.000000000000000
-0.454417110709539 -5.474339591046911 -2.074968706123232 18.000000000000000
-0.462878532352522 -5.466514381701711 -2.181783669142184 15.000000000000000
-0.472641983522026 -5.471275628592529 -2.295224727860386 12.000000000000000
-0.481786678029913 -5.466629245006267 -2.405807617935214 8.000000000000000
-0.492714419895617 -5.477776681449561 -2.525450282344588 6.000000000000000
-0.502829788687797 -5.479352210780670 -2.642475648671369 6.000000000000000
-0.514100612180680 -5.485536889370376 -2.763961214617932 8.000000000000000
-0.523581976711240 -5.478479367224979 -2.881157707685113 5.000000000000000
-0.535557929745794 -5.486466589875219 -3.008365347172677 5.000000000000000
-0.391998828132827 -5.478587845200859 -1.131846341673593 38.000000000000000
-0.401121705782364 -5.480506515203242 -1.233926137969797 33.000000000000000
-0.410219652208261 -5.480696605582552 -1.335672323026131 28.000000000000000
-0.418622339267174 -5.474969528952352 -1.437511737033736 27.000000000000000
-0.428103335523963 -5.478953923844545 -1.542418696237088 24.000000000000000
-0.436686774156496 -5.477332905119180 -1.646154581980525 22.000000000000000
-0.445308094923858 -5.473676366734527 -1.750503851137495 22.000000000000000
-0.454758271990913 -5.475664522849615 -1.857496419178764 22.000000000000000
-0.463647705422004 -5.475591294420421 -1.965153119154896 18.000000000000000
-0.472991163334836 -5.477127389651609 -2.074784547112134 17.000000000000000
-0.481587127362694 -5.469271095485476 -2.181653392004708 16.000000000000000
-0.492189919242145 -5.481350117346291 -2.298226702147597 7.000000000000000
-0.503161849624679 -5.494857152425071 -2.417012417743302 6.000000000000000
-0.511956660683309 -5.480424902364815 -2.525466148480635 9.000000000000000
-0.522589185807902 -5.485552137750743 -2.644269707668809 5.000000000000000
-0.533712630576903 -5.488104858853243 -2.764069443084618 4.000000000000000
-0.544393864627608 -5.491589714403287 -2.886877504989749 7.000000000000000
-0.556235806684796 -5.495938562829077 -3.012395233194005 9.000000000000000
-0.409209388223168 -5.481569302768204 -1.131145284894624 35.000000000000000
-0.418488540806656 -5.483464423348328 -1.233280689497211 30.000000000000000
-0.427737390302589 -5.483629891712235 -1.335081995855382 27.000000000000000
-0.436274255876052 -5.477878864106661 -1.436978748567049 26.000000000000000
-0.445608750509086 -5.477996809656563 -1.540859433842767 23.000000000000000
-0.454652427176822 -5.480188281316441 -1.645730102958616 22.000000000000000
-0.463416882889840 -5.476504199087282 -1.750134437702439 21.000000000000000
-0.472703820888392 -5.474686160088707 -1.855899390120781 23.000000000000000
-0.481416387590037 -5.470853976274030 -1.962197500774679 20.000000000000000
-0.491585080400306 -5.479862573213358 -2.074572314339341 12.000000000000000
-0.502008139782643 -5.490486244037925 -2.188874740962189 7.000000000000000
-0.511465016453526 -5.487692811240521 -2.299655440800490 11.000000000000000
-0.521612338830135 -5.490190002820090 -2.413738656299494 8.000000000000000
-0.531919997979647 -5.490256982519165 -2.528786938761130 5.000000000000000
-0.542393360138468 -5.491695779410778 -2.646032295585138 6.000000000000000
-0.554061611990197 -5.497734168798158 -2.767730973080307 10.000000000000000
-0.563851866220667 -5.490534695973947 -2.885148839360933 6.000000000000000
-0.574786631295020 -5.484391909393499 -3.004906939102052 5.000000000000000
-0.426439257522045 -5.484501848562041 -1.130418078749455 34.000000000000000
-0.435565622526095 -5.482481944679027 -1.231734677088343 29.000000000000000
-0.444960107311108 -5.482638763946270 -1.333522660840599 25.000000000000000
-0.454265128300259 -5.484595032944974 -1.437429830567626 24.000000000000000
-0.463433714489737 -5.480828639707427 -1.540354054896820 22.000000000000000
-0.472308532769537 -5.479174430702070 -1.644132661257518 21.000000000000000
-0.480877873126463 -5.471686362234552 -1.747312457597034 22.000000000000000
-0.490982645322243 -5.477432326341122 -1.855555752960729 21.000000000000000
-0.501895857672623 -5.496079963786950 -1.969976035313808 7.000000000000000
-0.510892347201816 -5.489999220874889 -2.077152272791702 11.000000000000000
-0.520116617447553 -5.485730198676110 -2.185732575496802 14.000000000000000
-0.530429666542109 -5.490305539327916 -2.299514177750859 6.000000000000000
-0.541109742699482 -5.496413243242666 -2.415248580552803 6.000000000000000
-0.551952905785324 -5.500031668877018 -2.532074175679894 10.000000000000000
-0.562242102239163 -5.497782935351230 -2.647763322925693 7.000000000000000
-0.572624548943804 -5.489516609633098 -2.762407015359837 5.000000000000000
-0.582180458110399 -5.478848095761315 -2.877836940788515 7.000000000000000
-0.593256959342244 -5.472794344143942 -2.997397579050545 6.000000000000000
-0.443688258424863 -5.487385390515992 -1.129664687103022 31.000000000000000
-0.452637669971902 -5.481451494087469 -1.230164483997430 26.000000000000000
-0.462177746160760 -5.481599255125801 -1.331938938975064 26.000000000000000
-0.471304738177083 -5.479690845164485 -1.434822666810212 22.000000000000000
-0.480267660912110 -5.472097702379162 -1.536588985219766 22.000000000000000
-0.490300875378399 -5.481928480707707 -1.643654825080025 21.000000000000000
-0.500039194464574 -5.485802036777733 -1.750524726270525 10.000000000000000
-0.511034653251735 -5.498997566514156 -1.861572815295518 10.000000000000000
-0.519703674111033 -5.491237966483101 -1.966964587014730 16.000000000000000
-0.528831744741271 -5.485174715933340 -2.074063480571289 9.000000000000000
-0.540011790398129 -5.499427922441256 -2.189935111391307 7.000000000000000
-0.550516284827421 -5.503886968765338 -2.303958344934844 10.000000000000000
-0.560651539751262 -5.502580743358774 -2.416727335425273 10.000000000000000
-0.569801500096535 -5.488042489639597 -2.525339557841312 6.000000000000000
-0.579858271351592 -5.482286104290841 -2.639099743443718 6.000000000000000
-0.591131858344511 -5.481247814198122 -2.757060304998509 7.000000000000000
-0.601976902982836 -5.481210916235008 -2.877907347365682 5.000000000000000
-0.615166335594397 -5.492572226960548 -3.007072448607284 5.000000000000000
-0.460628363531051 -5.486314986537134 -1.128082168642324 30.000000000000000
-0.469704514649868 -5.480373081743783 -1.228570125721643 24.000000000000000
-0.479390136920402 -5.480511375510359 -1.330330845889469 26.000000000000000
-0.489002398363749 -5.482450298149752 -1.434210369057551 23.000000000000000
-0.498792498186185 -5.482503684170818 -1.538185748473376 15.000000000000000
-0.509019902106671 -5.492264838229666 -1.645436624730767 7.000000000000000
-0.518577010665750 -5.492270300470695 -1.751282053404452 17.000000000000000
-0.529050928800364 -5.497862560342471 -1.859891497458928 12.000000000000000
-0.538950716958394 -5.501346766639549 -1.969299336788242 6.000000000000000
-0.548970827923775 -5.502653731153948 -2.079398217058539 9.000000000000000
-0.559249210160873 -5.505667499116402 -2.191157162347736 16.000000000000000
-0.569177084643036 -5.502716344630294 -2.302219424133128 7.000000000000000
-0.577933468320546 -5.486817946733111 -2.408572549374923 6.000000000000000
-0.588733736208433 -5.486855432984349 -2.523575646851148 8.000000000000000
-0.599328627579081 -5.484677285022348 -2.639048365476473 6.000000000000000
-0.610375553559868 -5.480040321559755 -2.755266912242032 4.000000000000000
-0.622591657409042 -5.490565866884557 -2.881647113983059 7.000000000000000
-0.635201749710757 -5.494830759072063 -3.007153083286571 8.000000000000000
-0.477563137313509 -5.485196987537898 -1.126475680067907 29.000000000000000
-0.487111457235726 -5.483135466849510 -1.227822414034977 24.000000000000000
-0.496246157689693 -5.475502785917556 -1.327759387986879 21.000000000000000
-0.508143384294540 -5.500577961438482 -1.437600915113425 10.000000000000000
-0.517746655026518 -5.496691502655786 -1.540826053076901 14.000000000000000
-0.527075085794035 -5.494914897014319 -1.644901859840068 17.000000000000000
-0.537158545290774 -5.498685247057975 -1.752009489417248 6.000000000000000
-0.548563431128037 -5.511767332344544 -1.863286085422349 7.000000000000000
-0.557886635321136 -5.507650448926530 -1.970260143881884 18.000000000000000
-0.567307857198379 -5.501449503318417 -2.077661944975294 11.000000000000000
-0.576977480680117 -5.497054957316655 -2.186462847392657 7.000000000000000
-0.586654807836070 -5.490475614881650 -2.295847046044834 9.000000000000000
-0.596299200799094 -5.481943543127284 -2.405198173351094 9.000000000000000
-0.608060613471425 -5.489231279351714 -2.523447295294974 5.000000000000000
-0.620031345803310 -5.497772077774898 -2.644142074673752 5.000000000000000
-0.632064668984671 -5.500110801726098 -2.764167039626438 10.000000000000000
-0.642038952697165 -5.489291478530245 -2.879807119748605 6.000000000000000
-0.653175789168755 -5.479581600095134 -2.997656897702376 5.000000000000000
-0.494492412632860 -5.484031404552485 -1.124845237235167 30.000000000000000
-0.505252218426628 -5.493624075357828 -1.228787497667444 11.000000000000000
-0.515614037089862 -5.497548111091026 -1.331730802750832 10.000000000000000
-0.525559297921991 -5.499379421572241 -1.435923884457494 23.000000000000000
-0.535298912876242 -5.495483579762651 -1.539135893426110 12.000000000000000
-0.545905736424799 -5.505143699621018 -1.646621927906194 4.000000000000000
-0.556549668278046 -5.512634615038977 -1.755122807046183 11.000000000000000
-0.567005471210515 -5.514299457909992 -1.862823202590868 18.000000000000000
-0.575297577949529 -5.498906052971683 -1.965830337897144 8.000000000000000
-0.584449437893326 -5.489022065206997 -2.071683282313412 8.000000000000000
-0.594249333978441 -5.484695445419458 -2.180276954898444 13.000000000000000
-0.604861529627534 -5.485530992082512 -2.292524430595864 7.000000000000000
-0.617496515206967 -5.502526526545500 -2.412985677199591 5.000000000000000
-0.628645439541215 -5.502397966647703 -2.528273230482666 8.000000000000000
-0.639576922272389 -5.500050132265570 -2.644028347628304 7.000000000000000
-0.649265729009956 -5.481017635367382 -2.753384044031075 5.000000000000000
-0.660206257319899 -5.477395125404107 -2.872398011765600 7.000000000000000
-0.672329224419904 -5.474752067915280 -2.993866932388327 6.000000000000000
-0.513236008248844 -5.502330057800331 -1.127187976720741 8.000000000000000
-0.523090198225242 -5.500172469089090 -1.228852902016794 20.000000000000000
-0.532495165589640 -5.492440187364791 -1.329107101344311 20.000000000000000
-0.542969385073831 -5.498131941780098 -1.434222227428497 6.000000000000000
-0.554388481605518 -5.509562625038728 -1.541712389597840 7.000000000000000
-0.564413581728749 -5.511503311486116 -1.647169862593927 18.000000000000000
-0.574056613883169 -5.507561318061279 -1.752167609520303 12.000000000000000
-0.583865460111028 -5.501695613905857 -1.857240559652513 8.000000000000000
-0.592652921423186 -5.490114063788233 -1.961379637225599 13.000000000000000
-0.602737202746702 -5.487717457852055 -2.069898781875783 11.000000000000000
-0.614332412304551 -5.498171785261918 -2.184354986475836 7.000000000000000
-0.625958301383409 -5.506231590380521 -2.299910841320766 7.000000000000000
-0.636308710974759 -5.501187173864457 -2.411151364482709 10.000000000000000
-0.647196170759074 -5.497432580706384 -2.524762986330150 5.000000000000000
-0.656994039261007 -5.484349946672738 -2.635273134763499 6.000000000000000
-0.668503250966187 -5.479647092295436 -2.751507795254413 7.000000000000000
-0.680477464893544 -5.483057233484973 -2.874198635115564 4.000000000000000
-0.693656080411099 -5.487311472317278 -2.999586312791130 5.000000000000000
-0.530213991055341 -5.501064855289860 -1.125503701275087 31.000000000000000
-0.540588900387238 -5.502783058409688 -1.228022089726990 8.000000000000000
-0.552057912900926 -5.514373730508598 -1.333009535254781 5.000000000000000
-0.561944247497429 -5.512243622767654 -1.436511366457600 15.000000000000000
-0.572375819310064 -5.512085582421001 -1.541039406873058 18.000000000000000
-0.582158690012253 -5.510182900370383 -1.645410484988183 8.000000000000000
-0.591125094688901 -5.498647371219530 -1.747984041520282 10.000000000000000
-0.601882735291419 -5.500356370682195 -1.855454922237109 15.000000000000000
-0.611203268782359 -5.492514500726326 -1.960920963104020 6.000000000000000
-0.622703948219104 -5.501249818979776 -2.073700610514287 6.000000000000000
-0.634508554151245 -5.511588964541045 -2.188397125902492 13.000000000000000
-0.644619506766658 -5.504849482752987 -2.298063938129242 7.000000000000000
-0.654246754362638 -5.492510457299485 -2.406099345592728 5.000000000000000
-0.664839525831723 -5.485188849141271 -2.517910978201595 8.000000000000000
-0.675630471774908 -5.479354229434804 -2.631664244158840 5.000000000000000
-0.689518178389679 -5.492433180482456 -2.756736918823695 4.000000000000000
-0.700791899786986 -5.488661137893581 -2.875966902898863 7.000000000000000
-0.713715613525819 -5.489345969768549 -2.999551107615148 6.000000000000000
-0.547962103249975 -5.507553002078138 -1.125389471561716 5.000000000000000
-0.558893445941880 -5.513114090583484 -1.228896716690654 8.000000000000000
-0.569362955006878 -5.513034771311585 -1.331267604869607 27.000000000000000
-0.579795819431560 -5.514745608828354 -1.435758223963234 12.000000000000000
-0.589150577214634 -5.503060567467747 -1.537127837282643 7.000000000000000
-0.598236896294720 -5.493563307823683 -1.639076202879225 18.000000000000000
-0.608557979782700 -5.493478183018852 -1.744984423408616 10.000000000000000
-0.619893633009413 -5.498966489491178 -1.853643825336319 6.000000000000000
-0.631489119982478 -5.509844648367479 -1.965779601633920 10.000000000000000
-0.642329705364954 -5.511002025641316 -2.076064840746329 12.000000000000000
-0.651711677081516 -5.499077262654004 -2.182137747557963 6.000000000000000
-0.661063210620421 -5.485070211362913 -2.288536695791315 9.000000000000000
-0.673020962816264 -5.491067297851242 -2.404214365250844 7.000000000000000
-0.684653584934094 -5.490959952890086 -2.519326946705050 4.000000000000000
-0.696506954450554 -5.492220116252105 -2.636630474116107 6.000000000000000
-0.709250646673439 -5.494502405118776 -2.756583182190823 9.000000000000000
-0.720225386059568 -5.487167300249462 -2.874015729314711 5.000000000000000
-0.731929539876826 -5.477377228417057 -2.991867952680058 6.000000000000000
-0.566552372107181 -5.521788721233344 -1.126837933209546 24.000000000000000
-0.576452371715164 -5.515622694721880 -1.228010159816646 22.000000000000000
-0.585838301473036 -5.503911526408038 -1.327635263918492 8.000000000000000
-0.596414188244780 -5.505646295297032 -1.431973808120243 11.000000000000000
-0.606292498890527 -5.497821252727094 -1.534265582893448 16.000000000000000
-0.616347596800014 -5.495958439395505 -1.638407907804456 7.000000000000000
-0.628553506365533 -5.511002196673100 -1.749180173081053 6.000000000000000
-0.640084054927294 -5.516366031973781 -1.858153439281502 17.000000000000000
-0.649683757692982 -5.508390640598599 -1.963924531532640 8.000000000000000
-0.659346522237929 -5.498375912084895 -2.069992389603725 7.000000000000000
-0.669734372682253 -5.493908709211690 -2.178790252616311 13.000000000000000
-0.680558126134688 -5.490924083767373 -2.289702457363290 6.000000000000000
-0.691788358047108 -5.489571369135494 -2.402302864094852 4.000000000000000
-0.704973484195805 -5.500285406579488 -2.522367307263067 7.000000000000000
-0.716542600061601 -5.497861151861775 -2.638122335515560 7.000000000000000
-0.728059180305613 -5.489414026537690 -2.752838439724349 6.000000000000000
-0.738228500124932 -5.475062806595801 -2.866510412580881 7.000000000000000
-0.752453390480055 -5.482787130531104 -2.993680540144114 5.000000000000000
-0.583171821927732 -5.516475843907602 -1.124279720395859 10.000000000000000
-0.593192966757757 -5.510314599082001 -1.225369790444049 6.000000000000000
-0.602682454065925 -5.498610500857575 -1.324915249900863 23.000000000000000
-0.613406544821868 -5.500351058865410 -1.429169912924234 12.000000000000000
-0.624272849363237 -5.500195032974000 -1.533516875941064 5.000000000000000
-0.635795290780951 -5.509732809682962 -1.641116910559346 10.000000000000000
-0.647331607452453 -5.517098236190849 -1.749732791660728 15.000000000000000
-0.657244239471926 -5.507335831295104 -1.853749187731186 7.000000000000000
-0.666055495154290 -5.491910952363491 -1.956708503759491 11.000000000000000
-0.676740646872850 -5.489423471188741 -2.065300958899760 11.000000000000000
-0.688650960423253 -5.496077480226480 -2.178347122488855 6.000000000000000
-0.701496943652628 -5.507722384379666 -2.295421567958528 7.000000000000000
-0.712433499536315 -5.502579775269020 -2.406731876536891 9.000000000000000
-0.723459685125651 -5.495109666068685 -2.518753628657715 5.000000000000000
-0.733745393684176 -5.481960537396686 -2.629277916781083 6.000000000000000
-0.746352216907439 -5.480723820361217 -2.747289714107798 6.000000000000000
-0.760044801629551 -5.491051072541842 -2.873712932471331 3.000000000000000
-0.774001353596353 -5.495106978837971 -2.999264109036956 7.000000000000000
-0.599336515204407 -5.507219615065214 -1.120906710205448 12.000000000000000
-0.609472689338450 -5.501078140674236 -1.221845461237490 22.000000000000000
-0.620803575993793 -5.504860332954153 -1.324964767343343 7.000000000000000
-0.632133582066282 -5.510401119125016 -1.430339344620643 6.000000000000000
-0.644058707932573 -5.517834069972464 -1.537007337974461 17.000000000000000
-0.653978421574305 -5.512021212495717 -1.640389702818336 10.000000000000000
-0.662953772002477 -5.496622637541618 -1.741851852670805 8.000000000000000
-0.674348166417152 -5.498259088670382 -1.849324618422457 15.000000000000000
-0.685119689399222 -5.497844053612766 -1.957472291847898 7.000000000000000
-0.696432617003384 -5.499014102519294 -2.067578658786104 6.000000000000000
-0.708535704247026 -5.505577333455443 -2.180800628473137 12.000000000000000
-0.720155538497183 -5.506128452013256 -2.293466692651529 7.000000000000000
-0.729301968003041 -5.486421263479003 -2.398400375065087 5.000000000000000
-0.740450394020715 -5.479054575331278 -2.510155010061321 8.000000000000000
-0.753791518309548 -5.487492142161444 -2.630713275262242 5.000000000000000
-0.768554797640565 -5.500372747619976 -2.755943243294959 4.000000000000000
-0.779980805683677 -5.492907874103526 -2.873516491927012 7.000000000000000
-0.793628370442877 -5.493429387226045 -2.997207296332613 6.000000000000000
-0.615882597343063 -5.501816290734045 -1.118306813581786 11.000000000000000
-0.627908295734167 -5.511203425001653 -1.222607042511309 5.000000000000000
-0.639862557338114 -5.518786758166954 -1.326843105117481 12.000000000000000
-0.650473186379364 -5.516548807727962 -1.430478900842887 17.000000000000000
-0.660745625733003 -5.508616321058116 -1.533002754546401 7.000000000000000
-0.670322228074288 -5.499024836444002 -1.635105488560765 12.000000000000000
-0.681261072285041 -5.498830020115745 -1.741153571992696 13.000000000000000
-0.692818311612554 -5.500430545948559 -1.848675903529434 6.000000000000000
-0.704226164789288 -5.503721808364824 -1.958205240764000 8.000000000000000
-0.715708412224503 -5.504829809559211 -2.068426028761817 13.000000000000000
-0.726537157139451 -5.500252939051087 -2.177374879471975 7.000000000000000
-0.737331153677740 -5.493487757147437 -2.286908619050505 8.000000000000000
-0.748543865410007 -5.488404231101757 -2.397998556626206 7.000000000000000
-0.761335901974846 -5.491821353824307 -2.514758410273938 3.000000000000000
-0.775392407646810 -5.503701199117621 -2.637260647906259 6.000000000000000
-0.788357748248353 -5.502216786807378 -2.755670243652509 8.000000000000000
-0.799422271513232 -5.491192346160156 -2.871451662361871 4.000000000000000
-0.811700591153209 -5.481249507096203 -2.989425026870413 6.000000000000000
-0.634638735632304 -5.515844268905932 -1.119639083103396 7.000000000000000
-0.645955135698058 -5.517393948034953 -1.222476987453166 23.000000000000000
-0.656710496765943 -5.513337820963069 -1.324047353902273 12.000000000000000
-0.666991307993075 -5.507259618802148 -1.426603689246911 7.000000000000000
-0.677376571198718 -5.499353543450735 -1.528978608394149 20.000000000000000
-0.688014742798724 -5.497406519841633 -1.633197253639105 8.000000000000000
-0.700548695692236 -5.508556900385371 -1.742823112131758 5.000000000000000
-0.711792357531720 -5.506312865666522 -1.849263168171251 13.000000000000000
-0.722392533685529 -5.502063312510640 -1.956247513071864 11.000000000000000
-0.734035049002470 -5.503157842625039 -2.066451621981620 7.000000000000000
-0.744006359484699 -5.491188504712052 -2.172465728789418 14.000000000000000
-0.755937659419980 -5.491792319271245 -2.284905113361164 6.000000000000000
-0.768820018650622 -5.497604191122327 -2.400743205067191 4.000000000000000
