# This PCD file was generated using the MATLAB® pcwrite function
# from Computer Vision Toolbox®.
# .PCD v.7 - Point Cloud Data file format
VERSION .7
FIELDS x y z intensity
SIZE 8 8 8 8
TYPE F F F F
COUNT 1 1 1 1
WIDTH 629
HEIGHT 1
VIEWPOINT 0 0 0 1 0 0 0
POINTS 629
DATA ascii
-1.499631345391866 -4.879087844592009 -3.092350502881697 3.000000000000000
-1.381753356959265 -4.319429250458839 -3.076310876815345 13.000000000000000
-1.323461455658256 -4.079394513897354 -3.017702134964799 56.000000000000000
-1.323489387151762 -4.024350779383286 -3.090713938004257 34.000000000000000
-1.318281346779612 -5.532761775971658 -1.051350284671988 7.000000000000000
-1.333831053453180 -5.525351380352991 -1.153857376141119 26.000000000000000
-1.312847924983398 -5.368293578316442 -1.222069712771424 45.000000000000000
-1.327095543112783 -5.357943579102345 -1.322208010339577 43.000000000000000
-1.340282724528008 -5.342059876230620 -1.421049786988013 42.000000000000000
-1.354452731134371 -5.332171704066597 -1.521402878094482 40.000000000000000
-1.369338316826921 -5.324073410944639 -1.623261805422012 40.000000000000000
-1.381250898870708 -5.303032507346461 -1.721490104646429 38.000000000000000
-1.395197384768886 -5.291336523591844 -1.823459912264877 38.000000000000000
-1.408974413938838 -5.277690976131178 -1.925625368894283 28.000000000000000
-1.422343903000859 -5.262317179526395 -2.027513680263993 31.000000000000000
-1.438396183488736 -5.255750227151170 -2.134012645024735 29.000000000000000
-1.452185701758008 -5.240153803787890 -2.237486268171698 25.000000000000000
-1.467798617169969 -5.229528223553547 -2.344495207606707 27.000000000000000
-1.482928349209753 -5.216950281109450 -2.451664184904219 15.000000000000000
-1.499196520290677 -5.205582336123527 -2.560934660507185 24.000000000000000
-1.513388677869081 -5.188622531342184 -2.669201179556518 23.000000000000000
-1.529003951518753 -5.172801740471060 -2.779369185628207 23.000000000000000
-1.543606041569480 -5.154928696349177 -2.889922926997528 21.000000000000000
-1.561343298960167 -5.148173122736333 -3.008889596034960 21.000000000000000
-1.517054080644136 -4.940726552354571 -3.008017295704847 3.000000000000000
-1.522752538585747 -4.891739397761912 -3.099718434086328 3.000000000000000
-1.341199762539079 -4.082408793981042 -3.019706216801790 53.000000000000000
-1.343220950013488 -4.033428066501354 -3.097549920792884 40.000000000000000
-1.335232208035384 -5.529234288090834 -1.048512822060661 27.000000000000000
-1.349975699851688 -5.517989650780284 -1.150205122441917 10.000000000000000
-1.331462114977906 -5.372393520875372 -1.220991602442412 43.000000000000000
-1.343944324046089 -5.354437894574580 -1.319387921351430 43.000000000000000
-1.358182511058772 -5.342288345030785 -1.419210874113612 42.000000000000000
-1.373435757971923 -5.336091612858698 -1.520676335681974 39.000000000000000
-1.386521712462518 -5.320500675507019 -1.620387022534853 39.000000000000000
-1.400463366066846 -5.306823999820910 -1.720995466359375 38.000000000000000
-1.414533960635182 -5.295059353511371 -1.823078746791118 37.000000000000000
-1.427444472160688 -5.277701049027744 -1.924029603719583 26.000000000000000
-1.441911810484555 -5.265898236456299 -2.027358402964702 31.000000000000000
-1.457112231844249 -5.255661001139710 -2.132507300083404 26.000000000000000
-1.471010424371983 -5.240015866892143 -2.236027291002405 24.000000000000000
-1.486750778267541 -5.229335899385454 -2.343078781159395 26.000000000000000
-1.500993609301752 -5.213200497633468 -2.448645085819801 16.000000000000000
-1.517385813407582 -5.201805597710005 -2.557894215346341 24.000000000000000
-1.532701339573207 -5.188264984897887 -2.667912489223181 22.000000000000000
-1.549453205462195 -5.175793476298234 -2.779951915913577 23.000000000000000
-1.565191900486094 -5.161203643805637 -2.892499137738880 20.000000000000000
-1.581036212970321 -5.147636908855421 -3.007720523563631 21.000000000000000
-1.536167932268961 -4.940278790755714 -3.007006743171317 3.000000000000000
-1.539804179918973 -4.884723878692645 -3.094629495825620 3.000000000000000
-1.357939747321063 -4.082262138486077 -3.019382631487551 52.000000000000000
-1.350298863038046 -5.518016290967402 -1.044205532017774 9.000000000000000
-1.367026149725710 -5.514390360247597 -1.147324915084860 17.000000000000000
-1.349158312544846 -5.372647375407541 -1.219022570429934 42.000000000000000
-1.361738175504784 -5.354655554910273 -1.317472212094605 44.000000000000000
-1.377058488186881 -5.346215706245705 -1.418339713328301 41.000000000000000
-1.391479435722211 -5.336221679350506 -1.518855874924234 40.000000000000000
-1.403690941081736 -5.316879456825688 -1.617488356529980 41.000000000000000
-1.418723742134127 -5.306868759315348 -1.719273949929946 38.000000000000000
-1.432912745401504 -5.295058599805541 -1.821404811866739 36.000000000000000
-1.446921445731402 -5.281296466353846 -1.923731260951210 25.000000000000000
-1.461513576690275 -5.269419486834993 -2.027170524872943 31.000000000000000
-1.476845291991276 -5.259104061596307 -2.132427830625087 26.000000000000000
-1.490856826210737 -5.243382197150888 -2.236057481001323 25.000000000000000
-1.506729099545032 -5.232618611482901 -2.343214434776931 26.000000000000000
-1.521085723333520 -5.216401624612583 -2.448887974777562 25.000000000000000
-1.537610275327102 -5.204917428223283 -2.558239474049691 24.000000000000000
-1.553051710962224 -5.191288646142756 -2.668361402716396 22.000000000000000
-1.568903625508875 -5.175318238735004 -2.778672802199266 22.000000000000000
-1.584764973109416 -5.160669465564918 -2.891260390762378 21.000000000000000
-1.601775387597970 -5.150378665154567 -3.008469912298616 20.000000000000000
-1.554252147114375 -4.936475129290854 -3.003958981258433 2.000000000000000
-1.559940856797289 -4.887450374702696 -3.095719198847501 3.000000000000000
-1.376781515303627 -4.088274610159214 -3.023624872738972 50.000000000000000
-1.366251365294324 -5.510579359473764 -1.040603829405366 16.000000000000000
-1.387883089338893 -5.525955498064040 -1.147580221049032 4.000000000000000
-1.366864130630828 -5.372848923794259 -1.217026248886071 43.000000000000000
-1.380512493311575 -5.358588982645292 -1.316454849542189 42.000000000000000
-1.394989642065631 -5.346335887041925 -1.416443603345093 39.000000000000000
-1.409532727078844 -5.336298468424180 -1.517007629244965 40.000000000000000
-1.423820388360113 -5.324333049099732 -1.617945945930952 41.000000000000000
-1.437991612785719 -5.310544958836373 -1.718717068553026 37.000000000000000
-1.452304746727993 -5.298665467740231 -1.820961060431700 36.000000000000000
-1.465422808954726 -5.281195059258833 -1.922076673042816 24.000000000000000
-1.479119996506380 -5.265657638248465 -2.024173330693439 30.000000000000000
-1.495592455684705 -5.258901992948371 -2.130862978950695 27.000000000000000
-1.510736789571229 -5.246687895952118 -2.236054667289138 24.000000000000000
-1.523654513618969 -5.225255754811051 -2.338579744191448 27.000000000000000
-1.541211269443861 -5.219541464183911 -2.449097533093386 24.000000000000000
-1.556830872929075 -5.204500261544415 -2.556847797714797 24.000000000000000
-1.572394679881733 -5.190814982628404 -2.667011583551917 21.000000000000000
-1.588362912609924 -5.174785852491764 -2.777363973032056 22.000000000000000
-1.603299572412747 -5.156709608100542 -2.888105347598086 18.000000000000000
-1.620448350601694 -5.146391115498452 -3.005292270204489 20.000000000000000
-1.574423332411533 -4.939214851666903 -3.004897971550990 2.000000000000000
-1.580110722644865 -4.890115633951037 -3.096775611950334 3.000000000000000
-1.393567198105830 -4.088024118501377 -3.023245486379580 50.000000000000000
-1.388875725074246 -5.529813891717716 -1.042016575331344 4.000000000000000
-1.405918795317258 -5.526050401747359 -1.145432363049657 22.000000000000000
-1.383604318236223 -5.369214299950957 -1.214146981118937 43.000000000000000
-1.398337276248568 -5.358698848632231 -1.314482221835403 41.000000000000000
-1.412930225409561 -5.346403065882963 -1.414519860320577 38.000000000000000
-1.427595433415956 -5.336321915051404 -1.515131577597148 39.000000000000000
-1.440996658300311 -5.320607187796228 -1.614993431546536 39.000000000000000
-1.454263135395016 -5.303113857665832 -1.714555961659945 38.000000000000000
-1.470714451332428 -5.298553629510097 -1.819228528208408 35.000000000000000
-1.485976061389896 -5.288308220511458 -1.923037001684344 22.000000000000000
-1.498764646511425 -5.269064000414051 -2.023924181857649 30.000000000000000
-1.514348812682074 -5.258644662548118 -2.129269355103431 27.000000000000000
-1.528577430008109 -5.242823882123933 -2.232990994496113 23.000000000000000
-1.545745086780067 -5.235475338098454 -2.341809153380813 27.000000000000000
-1.561370008227984 -5.222619849138695 -2.449273690053572 24.000000000000000
-1.577109645100572 -5.207491265139525 -2.557128055226467 24.000000000000000
-1.592799157647141 -5.193717152111671 -2.667395168935340 21.000000000000000
-1.607830854435510 -5.174196253809673 -2.776025408851136 19.000000000000000
-1.623937156182379 -5.159428598980621 -2.888693241725600 19.000000000000000
-1.642290338886461 -5.152342485495670 -3.007921766761311 20.000000000000000
-1.594627548489580 -4.941893140580233 -3.005803581188256 2.000000000000000
-1.598182628204896 -4.886204550866244 -3.093673766575606 3.000000000000000
-1.410363489788833 -4.087724084263602 -3.022840160776279 54.000000000000000
-1.405804688658957 -5.526087592943862 -1.039078963532798 28.000000000000000
-1.422006013063302 -5.518495962949673 -1.141685248095976 8.000000000000000
-1.402303847624530 -5.373094844279696 -1.212951653328518 43.000000000000000
-1.416171298314031 -5.358755972841081 -1.312482105543377 39.000000000000000
-1.429878023657140 -5.342673188794557 -1.411579269895300 40.000000000000000
-1.446676195525092 -5.340015815182183 -1.514283685081896 39.000000000000000
-1.461204514119399 -5.327940440151147 -1.615384794443446 37.000000000000000
-1.474583447929894 -5.310359585533881 -1.715129361715790 40.000000000000000
-1.489133291919176 -5.298387420946775 -1.817467682367679 35.000000000000000
-1.504519911523005 -5.288092291974323 -1.921321354535091 19.000000000000000
-1.518442471684579 -5.272410121969236 -2.023642252459847 30.000000000000000
-1.535201446697680 -5.265491069283172 -2.130543667085123 27.000000000000000
-1.548499634341379 -5.246013124025157 -2.232926148577338 24.000000000000000
-1.563705086639828 -5.231531413565008 -2.338697387628260 27.000000000000000
-1.579447312176427 -5.218650467773062 -2.446141754533178 24.000000000000000
-1.596359867500155 -5.206958254470255 -2.555675431199933 22.000000000000000
-1.612171548198969 -5.193126978424567 -2.665984074434181 18.000000000000000
-1.627307238331350 -5.173549379545988 -2.774657090430044 19.000000000000000
-1.644607244708893 -5.162084706020886 -2.889247046985822 19.000000000000000
-1.660967807208952 -5.148241633723622 -3.004686010918647 20.000000000000000
-1.613789412472814 -4.941217879606392 -3.004673958759712 2.000000000000000
-1.618394078645712 -4.888752121569867 -3.094667558890715 3.000000000000000
-1.427170204701581 -4.087374439941208 -3.022408872824347 59.000000000000000
-1.421737105182486 -5.518502391382939 -1.035402800869354 7.000000000000000
-1.437064577598397 -5.507103203925765 -1.137134864966560 22.000000000000000
-1.420037355351721 -5.373139088871651 -1.210873338151110 42.000000000000000
-1.435020688503754 -5.362520825157835 -1.311374097393547 39.000000000000000
-1.447825006203946 -5.342636818550501 -1.409602275991041 38.000000000000000
-1.463748294888202 -5.336208523740624 -1.511295973782036 38.000000000000000
-1.478387025111140 -5.324109678073675 -1.612378348845354 38.000000000000000
-1.493926778451429 -5.313863184684186 -1.714479756393694 39.000000000000000
-1.508600763034065 -5.301820686177995 -1.816930694712415 34.000000000000000
-1.520981947263423 -5.280563077106404 -1.916942227819951 28.000000000000000
-1.537102584805146 -5.272092219493446 -2.021945417893865 29.000000000000000
-1.552943989327958 -5.261540805604077 -2.127441965594683 26.000000000000000
-1.568454707452684 -5.249141302499325 -2.232828120806707 23.000000000000000
-1.583779708299986 -5.234577250925323 -2.338706232016391 25.000000000000000
-1.599647535947156 -5.221610826776183 -2.446255124559158 23.000000000000000
-1.615618525084246 -5.206368521740822 -2.554193335914666 20.000000000000000
-1.631552271367231 -5.192479749511301 -2.664543344873842 18.000000000000000
-1.647872423401928 -5.176239422534396 -2.775078722629729 19.000000000000000
-1.665309592590045 -5.164677764666555 -2.889766694386667 19.000000000000000
-1.681800576977984 -5.150738469997247 -3.005304648944421 20.000000000000000
-1.631872541369085 -4.937196940173135 -3.001515347731980 2.000000000000000
-1.636458979303725 -4.884733721193369 -3.091511358881379 3.000000000000000
-1.446173359968807 -4.093162817462998 -3.026526848163569 50.000000000000000
-1.444759125676548 -4.034654365439676 -3.097931442142145 5.000000000000000
-1.438624870170009 -5.514683202716910 -1.032420290676377 23.000000000000000
-1.460078215736187 -5.526014825355481 -1.138822090532170 4.000000000000000
-1.437779701241139 -5.373130772307204 -1.208767651115932 42.000000000000000
-1.452884411057412 -5.362469604261062 -1.309316856793100 38.000000000000000
-1.468858051066813 -5.353763273023102 -1.410552672623453 38.000000000000000
-1.481838051138137 -5.336071558637264 -1.509336381096540 37.000000000000000
-1.497633062838964 -5.327624757867551 -1.611584825086259 38.000000000000000
-1.511211156887855 -5.309957785725917 -1.711428979860511 37.000000000000000
-1.525997569750869 -5.297891637429996 -1.813860969083287 34.000000000000000
-1.541634054816715 -5.287496030391664 -1.917804518094001 28.000000000000000
-1.556834016985514 -5.275320078689562 -2.021599839466631 29.000000000000000
-1.572806498337020 -5.264688713050237 -2.127203909706421 27.000000000000000
-1.585224768472247 -5.241569072733358 -2.228174160425362 24.000000000000000
-1.602809742717289 -5.234044036946375 -2.337111026022645 25.000000000000000
-1.619880250537327 -5.224509302055286 -2.446334917107000 20.000000000000000
-1.635970987981820 -5.209178659214690 -2.554376758206200 20.000000000000000
-1.650941114841051 -5.191775403182397 -2.663072961493479 18.000000000000000
-1.667377125668912 -5.175475084990978 -2.773648709810543 19.000000000000000
-1.684948408499217 -5.163850101271822 -2.888374108783512 19.000000000000000
-1.702665207127761 -5.153171754698322 -3.005888896652036 19.000000000000000
-1.653237522966856 -4.942984634189487 -3.004324316517947 2.000000000000000
-1.657812672034068 -4.890412659680980 -3.094498531664744 3.000000000000000
-1.464129169362665 -4.095799562172177 -3.028324903627680 52.000000000000000
-1.460523516972194 -5.529845401538842 -1.032968969258464 3.000000000000000
-1.478148126114062 -5.525895998218654 -1.136563035707459 26.000000000000000
-1.455530688899268 -5.373069832257813 -1.206634572417602 42.000000000000000
-1.470756770658595 -5.362365419001476 -1.307232050807746 39.000000000000000
-1.485820478169144 -5.349876430485683 -1.407531060114477 37.000000000000000
-1.499936424602506 -5.335880996759327 -1.507348901407148 36.000000000000000
-1.515860312758962 -5.327386013562872 -1.609642747536542 37.000000000000000
-1.530595730863842 -5.313347542559121 -1.710718738028649 38.000000000000000
-1.544442600540787 -5.297561936256781 -1.812015062067120 33.000000000000000
-1.560203939057212 -5.287115571221086 -1.916003289428775 28.000000000000000
-1.574448506544160 -5.271290933602040 -2.018465702846054 30.000000000000000
-1.591621647755376 -5.264204190351896 -2.125490713383146 26.000000000000000
-1.606293301240599 -5.248126534215887 -2.229521408564789 21.000000000000000
-1.622937200357966 -5.236969370653912 -2.337055124409139 20.000000000000000
-1.639051783431324 -5.223860832050535 -2.444750142366065 19.000000000000000
-1.655257952046543 -5.208472535153478 -2.552833516455505 19.000000000000000
-1.671438945665224 -5.194435772313724 -2.663327403497559 18.000000000000000
-1.687994327738392 -5.178042023021525 -2.774004318191695 19.000000000000000
-1.705702481819410 -5.166319329385382 -2.888827379808992 19.000000000000000
-1.722451622441140 -5.152221594791425 -3.004502795224994 19.000000000000000
-1.674658654789231 -4.948704844090900 -3.007095401880489 2.000000000000000
-1.676995319602756 -4.889530786103420 -3.093339843886751 3.000000000000000
-1.481001709846823 -4.095292547294583 -3.027809255469083 52.000000000000000
-1.479472949546042 -5.533523603214311 -1.031346849625110 25.000000000000000
-1.496226088863634 -5.525723585432333 -1.134276134105218 9.000000000000000
-1.473290121615132 -5.372956206967172 -1.204474082562266 41.000000000000000
-1.488637569356350 -5.362208207476337 -1.305119659944724 41.000000000000000
-1.504866489832152 -5.353408097559753 -1.406447506578868 38.000000000000000
-1.518043215035002 -5.335636775977522 -1.505333515245835 36.000000000000000
-1.534095944441070 -5.327093250736403 -1.607672582091307 37.000000000000000
-1.548942835113421 -5.313008259177867 -1.708795871793517 36.000000000000000
-1.562895954407396 -5.297177612313445 -1.810140762289555 32.000000000000000
-1.579863449474645 -5.290301157169916 -1.915484572493533 28.000000000000000
-1.595307346745591 -5.277998158525738 -2.019434056367888 29.000000000000000
-1.611536763628894 -5.267232607542847 -2.125188442823338 26.000000000000000
-1.625224814133211 -5.247535266202235 -2.227824484444299 17.000000000000000
-1.641995484204323 -5.236320909049318 -2.335399359275743 19.000000000000000
-1.659336694416836 -5.226637840709359 -2.444764736457643 19.000000000000000
-1.674552706052866 -5.207709469437121 -2.551260730812505 19.000000000000000
-1.691968586326446 -5.197033314336359 -2.663547828097431 18.000000000000000
-1.708643211110638 -5.180545818433611 -2.774325755969467 19.000000000000000
-1.726488084348288 -5.168725053849185 -2.889246305235178 18.000000000000000
-1.775901076791697 -5.250721435401299 -3.061098458603941 20.000000000000000
-1.695012392981811 -4.951076273670686 -3.007835221539450 3.000000000000000
-1.696185751407719 -4.888592345381253 -3.092151803744643 3.000000000000000
-1.500141444836352 -4.100906974592590 -3.031830079543073 54.000000000000000
-1.495368160153396 -5.525741979602159 -1.027572693517040 8.000000000000000
-1.511200304067011 -5.514143764939416 -1.129635419313475 27.000000000000000
-1.493149047527068 -5.380325304867120 -1.203972398219961 40.000000000000000
-1.507580123994657 -5.365747557246936 -1.303890839616113 40.000000000000000
-1.521821891488614 -5.349419952772827 -1.403374611236064 38.000000000000000
-1.536158221871777 -5.335338834746214 -1.503290203461945 37.000000000000000
-1.553414783560726 -5.330435290365990 -1.606786272481759 36.000000000000000
-1.568379728723915 -5.316280985928321 -1.708022688720760 37.000000000000000
-1.582445018400461 -5.300381477839363 -1.809481680790655 32.000000000000000
-1.598461647036760 -5.289807884922912 -1.913624023563647 27.000000000000000
-1.614024763106356 -5.277453688221808 -2.017618059186007 26.000000000000000
-1.630380002702952 -5.266633910246531 -2.123415244889152 18.000000000000000
-1.645272867284142 -5.250426016660819 -2.227599568088892 16.000000000000000
-1.662174853421906 -5.239125219865023 -2.335278503139645 19.000000000000000
-1.677418309968133 -5.222393955725796 -2.441492409282140 19.000000000000000
-1.693855037779104 -5.206889401484803 -2.549658383332085 19.000000000000000
-1.712529790713583 -5.199567866783674 -2.663734167410324 19.000000000000000
-1.729323528578169 -5.182986309126650 -2.774612955514995 19.000000000000000
-1.783518542097209 -5.278239488408778 -2.949519539348350 19.000000000000000
-1.808535131892393 -5.286025330429659 -3.080833796680205 18.000000000000000
-1.715397720739049 -4.953385319616728 -3.008541263650665 2.000000000000000
-1.716521278999027 -4.890838389413500 -3.092984084566667 3.000000000000000
-1.514775539050839 -4.094128526653445 -3.026699633848020 48.000000000000000
-1.509144403629940 -5.510322898420182 -1.022370150258032 28.000000000000000
-1.531356496395324 -5.521435957982496 -1.128845535423582 4.000000000000000
-1.509890880356720 -5.376335597400161 -1.200911767593044 40.000000000000000
-1.524423690659086 -5.361734460905021 -1.300812047184711 39.000000000000000
-1.541980850764224 -5.356566741511185 -1.403207682281097 37.000000000000000
-1.555361356286592 -5.338694538867795 -1.502262184851070 35.000000000000000
-1.570591545350146 -5.326345423802566 -1.603647911485593 36.000000000000000
-1.586754844334689 -5.315830022833975 -1.706041099246245 35.000000000000000
-1.600926352271573 -5.299884881021896 -1.807548356896145 32.000000000000000
-1.618173000752188 -5.292874839285766 -1.913041576989988 25.000000000000000
-1.632749966516757 -5.276853763439154 -2.015773277458941 20.000000000000000
-1.649230954470755 -5.265979410988772 -2.121613089575440 19.000000000000000
-1.664231923245223 -5.249719821045770 -2.225842291396825 7.000000000000000
-1.680135161676317 -5.234854864459194 -2.332000082878817 19.000000000000000
-1.697742450235393 -5.225051843421850 -2.441443795425697 19.000000000000000
-1.714298530014923 -5.209457679852218 -2.549712774376249 20.000000000000000
-1.731985092563379 -5.198625856328566 -2.662138397050443 18.000000000000000
-1.787682461131302 -5.296912870902205 -2.834559834654068 18.000000000000000
-1.812756997863091 -5.303850176800994 -2.962884636422157 18.000000000000000
-1.832272824706089 -5.294716838983001 -3.085055249235163 19.000000000000000
-1.734667126774798 -4.952356452386701 -3.007224555597848 2.000000000000000
-1.736888115624706 -4.893022056522211 -3.093782608424321 3.000000000000000
-1.531676452095089 -4.093471392026753 -3.026105617581110 53.000000000000000
-1.530197022696317 -5.521436524999875 -1.022074249811937 3.000000000000000
-1.554748439917743 -5.540000198282870 -1.130332292557854 14.000000000000000
-1.527686177889527 -5.376060724567640 -1.198666770894460 38.000000000000000
-1.544482706035534 -5.368905818637776 -1.300430498471404 38.000000000000000
-1.557855415424154 -5.348749580853041 -1.399107010188304 36.000000000000000
-1.574595986596101 -5.341990688716882 -1.501201838747070 34.000000000000000
-1.589949900451782 -5.329573426580188 -1.602700971717333 35.000000000000000
-1.605137690126309 -5.315324514102454 -1.704031192648035 33.000000000000000
-1.620526857541388 -5.302970598644004 -1.806825817256407 23.000000000000000
-1.635681376331822 -5.288655904913567 -1.909817047401163 20.000000000000000
-1.652605443712627 -5.279785134467430 -2.015268761547239 20.000000000000000
-1.669217260022208 -5.268829069280099 -2.121215212455576 18.000000000000000
-1.682065711297340 -5.245425193503676 -2.222559219061371 5.000000000000000
-1.701490854865558 -5.241043904399968 -2.333376022624904 19.000000000000000
-1.718097895096461 -5.227647134556910 -2.441361312756480 19.000000000000000
-1.739356510863660 -5.225733091147237 -2.556469555501285 19.000000000000000
-1.791670944735170 -5.316994383470758 -2.721613850628374 18.000000000000000
-1.813432919984717 -5.312640298738041 -2.841932107025129 19.000000000000000
-1.831792669503068 -5.299264828243027 -2.959379647172905 18.000000000000000
-1.851457158420531 -5.290097631280790 -3.081523883089462 18.000000000000000
-1.755102916538684 -4.954543129708985 -3.007865044879989 2.000000000000000
-1.757286016459775 -4.895143186145891 -3.094547308328698 3.000000000000000
-1.547422095727964 -4.089686823303170 -3.023210635227606 46.000000000000000
-1.551326561331718 -5.532479896629086 -1.021737781185434 12.000000000000000
-1.568614456659710 -5.524496886243295 -1.124849696735657 14.000000000000000
-1.545489119468358 -5.375732892135326 -1.196394271976960 37.000000000000000
-1.560241185073774 -5.361047880889127 -1.296393868858449 37.000000000000000
-1.576980366864635 -5.352055909009544 -1.397903598020798 36.000000000000000
-1.593861877843668 -5.345227124182148 -1.500109097787262 34.000000000000000
-1.609339557577986 -5.332741373134253 -1.601721460078781 35.000000000000000
-1.623528062065194 -5.314764399937193 -1.701992950880553 24.000000000000000
-1.639035308092404 -5.302361352315515 -1.804833329783453 20.000000000000000
-1.655431712456061 -5.291606631378499 -1.909172884823658 20.000000000000000
-1.672492230055954 -5.282655091658774 -2.014730980298383 20.000000000000000
-1.688094996705186 -5.268059863137434 -2.119352863611751 18.000000000000000
-1.701027432042058 -5.244609546278642 -2.220745906789728 12.000000000000000
-1.720602983681756 -5.240163811701922 -2.331598721708996 19.000000000000000
-1.744252429107413 -5.247532620056881 -2.449344578656064 17.000000000000000
-1.795803127935706 -5.334790679111737 -2.608584968092638 19.000000000000000
-1.815044299561022 -5.326057495956820 -2.725110959280962 18.000000000000000
-1.835815180943572 -5.318155992504749 -2.843838156576945 18.000000000000000
-1.854313548196433 -5.304647092171249 -2.961442974715917 18.000000000000000
-1.874133067482558 -5.295340610954930 -3.083740757479444 18.000000000000000
-1.776740790807192 -4.959936544118097 -3.010456051930280 2.000000000000000
-1.776541326833587 -4.893969142137425 -3.093235029844811 3.000000000000000
-1.567857708089126 -4.098155326306287 -3.029384282103034 5.000000000000000
-1.567158377935421 -5.524507162951545 -1.017869945014532 14.000000000000000
-1.584562009915873 -5.516509132544448 -1.120889926480317 30.000000000000000
-1.565484411682796 -5.382864762486805 -1.195763147766331 38.000000000000000
-1.579261729822488 -5.364362861695748 -1.295045743121641 36.000000000000000
-1.595027876111171 -5.351583795122194 -1.395698018273948 37.000000000000000
-1.612043193470966 -5.344704928119315 -1.497947253317366 33.000000000000000
-1.627637770919791 -5.332171743891005 -1.599606132873217 22.000000000000000
-1.643055003233467 -5.317804469570257 -1.701095494017919 21.000000000000000
-1.659821653596466 -5.308959712462975 -1.805281930806744 20.000000000000000
-1.675213149649849 -5.294496154935591 -1.908495577310166 19.000000000000000
-1.690116844991618 -5.278301599919629 -2.011430652685166 20.000000000000000
-1.708131616758674 -5.270788782049457 -2.118890274377371 18.000000000000000
-1.723466246889131 -5.254316817075019 -2.223380057848079 18.000000000000000
-1.751335651746660 -5.274201872942822 -2.345344758957101 19.000000000000000
-1.796201153890247 -5.343613351437782 -2.492860558695413 18.000000000000000
-1.817929437056155 -5.340502591529825 -2.610138048408154 19.000000000000000
-1.837322596880253 -5.331639379713550 -2.726822913150193 17.000000000000000
-1.857074595325708 -5.320229058069610 -2.843902374742777 18.000000000000000
-1.876888258070473 -5.309957876134759 -2.963466520882532 17.000000000000000
-1.796066842589492 -4.958727828529093 -3.009044070717768 3.000000000000000
-1.796988678832959 -4.895967664224538 -3.093934116786246 3.000000000000000
-1.583620936809663 -4.094270199805062 -3.026436891707194 48.000000000000000
-1.581864302782640 -5.512706272799259 -1.013287164342710 30.000000000000000
-1.602660813374317 -5.516019793206982 -1.118439966302695 4.000000000000000
-1.584429537179253 -5.386178416969795 -1.194263414110425 34.000000000000000
-1.597200714519316 -5.363883287832604 -1.292765234700046 35.000000000000000
-1.614202795827383 -5.354773949133971 -1.394432245617993 36.000000000000000
-1.631359091646907 -5.347824413779196 -1.496791753547626 22.000000000000000
-1.644808776482550 -5.327873273197072 -1.596361636208502 20.000000000000000
-1.661471687371051 -5.317131995470649 -1.698998285698576 22.000000000000000
-1.677221044676650 -5.304606145722262 -1.801995340188028 19.000000000000000
-1.695025446513184 -5.297324315892054 -1.907785058105750 20.000000000000000
-1.708883067194234 -5.277476273339634 -2.009468299574305 20.000000000000000
-1.727035256403127 -5.269904498021031 -2.116967596558410 18.000000000000000
-1.757670367697357 -5.299183758873529 -2.240870895033816 18.000000000000000
-1.798741563996077 -5.357046092796580 -2.380758271140907 19.000000000000000
-1.819387903557618 -5.352853241278329 -2.495834496460913 18.000000000000000
-1.838927955210795 -5.342710307626864 -2.609974433652926 19.000000000000000
-1.858469543292667 -5.333748665794001 -2.726756337994702 18.000000000000000
-1.877174919620642 -5.318868227596139 -2.842131435844504 18.000000000000000
-1.942416504223657 -5.435239010275165 -3.032423952105409 6.000000000000000
-1.814204228420738 -4.954198261625431 -3.005622498266852 3.000000000000000
-1.816269090459032 -4.894676655059989 -3.092560594952646 3.000000000000000
-1.601768682616410 -4.096477592156941 -3.028004033079442 71.000000000000000
-1.600899560149959 -5.516002497054942 -1.011464804526242 5.000000000000000
-1.628515850236064 -5.541848340109070 -1.121297953605666 17.000000000000000
-1.604520824624166 -5.393183427974565 -1.193561659726007 32.000000000000000
-1.616270703781818 -5.367082561938691 -1.291355019129228 34.000000000000000
-1.632276288886429 -5.354191307196221 -1.392168654539950 24.000000000000000
-1.649566349468502 -5.347190930888005 -1.494571512952870 19.000000000000000
-1.664255422956155 -5.330869089167999 -1.595290770146363 19.000000000000000
-1.682201236830669 -5.323702448118980 -1.699201942882997 21.000000000000000
-1.695762598247076 -5.303828735878501 -1.799914984341148 19.000000000000000
-1.712538376684513 -5.292889744740754 -1.904450172202183 21.000000000000000
-1.729997023159331 -5.283745021219516 -2.010197216841630 20.000000000000000
-1.770635679285318 -5.343474652609571 -2.144925156773740 28.000000000000000
-1.800456499565256 -5.368558086808902 -2.268686946612940 17.000000000000000
-1.819466167804351 -5.359384290019240 -2.380366126483553 18.000000000000000
-1.839083782277358 -5.351631890837512 -2.493925208729269 18.000000000000000
-1.861150074578656 -5.348283837598239 -2.611451012824348 19.000000000000000
-1.880843367337034 -5.339191377735772 -2.728391405105999 18.000000000000000
-1.939309161588475 -5.435239478266208 -2.903248489136863 6.000000000000000
-1.993212207927545 -5.516920937090279 -3.077022012931254 7.000000000000000
-1.838359312083729 -4.965920545160955 -3.012064438026410 3.000000000000000
-1.836764951154883 -4.896552071010437 -3.093193872050764 3.000000000000000
-1.621159976108752 -4.101694112852726 -3.031806348771695 70.000000000000000
-1.624402700150589 -5.534360487018260 -1.012376346757710 13.000000000000000
-1.644471662827112 -5.533701388881367 -1.117256411416404 15.000000000000000
-1.625793010153912 -5.403870663137440 -1.193651098192936 29.000000000000000
-1.635370931744870 -5.370222295513263 -1.289912559973033 23.000000000000000
-1.651500279693136 -5.357264789441607 -1.390840322245035 22.000000000000000
-1.667780364570972 -5.346503179874651 -1.492323156404725 19.000000000000000
-1.681416453134284 -5.326467582247683 -1.591994285917461 19.000000000000000
-1.699490384527210 -5.319268377191309 -1.695880999454886 21.000000000000000
-1.715481776153764 -5.306618391303140 -1.799034053254024 19.000000000000000
-1.732387861917545 -5.295600805058949 -1.903677601207663 19.000000000000000
-1.773631190332018 -5.357811319424020 -2.036686099067129 21.000000000000000
-1.798116728912637 -5.367229215516956 -2.152849919828539 129.000000000000000
-1.821067906680657 -5.370924217392901 -2.268159767362119 17.000000000000000
-1.839023283609123 -5.358169986528639 -2.378391001876518 19.000000000000000
-1.859986936621488 -5.353810660080105 -2.493596601619844 17.000000000000000
-1.882219888444715 -5.350358786410482 -2.611215262712617 19.000000000000000
-1.943173904074226 -5.456615091704119 -2.787222796891518 5.000000000000000
-1.988945511194820 -5.514350162384690 -2.944424908213132 7.000000000000000
-2.010573925823770 -5.505193001807149 -3.069511117694667 7.000000000000000
-1.861396851290744 -4.974303556551920 -3.016483033149667 3.000000000000000
-1.858511762129732 -4.901584714313206 -3.095827081481871 3.000000000000000
-1.639383124884725 -4.103785503972648 -3.033309662271091 69.000000000000000
-1.641300925842147 -5.529971084184689 -1.009102115204863 17.000000000000000
-1.659256990579966 -5.521750806683834 -1.112437983933461 26.000000000000000
-1.651698065813579 -5.429464167318062 -1.197001401501628 27.000000000000000
-1.653353797027455 -5.369576048162444 -1.287544284619017 22.000000000000000
-1.670754334879497 -5.360278227134884 -1.389479499735448 21.000000000000000
-1.686000933464187 -5.345761104027272 -1.490046667399048 19.000000000000000
-1.700900014280386 -5.329348189335231 -1.590862350503739 20.000000000000000
-1.719115662902414 -5.322070973663878 -1.694856303303621 21.000000000000000
-1.735231126191667 -5.309346632962137 -1.798119926409032 19.000000000000000
-1.777231964029920 -5.373733984042350 -1.929981765400568 19.000000000000000
-1.803439910939501 -5.388866509069601 -2.046783387429784 19.000000000000000
-1.817373623429906 -5.366089688799180 -2.150775340342260 44.000000000000000
-1.844117987664962 -5.380254888891868 -2.270564286279001 17.000000000000000
-1.861004501437326 -5.363868201662457 -2.379478127830626 19.000000000000000
-1.879706019042882 -5.352469327584737 -2.491624646538587 17.000000000000000
-1.942286474730193 -5.461950059944833 -2.664399518230853 6.000000000000000
-1.986808117722042 -5.519483682761798 -2.818147863239267 6.000000000000000
-2.010991526517183 -5.515987207600290 -2.944218437186010 7.000000000000000
-2.030323243770760 -5.500072157437115 -3.065689121354155 6.000000000000000
-1.880818945707631 -4.972847129126822 -3.014938726376105 3.000000000000000
-1.877845978967701 -4.900112960871906 -3.094358002877171 3.000000000000000
-1.656402530471659 -4.102760649434478 -3.032520685914453 66.000000000000000
-1.655916858339510 -5.517985387008098 -1.004430498855996 31.000000000000000
-1.677404420560489 -5.521039333223869 -1.109871655138140 4.000000000000000
-1.674320137674749 -5.443737092331303 -1.197822418454899 30.000000000000000
-1.673661159800223 -5.376322518432996 -1.286930650799197 21.000000000000000
-1.690038216567025 -5.363231464709107 -1.388086122147020 21.000000000000000
-1.704227852360858 -5.344964647230172 -1.487742029754197 19.000000000000000
-1.719231900607477 -5.328505755947296 -1.588605703366995 20.000000000000000
-1.737582368729656 -5.321172686475666 -1.692640763004711 21.000000000000000
-1.783683141777643 -5.398799089897519 -1.826534104981334 19.000000000000000
-1.806996248472576 -5.404986704089230 -1.939402817009577 19.000000000000000
-1.825025028969365 -5.394849127912716 -2.047337424728706 19.000000000000000
-1.839059197980843 -5.371970580197596 -2.151505833553226 16.000000000000000
-1.863595825521095 -5.378975768681331 -2.268482814358409 18.000000000000000
-1.884260059044632 -5.372977930550787 -2.382069727716488 18.000000000000000
-1.944771627993199 -5.478804644161007 -2.549052174058518 7.000000000000000
-1.984701321788300 -5.521956205832871 -2.692377448307651 6.000000000000000
-2.006238911296663 -5.514386732355335 -2.814357546016964 8.000000000000000
-2.026882297204060 -5.500775459581797 -2.935021890300556 9.000000000000000
-2.058728865911480 -5.518150807947387 -3.074798061241166 4.000000000000000
-1.903974984219444 -4.981087148148655 -3.019277079370966 3.000000000000000
-1.894696029214487 -4.892155241582183 -3.088800422354745 3.000000000000000
-1.675923564895513 -4.107797825238124 -3.036223514762519 68.000000000000000
-1.677334473877437 -5.528591486907128 -1.003853193270974 5.000000000000000
-1.701324888062181 -5.539050087208043 -1.111043543998515 14.000000000000000
-1.695878896200429 -5.454193128807618 -1.197776307617487 31.000000000000000
-1.691679973230120 -5.375562585718501 -1.284502142931480 21.000000000000000
-1.706993959656270 -5.358722796488559 -1.384747490371741 21.000000000000000
-1.723647185028051 -5.347794273079337 -1.486432236721446 20.000000000000000
-1.738763293206833 -5.331267664450460 -1.587410249488604 20.000000000000000
-1.786062905152583 -5.411132129974755 -1.719282516281945 20.000000000000000
-1.807395932276139 -5.412167326099540 -1.829160675909097 20.000000000000000
-1.826067048681933 -5.403832398387769 -1.937175919696701 19.000000000000000
-1.845445088602569 -5.397199531317662 -2.046501806521816 18.000000000000000
-1.863244654946075 -5.384852878322723 -2.155027339648936 17.000000000000000
-1.884307302328632 -5.381146635143414 -2.267849836624043 16.000000000000000
-1.944585090362463 -5.486380373952728 -2.430860592186714 8.000000000000000
-1.982265655639266 -5.525516907552418 -2.569387042628143 5.000000000000000
-2.005201234025777 -5.520262009423591 -2.690255630674547 9.000000000000000
-2.025649962396420 -5.509234870648989 -2.810540405307955 8.000000000000000
-2.053918842855024 -5.515704422231544 -2.941907903646964 4.000000000000000
-2.081024425959705 -5.519534302050014 -3.074602808014777 8.000000000000000
-1.933481137053869 -5.005491608397657 -3.033413992668575 4.000000000000000
-1.916530933536261 -4.896997265609128 -3.091330936896814 3.000000000000000
-1.692981679966230 -4.106665154508867 -3.035377133082704 68.000000000000000
-1.699982485848585 -5.542893333763248 -1.003916848315145 9.000000000000000
-1.717211583892578 -5.530710225887266 -1.106907752891433 11.000000000000000
-1.717513133588975 -5.464576384906564 -1.197688427543192 31.000000000000000
-1.709704766295490 -5.374748764392137 -1.282045760404708 21.000000000000000
-1.726313382241149 -5.361561463619797 -1.383293453364933 21.000000000000000
-1.743095931696517 -5.350563095216205 -1.485089605718603 20.000000000000000
-1.787247912288368 -5.421710228961187 -1.612273889014678 19.000000000000000
-1.809685016435825 -5.424577613950457 -1.721563780844394 21.000000000000000
-1.827553743106937 -5.414624553664119 -1.828083219909166 19.000000000000000
-1.846367588936848 -5.406206268555072 -1.936203632978564 18.000000000000000
-1.865894170387051 -5.399486350552525 -2.045631954950007 18.000000000000000
-1.887530460110511 -5.397652178966592 -2.158500339831388 17.000000000000000
-1.944736138756084 -5.495404231137929 -2.314415193306383 10.000000000000000
-1.975821184302862 -5.516094114366319 -2.442527455140123 4.000000000000000
-2.002607760094039 -5.523836548218581 -2.567203916282412 10.000000000000000
-2.023198144228677 -5.511677146404934 -2.684775652263556 10.000000000000000
-2.048811898887886 -5.514176940404409 -2.811871702778718 4.000000000000000
-2.077296776873619 -5.520490312644519 -2.943380506966179 10.000000000000000
-2.099557456069759 -5.510901592144001 -3.068831394906960 7.000000000000000
-1.958116106766782 -5.016807148390205 -3.039618947875118 4.000000000000000
-1.935881241647886 -4.895353216531646 -3.089772921045995 3.000000000000000
-1.712588014480905 -4.111581805571865 -3.039013219574202 71.000000000000000
-1.715724951795801 -5.534526309216860 -0.999853200410793 14.000000000000000
-1.731880903742951 -5.518579418140158 -1.102004419651000 29.000000000000000
-1.738036974159875 -5.471154482726263 -1.196742287461054 30.000000000000000
-1.728929348511709 -5.377594808874055 -1.280445773715424 21.000000000000000
-1.745661937481524 -5.364339534361419 -1.381806701429460 21.000000000000000
-1.786768413236718 -5.426754432139862 -1.504080772668114 19.000000000000000
-1.809554022262495 -5.431578420517989 -1.613125569283722 19.000000000000000
-1.829735070202345 -5.427050994131291 -1.720345046777005 20.000000000000000
-1.848970604623631 -5.420625379306694 -1.828188228945225 19.000000000000000
-1.865460734316879 -5.404935008333182 -1.933915666314411 18.000000000000000
-1.885130171815402 -5.398153336128733 -2.043381705642257 18.000000000000000
-1.944342748893427 -5.502128996921769 -2.198591316288271 12.000000000000000
-1.977155016802574 -5.528856265160821 -2.326899748318425 4.000000000000000
-2.002248167807004 -5.531799840163838 -2.447974020057572 11.000000000000000
-2.020431474996335 -5.515210349570547 -2.561791454204275 10.000000000000000
-2.044947570239988 -5.513279390026140 -2.684257029884166 5.000000000000000
-2.072025145683167 -5.519044797783773 -2.813161978221752 8.000000000000000
-2.096908580644443 -5.515161677052286 -2.939460848590012 7.000000000000000
-2.123146805164474 -5.515469767246322 -3.070413797896252 4.000000000000000
-1.987964477622589 -5.041005980310605 -3.053629961567618 6.000000000000000
-1.957797369451266 -4.900061127245717 -3.092230005905952 3.000000000000000
-1.729683975171812 -4.110340819192525 -3.038109230444744 73.000000000000000
-1.729069398065874 -5.518594160737454 -0.994415157641211 26.000000000000000
-1.754802793705123 -5.532634209026628 -1.102311146778893 4.000000000000000
-1.757415348723953 -5.473936642225566 -1.194944738876974 30.000000000000000
-1.745771481183101 -5.372959239900364 -1.277049310659950 20.000000000000000
-1.790531700452372 -5.444572807801034 -1.400222543108311 18.000000000000000
-1.810173817172600 -5.440349589952769 -1.505672969380639 18.000000000000000
-1.829478468664999 -5.434072511616020 -1.611769360420506 19.000000000000000
-1.848578071431067 -5.425834763423567 -1.717944188222805 20.000000000000000
-1.866713715769423 -5.415746747305465 -1.824612581456287 18.000000000000000
-1.888302955896006 -5.414342409876526 -1.935435923859751 18.000000000000000
-1.943235707802796 -5.506900962876517 -2.082757011508993 14.000000000000000
-1.972913784683596 -5.525254189370300 -2.206128133416414 4.000000000000000
-1.998439352991075 -5.530699738722462 -2.326064606263525 11.000000000000000
-2.016110078583362 -5.512719975301575 -2.438022687537092 10.000000000000000
-2.039484474411676 -5.509976172869315 -2.557954192913967 5.000000000000000
-2.071833746721253 -5.528447890065562 -2.690336940380629 7.000000000000000
-2.094008659972327 -5.520461762606174 -2.812690821893519 7.000000000000000
-2.113931241526807 -5.503090980161631 -2.931951631620246 6.000000000000000
-2.148073737985167 -5.523271818030491 -3.073796291286817 6.000000000000000
-2.020587535535650 -5.071571510305822 -3.071495470791433 6.000000000000000
-1.978473268815292 -4.901496952953974 -3.092627870398609 3.000000000000000
-1.748080730261103 -4.112092443242391 -3.039428482251003 77.000000000000000
-1.747087552996352 -5.517667968871316 -0.991669938768292 6.000000000000000
-1.775422675676297 -5.539123607838596 -1.101083093948649 13.000000000000000
-1.775613260241627 -5.472932280853482 -1.192302729698292 26.000000000000000
-1.791810028917200 -5.457253008478421 -1.294739518870477 19.000000000000000
-1.815084999755388 -5.461913023583288 -1.402408131206550 20.000000000000000
-1.831211578005090 -5.446527897903452 -1.505190358040972 18.000000000000000
-1.848190922072840 -5.432857951174934 -1.609299474281539 19.000000000000000
-1.869920813192781 -5.431809454476523 -1.717806218014101 21.000000000000000
-1.889453146661457 -5.425218002702103 -1.825858819768967 18.000000000000000
-1.940197761946394 -5.505904103242282 -1.966278884196748 12.000000000000000
-1.967910219951466 -5.519549351051182 -2.085738317124425 5.000000000000000
-1.996571296579831 -5.534183527845031 -2.207979107193329 11.000000000000000
-2.014647671477293 -5.518497272806287 -2.319318565837969 11.000000000000000
-2.037540920367594 -5.514408982725030 -2.437255950668511 7.000000000000000
-2.067512052508972 -5.528741077464442 -2.565250867086386 6.000000000000000
-2.091106845490984 -5.523091750106333 -2.686423957726723 9.000000000000000
-2.110848634064075 -5.508318104173962 -2.805311695213065 6.000000000000000
-2.142551065072365 -5.521038200078379 -2.940434683313433 5.000000000000000
-2.167879001337852 -5.517767441673881 -3.069775088693320 7.000000000000000
-2.052149421926144 -5.098777369376625 -3.087323774342590 7.000000000000000
-1.997873189908247 -4.899670287815765 -3.090973598680715 3.000000000000000
-1.765201960912091 -4.110745894279218 -3.038469060210859 78.000000000000000
-1.774723157490013 -5.546730975021898 -0.994282256203592 9.000000000000000
-1.792460004931445 -5.534327207045390 -1.097592591118546 12.000000000000000
-1.796256634087568 -5.479318101759783 -1.191251125591896 22.000000000000000
-1.813810268696628 -5.467260271656746 -1.294748404569194 18.000000000000000
-1.832336257489402 -5.457056997457737 -1.398874106554012 20.000000000000000
-1.851056042417763 -5.448973046160118 -1.503658295640736 18.000000000000000
-1.869412324577512 -5.438873228219505 -1.608956049143313 19.000000000000000
-1.890056004639284 -5.434094231316407 -1.716485998923591 20.000000000000000
-1.938844677030529 -5.510143330544905 -1.852453992735551 12.000000000000000
-1.960919008570024 -5.507937451857656 -1.965107037352557 5.000000000000000
-1.993960681994581 -5.535658859912942 -2.090009039532376 9.000000000000000
-2.015172711633545 -5.528956187495951 -2.204172955790389 12.000000000000000
-2.033363997408918 -5.513238291615968 -2.315489234244173 9.000000000000000
-2.065461652476558 -5.533344652093759 -2.444100882388900 5.000000000000000
-2.087904392702951 -5.526808685749252 -2.562936011307802 10.000000000000000
-2.107757134147275 -5.510877567204437 -2.679176795721810 8.000000000000000
-2.140665217921748 -5.529830797328919 -2.815070119498386 4.000000000000000
-2.164775919705402 -5.522200092970629 -2.939974719391102 8.000000000000000
-2.185041527210394 -5.505601669398584 -3.062052870588880 7.000000000000000
-2.019909162785404 -4.904175635467888 -3.093319949597632 3.000000000000000
-1.783646987593539 -4.112385282356524 -3.039728065650932 74.000000000000000
-1.789203355161625 -5.534414170606973 -0.989449918926229 15.000000000000000
-1.807033629137930 -5.522010358105178 -1.092600141013956 28.000000000000000
-1.816950891392928 -5.485636178491857 -1.190161827436794 20.000000000000000
-1.833403821869710 -5.469791215221301 -1.292964998691547 20.000000000000000
-1.853315416681077 -5.463196389716127 -1.398142758692733 20.000000000000000
-1.870928403219618 -5.451355835727858 -1.502092694310813 19.000000000000000
-1.889421237977663 -5.441179552181457 -1.607498823141515 19.000000000000000
-1.938179701498612 -5.515889323627113 -1.740236884506005 13.000000000000000
-1.961981385484355 -5.519390744587287 -1.853561666515868 7.000000000000000
-1.991935453081951 -5.538454729761661 -1.974076076835918 6.000000000000000
-2.011108776356314 -5.526876014468724 -2.084870022412172 13.000000000000000
-2.032459441264535 -5.520160225408694 -2.198940587062435 12.000000000000000
-2.059857644410620 -5.528855812080516 -2.320418042936794 4.000000000000000
-2.085701588883742 -5.531424011565094 -2.441723425453616 12.000000000000000
-2.104373716396188 -5.514527267710753 -2.555821643897608 10.000000000000000
-2.134842696130536 -5.525809680166405 -2.685123840972210 4.000000000000000
-2.158803428665989 -5.520936973194397 -2.809345598959846 9.000000000000000
-2.183067340153199 -5.513293143076893 -2.934156046780361 7.000000000000000
-2.211393508243467 -5.516488765009813 -3.067154130007028 4.000000000000000
-2.039340952199391 -4.902226637291666 -3.091601280454922 3.000000000000000
-1.802121662547715 -4.113966713011791 -3.040955671759657 74.000000000000000
-1.804843762646037 -5.525811575399577 -0.985272259640832 19.000000000000000
-1.822776782967428 -5.513391437210784 -1.088330675652276 4.000000000000000
-1.838939117485916 -5.495602020062083 -1.189839215721883 20.000000000000000
-1.851772924223305 -5.468562963132251 -1.290275999688320 20.000000000000000
-1.871824475175901 -5.461910873949189 -1.395493725950810 20.000000000000000
-1.890828412660525 -5.453676117217386 -1.500493492944365 18.000000000000000
-1.932417222243486 -5.508874966604019 -1.625318516937631 13.000000000000000
-1.957345727805734 -5.514359811128249 -1.737656345556930 12.000000000000000
-1.987770585279271 -5.535740095093352 -1.857033575322310 5.000000000000000
-2.011510405455596 -5.536766027684496 -1.971545546880086 14.000000000000000
-2.028213119518393 -5.518047812620273 -2.079710527801909 16.000000000000000
-2.054927732362633 -5.525369033155722 -2.199280123633816 4.000000000000000
-2.081227100799461 -5.530440334973170 -2.319445506193175 12.000000000000000
-2.100679643665284 -5.515619417365914 -2.433216693487531 11.000000000000000
-2.126056943036365 -5.515909606064379 -2.555038765399376 4.000000000000000
-2.158075033230323 -5.530461630517571 -2.686068186833845 11.000000000000000
-2.178224879900745 -5.515357962519456 -2.805309772173943 8.000000000000000
