# This PCD file was generated using the MATLAB® pcwrite function
# from Computer Vision Toolbox®.
# .PCD v.7 - Point Cloud Data file format
VERSION .7
FIELDS x y z intensity
SIZE 8 8 8 8
TYPE F F F F
COUNT 1 1 1 1
WIDTH 636
HEIGHT 1
VIEWPOINT 0 0 0 1 0 0 0
POINTS 636
DATA ascii
1.892157018984286 -4.662217810989074 -1.088747398805041 73.000000000000000
1.900934900843517 -4.654112152619989 -1.180077359154886 73.000000000000000
1.912432157603210 -4.651298134975694 -1.274116518273257 64.000000000000000
1.923098064958932 -4.646989348847915 -1.368257221521318 55.000000000000000
1.936545221877304 -4.648117865635601 -1.464352727584214 46.000000000000000
1.949332898276660 -4.647447863858255 -1.561251294448034 57.000000000000000
1.961274727072579 -4.645172769926424 -1.658503959139215 28.000000000000000
1.975999413533479 -4.647889435339967 -1.758878652599567 23.000000000000000
1.961872689683056 -4.583179965247920 -1.833810501558393 30.000000000000000
1.936837771961381 -4.493727625728323 -1.896463938721156 7.000000000000000
1.992277856063121 -4.590646760626845 -2.039609586020519 18.000000000000000
2.026282990959229 -4.637066647915050 -2.164672294677235 42.000000000000000
2.013805945619239 -4.577081617839937 -2.241720204891847 53.000000000000000
2.024327511763049 -4.569135543335613 -2.344247962939582 18.000000000000000
2.231239671576604 -5.002146173765199 -2.685163530265690 72.000000000000000
2.244429793220018 -4.995425191685802 -2.802742595668969 73.000000000000000
2.258949230225422 -4.993132362570300 -2.924845566028591 70.000000000000000
2.276156089584337 -4.994521145818910 -3.051601543422057 67.000000000000000
1.866769985767662 -4.670703877156226 -0.998037630630632 51.000000000000000
1.877569168781395 -4.667670257845924 -1.090638519612297 63.000000000000000
1.887700440514045 -4.663213880968922 -1.182897860012368 67.000000000000000
1.897610288263121 -4.656838582451217 -1.276038248200928 65.000000000000000
1.908153890431504 -4.652575514272430 -1.370194808931836 62.000000000000000
1.919995103943654 -4.650208051743406 -1.465190730360113 55.000000000000000
1.928246620657365 -4.639028810712635 -1.558485374747409 77.000000000000000
1.942988593002688 -4.643904963755704 -1.657993370030943 39.000000000000000
1.956096229614777 -4.643247295506573 -1.756939979981601 28.000000000000000
1.947908184813950 -4.592408885794210 -1.837196322991423 40.000000000000000
1.918639016088386 -4.492583086362290 -1.895553095556777 7.000000000000000
1.972144031143457 -4.586332854915310 -2.037121219846681 20.000000000000000
2.005847184491773 -4.632952682984917 -2.162033882641362 42.000000000000000
1.997810649392455 -4.583069023703830 -2.243798327198887 54.000000000000000
2.006752885718186 -4.571854354255267 -2.344642108966501 18.000000000000000
2.209068904153137 -4.998960929929436 -2.682190932380224 70.000000000000000
2.223569015830896 -4.995645345378966 -2.801428995179121 73.000000000000000
2.239372985751364 -4.996698940032887 -2.925315766436378 69.000000000000000
2.256399845954109 -4.998191135561082 -3.052035567875462 68.000000000000000
1.855177633157727 -4.683364998275234 -1.001451068381137 40.000000000000000
1.864410983524158 -4.676713231713925 -1.093356772890890 48.000000000000000
1.871525853273972 -4.665056251772205 -1.183865342143346 52.000000000000000
1.882770271442031 -4.662337919361657 -1.277937882158797 56.000000000000000
1.893191418676034 -4.658120229901009 -1.372110118043882 61.000000000000000
1.906357802470842 -4.659355953306897 -1.468243177863299 61.000000000000000
1.914508096109237 -4.648193582994200 -1.561618123916257 89.000000000000000
1.926184809898353 -4.646086522548862 -1.658706756213004 49.000000000000000
1.939153166929861 -4.645506319809155 -1.757606334706122 40.000000000000000
1.930993378834381 -4.594683934620818 -1.837794360595097 44.000000000000000
1.904827023890558 -4.501680230336776 -1.898958955020161 6.000000000000000
1.953512259015546 -4.585355955121561 -2.036113115400815 20.000000000000000
1.988360262586543 -4.635525511202149 -2.162514901951157 44.000000000000000
1.978902607172762 -4.582312777335372 -2.242573985846140 54.000000000000000
1.987738354830983 -4.571200095545024 -2.343307474324055 19.000000000000000
2.188386204804616 -4.998989037811386 -2.680946552705302 70.000000000000000
2.204168931330052 -4.999055022932116 -2.801907957063635 75.000000000000000
2.215504280145538 -4.990534968742861 -2.920096832369004 69.000000000000000
2.233791646070881 -4.995421800494227 -3.048545869277838 68.000000000000000
1.842088942769277 -4.692350930294847 -1.004067265619320 31.000000000000000
1.852648520128964 -4.689359200088982 -1.096906446970193 35.000000000000000
1.861109271625057 -4.681320245359305 -1.188481821257842 42.000000000000000
1.867912253604916 -4.667796091430779 -1.279815401398244 48.000000000000000
1.879652248476875 -4.667202584095511 -1.375057621995536 54.000000000000000
1.889793940372136 -4.661353898240138 -1.469033252957274 57.000000000000000
1.900727997613275 -4.657324713372605 -1.564731156875772 71.000000000000000
1.910828819289056 -4.651730371031348 -1.660648601781531 54.000000000000000
1.922214550266176 -4.647713833943118 -1.758246666574052 50.000000000000000
1.912640680586940 -4.593443396067221 -1.836981054363483 48.000000000000000
1.896738320618091 -4.524495880116232 -1.908144851396275 6.000000000000000
1.937787438710950 -4.591140137821143 -2.038104039852163 32.000000000000000
1.969439700222444 -4.634662283363987 -2.161391400545269 44.000000000000000
1.960021925152351 -4.581494885522632 -2.241319849296846 55.000000000000000
1.968751067747724 -4.570483870476551 -2.341942873546637 18.000000000000000
2.169156743028628 -5.002243647249896 -2.681434973614218 69.000000000000000
2.183346211537221 -4.999145234030681 -2.800530351493160 74.000000000000000
2.197385175095549 -4.997198888382879 -2.922390402087857 70.000000000000000
2.215475566841415 -5.002158491431145 -3.050864539656261 68.000000000000000
1.833226781442898 -4.712272095313241 -1.009013016532821 24.000000000000000
1.840822968193592 -4.701981137452939 -1.100439995096371 23.000000000000000
1.849179607307145 -4.693946456606881 -1.192165023152035 32.000000000000000
1.857322510264256 -4.684022327081892 -1.284635330459201 37.000000000000000
1.864642114626280 -4.672668427967597 -1.376929753704544 44.000000000000000
1.877528127168272 -4.673988956682464 -1.473166441547724 49.000000000000000
1.885474789853498 -4.662881517734399 -1.566634854839458 59.000000000000000
1.896885978306042 -4.660849241634901 -1.663823287509011 55.000000000000000
1.906712040110037 -4.653363394447813 -1.760182466482540 55.000000000000000
1.898608278522412 -4.602548102674511 -1.840299314593530 54.000000000000000
1.905669722683740 -4.588619587223867 -1.934739566916421 25.000000000000000
1.920615728623025 -4.593465481802212 -2.038555883574794 39.000000000000000
1.951972501576575 -4.637124699023289 -2.161817263044463 44.000000000000000
1.942591990412593 -4.583973707353996 -2.241678257259971 56.000000000000000
1.949791268389782 -4.569705815318780 -2.340548391115357 19.000000000000000
2.148513021156307 -5.002142931113296 -2.680127216128943 69.000000000000000
2.163961262065921 -5.002433777704611 -2.800948402944628 73.000000000000000
2.176428708497673 -4.997347669044375 -2.920878352743210 72.000000000000000
2.192928373415622 -4.999248883768822 -3.047306966356507 69.000000000000000
1.820023989500716 -4.721206073605414 -1.011595713807278 17.000000000000000
1.827520995115768 -4.710935386938705 -1.103104162126018 8.000000000000000
1.835771197882848 -4.702922163664336 -1.194910553781551 24.000000000000000
1.845228934249386 -4.696624919981200 -1.288451994146639 28.000000000000000
1.853869360595676 -4.688855110202724 -1.381951572729803 36.000000000000000
1.860939611557396 -4.675898743206115 -1.473910005875560 41.000000000000000
1.871623464911444 -4.671940723049540 -1.569706815269727 46.000000000000000
1.882901574720888 -4.669933853674927 -1.666977942929792 52.000000000000000
1.892610874016417 -4.662467669757864 -1.763418075221381 53.000000000000000
1.881695945850710 -4.604673136363431 -1.840820924104777 54.000000000000000
1.891498542995907 -4.597699511530643 -1.938114667277263 53.000000000000000
1.903448672484109 -4.595738681475130 -2.038981393444220 49.000000000000000
1.933095509567157 -4.636142662630662 -2.160635777410706 46.000000000000000
1.923755024382466 -4.583037175787673 -2.240366231559330 55.000000000000000
1.932267558223297 -4.572198573369111 -2.340830256366158 19.000000000000000
2.125085924488847 -4.995372560568239 -2.675250790984147 69.000000000000000
2.141776822334903 -4.999124895744259 -2.797677308064487 72.000000000000000
2.155497552061328 -4.997429160044939 -2.919333501570206 70.000000000000000
2.175994871364353 -5.009073908067442 -3.051517803211051 69.000000000000000
1.809580309185718 -4.737435443393015 -1.015730537244472 12.000000000000000
1.821188832089881 -4.738094432480524 -1.110021795627524 4.000000000000000
1.823726356120916 -4.715495027518683 -1.198559478472592 19.000000000000000
1.831666040615552 -4.705591191787682 -1.291261031482762 21.000000000000000
1.841602781135587 -4.701433238306326 -1.385900682683346 27.000000000000000
1.848580073502907 -4.688470579474608 -1.478005188505444 31.000000000000000
1.857730906848673 -4.680965865037441 -1.572758865208994 38.000000000000000
1.866059026438605 -4.671932082560414 -1.667595372321987 42.000000000000000
1.877059912816099 -4.668035330961762 -1.765309103979110 46.000000000000000
1.838048338185072 -4.540687798759583 -1.814912841072799 51.000000000000000
1.812600047816406 -4.448010298804482 -1.874572337463996 47.000000000000000
1.889095531333266 -4.604807074858684 -2.042417654846355 54.000000000000000
1.914246513107817 -4.635099277183803 -2.159424686740601 45.000000000000000
1.903546464270591 -4.578672707219640 -2.237379515979556 55.000000000000000
1.913351711952274 -4.571301480115564 -2.339377695940217 18.000000000000000
2.107303019226641 -5.001742472711643 -2.677414839323689 69.000000000000000
2.122419693279063 -5.002288356889687 -2.798033209257369 74.000000000000000
2.133207667265272 -4.994202607700426 -2.915863741939758 68.000000000000000
2.150738879855481 -4.999614873599467 -3.043989058186801 70.000000000000000
1.803215819064748 -4.764652169207204 -1.022212510363543 9.000000000000000
1.810530726605988 -4.754306507972164 -1.114366239738588 8.000000000000000
1.815795756266589 -4.738945414666074 -1.204963953128738 14.000000000000000
1.822245305791546 -4.725370385829158 -1.297027664411774 16.000000000000000
1.827877058282210 -4.710390183993513 -1.388772758352902 20.000000000000000
1.837552769776722 -4.704591662176129 -1.483210406674912 24.000000000000000
1.846590858033862 -4.697062788186213 -1.578178496514930 28.000000000000000
1.856205216648600 -4.691529816029490 -1.674486840495564 35.000000000000000
1.864283709883196 -4.680571931952787 -1.769828420745894 36.000000000000000
1.789267984672460 -4.462569538838133 -1.783361205718057 56.000000000000000
1.796095593607862 -4.449919110921731 -1.874930538680295 31.000000000000000
1.873307691449865 -4.610412260928925 -2.044313351086622 55.000000000000000
1.899597636682270 -4.644194229370132 -2.162934298261576 43.000000000000000
1.887553457253255 -4.584351300390951 -2.239300136340614 55.000000000000000
1.894464067010710 -4.570342937638295 -2.337895491929653 19.000000000000000
2.088118287389288 -5.004753016771026 -2.677781406125554 68.000000000000000
2.101687826049688 -5.002115676602844 -2.796526960306052 74.000000000000000
2.116457299224581 -5.003880914017344 -2.919932927122117 69.000000000000000
2.131050183349338 -5.002907613905945 -3.044234636615365 70.000000000000000
1.796697813002485 -4.791876083196295 -1.028688763447634 4.000000000000000
1.803924334927022 -4.781468191178194 -1.121268447165629 7.000000000000000
1.804971145547047 -4.755118409309472 -1.209509023194420 11.000000000000000
1.814097734467699 -4.748759831642595 -1.303776618588073 11.000000000000000
1.818261999915117 -4.730112636481498 -1.394809573333482 14.000000000000000
1.825053534168412 -4.717115987570360 -1.487272791799636 16.000000000000000
1.833978072267850 -4.709584620922838 -1.582388425389859 21.000000000000000
1.840700099296514 -4.696980623339249 -1.676321021888543 26.000000000000000
1.852827485214537 -4.696591931832886 -1.775657212379634 20.000000000000000
1.832374240376732 -4.614225309776833 -1.843622909875738 38.000000000000000
1.798955589299827 -4.500204219350662 -1.895662620791317 51.000000000000000
1.858882607162097 -4.619405583444989 -2.047706890262252 50.000000000000000
1.879391197250378 -4.639636992273219 -2.160083634405785 39.000000000000000
1.868789656608556 -4.583235531329934 -2.237901088901764 56.000000000000000
1.876977928073482 -4.572668124129626 -2.338094113609166 19.000000000000000
2.066197997202297 -5.001077529130532 -2.674573869606684 65.000000000000000
2.080982249748845 -5.001876526553143 -2.794988388052250 74.000000000000000
2.094219330095575 -5.000520405788444 -2.916397961312449 70.000000000000000
2.111363799337283 -5.006141231883684 -3.044450175858053 70.000000000000000
2.516413645804118 -6.774686042016887 -1.455223486380148 47.000000000000000
1.838194720971587 -4.918422597043389 -1.153921715145859 6.000000000000000
1.814603122677854 -4.825906772304375 -1.227941094757625 7.000000000000000
1.807188706726497 -4.775771144400929 -1.311511705852317 7.000000000000000
1.805792597692446 -4.742617666485219 -1.398708963173351 10.000000000000000
1.816609639238740 -4.740363240308718 -1.494707251790367 11.000000000000000
1.824048120460752 -4.729202283578299 -1.588973950460302 15.000000000000000
1.830670598292950 -4.716541559571494 -1.683182960162271 19.000000000000000
1.842656192126177 -4.716107320425447 -1.782799455869497 10.000000000000000
1.803121558948787 -4.584746871600254 -1.831497957139395 38.000000000000000
1.806976764324910 -4.564406395090887 -1.922241720919429 39.000000000000000
1.849892969157402 -4.642107452882644 -2.057170483589879 36.000000000000000
1.863338246878684 -4.645234800217235 -2.161959349425842 38.000000000000000
1.851418981743236 -4.585437982089966 -2.238122040114781 57.000000000000000
1.856774344708441 -4.568242063103910 -2.334842496983613 19.000000000000000
2.045685497499250 -5.000646209587685 -2.673105372382010 63.000000000000000
2.061656904573308 -5.004857223722123 -2.795252936315727 72.000000000000000
2.073380243182768 -5.000338161353233 -2.914724110322268 70.000000000000000
2.088991414691102 -5.002877052600804 -3.040722293453839 72.000000000000000
2.013378691062801 -5.471914986665368 -1.176076793870702 0.000000000000000
1.868910831476837 -5.048293026836609 -1.184927769605146 25.000000000000000
1.864544130386383 -5.006181198266287 -1.274240556553906 68.000000000000000
1.832754560926948 -4.889847869317527 -1.343153950346833 11.000000000000000
1.806865489576336 -4.791174586251579 -1.413232884784064 5.000000000000000
1.808032087759420 -4.763608131306840 -1.502132331380849 7.000000000000000
1.814007363588716 -4.748809340107026 -1.595547284212600 9.000000000000000
1.821891587568597 -4.739634028827569 -1.691296637472720 13.000000000000000
1.835096052519108 -4.742648177689469 -1.792588837599842 12.000000000000000
1.790412052629134 -4.597062713082013 -1.836065111533729 25.000000000000000
1.794192103800353 -4.576696384956858 -1.926947039901018 32.000000000000000
1.843482553800457 -4.671686306794023 -2.069672226403631 27.000000000000000
1.845911765485420 -4.647375879616798 -2.162223667338440 38.000000000000000
1.834053723964554 -4.587587849147658 -2.238316479849204 58.000000000000000
1.839322213318041 -4.570453242565375 -2.334985000619592 20.000000000000000
2.022508718231273 -4.993504454900138 -2.668054674022059 59.000000000000000
2.039651004044875 -5.001199352557165 -2.791814610191826 72.000000000000000
2.055242113069387 -5.006604029841635 -2.916813320224586 70.000000000000000
2.070666379434514 -5.009207810162333 -3.042833196165747 71.000000000000000
1.989690655562762 -5.459299025571585 -1.174039711661987 0.000000000000000
1.850417705418433 -5.046360427554995 -1.184996519269548 25.000000000000000
1.851423816142806 -5.018886672384709 -1.277891397098496 76.000000000000000
1.861653704601873 -5.015013821794652 -1.377845365543870 75.000000000000000
1.862951217838300 -4.987867327540871 -1.471451080670057 49.000000000000000
1.822267912467707 -4.847897725118229 -1.528799300753404 6.000000000000000
1.811956945590286 -4.789820343474044 -1.609303297880585 6.000000000000000
1.814327943272186 -4.766269601148919 -1.700665811800025 8.000000000000000
1.817930137581463 -4.744537451222317 -1.793052812613695 32.000000000000000
1.801915477081377 -4.672301989414030 -1.865752055652705 22.000000000000000
1.808292118122020 -4.658383961791100 -1.960857587910258 24.000000000000000
1.834197742340329 -4.694389184559760 -2.079118280878217 20.000000000000000
1.825803833913321 -4.642631839202789 -2.159283669573765 36.000000000000000
1.816694081247377 -4.589685176123812 -2.238484442481136 60.000000000000000
1.823213252892135 -4.575968905406428 -2.336815356683531 20.000000000000000
2.003407975147705 -4.996260145609207 -2.668296280871305 57.000000000000000
2.021685962985648 -5.007350217055165 -2.793855699713998 72.000000000000000
2.033107495899929 -5.003035254129444 -2.913178359807969 71.000000000000000
2.047038057229166 -5.002577819657227 -3.037079246665947 71.000000000000000
1.974084888706841 -5.468722879503805 -1.176725507232216 0.000000000000000
1.833286233176671 -5.048039700862597 -1.185899138105751 25.000000000000000
1.834234921596779 -5.020601851121707 -1.278731912837144 75.000000000000000
1.844331484344519 -5.016793127243179 -1.378632690132195 75.000000000000000
1.853594627760627 -5.011380103190145 -1.478577836059660 76.000000000000000
1.864075368903534 -5.007812805698099 -1.579309318067013 73.000000000000000
1.863195549877243 -4.973792462074519 -1.671081951050972 37.000000000000000
1.828017868081438 -4.849714199681467 -1.730294441817041 7.000000000000000
1.806121584515242 -4.760479976759654 -1.798820506003466 43.000000000000000
1.788865447708046 -4.684635931118699 -1.870307622523080 17.000000000000000
1.796478350478188 -4.674175061452758 -1.967016276281483 20.000000000000000
1.827444851594491 -4.723983973966322 -2.091607211713073 15.000000000000000
1.811075594475405 -4.651499993734765 -2.162672651924245 36.000000000000000
1.799340251278101 -4.591730007237945 -2.238625962674667 61.000000000000000
1.803108904792434 -4.571355972647969 -2.333474415714468 20.000000000000000
1.981667131090104 -4.992297646165134 -2.664953206653201 55.000000000000000
2.002382689956896 -5.010152883333508 -2.794030717187253 71.000000000000000
2.014964233709172 -5.009188325876923 -2.915209675610171 71.000000000000000
2.027410410030061 -5.005559264347246 -3.037169649593053 72.000000000000000
1.957117895831281 -5.474415938287950 -1.178593940437418 1.000000000000000
1.814838554697832 -5.045992238562649 -1.185912032466063 24.000000000000000
1.815728246450533 -5.018607388070898 -1.278614413903536 75.000000000000000
1.827014843354776 -5.018520270410646 -1.379393728287459 73.000000000000000
1.838801117234491 -5.020408892642563 -1.481421277669742 77.000000000000000
1.850475352276252 -5.020466089726741 -1.583370207033709 78.000000000000000
1.860174668361806 -5.015031674045566 -1.684895104006408 79.000000000000000
1.870357093112161 -5.011481718767285 -1.787852154599571 73.000000000000000
1.788920609054940 -4.762281344780875 -1.799237462829893 36.000000000000000
1.778401334864451 -4.703952408325985 -1.877643318726034 13.000000000000000
1.785900201797258 -4.693425215354487 -1.974623056964340 15.000000000000000
1.820508769846445 -4.753589688191250 -2.104090514981231 15.000000000000000
1.789706772778463 -4.643210527282746 -2.158082868381466 39.000000000000000
1.779358296298769 -4.586931962492259 -2.235431775934943 61.000000000000000
1.786999755300556 -4.576770194096627 -2.335252976656807 20.000000000000000
1.961287920525006 -4.991596308842820 -2.663355023715284 55.000000000000000
1.981776898409028 -5.009595348307824 -2.792335719634174 72.000000000000000
1.994197581388469 -5.008752181975568 -2.913410644921065 69.000000000000000
2.006489212864565 -5.005246442547444 -3.035268206933995 74.000000000000000
1.933591173556249 -5.461585612591365 -1.176457296241722 2.000000000000000
1.796419681640186 -5.043885592839866 -1.185896476830167 24.000000000000000
1.797250512968496 -5.016553522347139 -1.278468361384431 76.000000000000000
1.808390694460630 -5.016552192292613 -1.379126969568926 73.000000000000000
1.820024464451008 -5.018530200670087 -1.481035304698058 75.000000000000000
1.832866422072659 -5.022281425337403 -1.584003145056685 78.000000000000000
1.842435788122360 -5.016913111262261 -1.685475956722838 77.000000000000000
1.853796299806135 -5.016989960635929 -1.789651087140558 83.000000000000000
1.762525505855096 -4.739291766319754 -1.790283048823291 32.000000000000000
1.766512269148577 -4.719747406387794 -1.883565454886885 11.000000000000000
1.776522267996046 -4.716145873781442 -1.983681609666349 12.000000000000000
1.809458627879195 -4.772837364484256 -2.111979868790544 48.000000000000000
1.772339134525797 -4.645129258558335 -2.158237281559564 39.000000000000000
1.762040388667750 -4.588864044642082 -2.235517937412878 61.000000000000000
1.768268796513054 -4.575401243823612 -2.333570851998202 21.000000000000000
1.937041913259397 -4.980814823945004 -2.656384067834710 50.000000000000000
1.963787941742533 -5.015584563287553 -2.794292827958128 66.000000000000000
1.974748364981805 -5.011523187410890 -2.913482493004665 70.000000000000000
1.988165744055165 -5.011345752264610 -3.037261056515397 73.000000000000000
1.915347920229477 -5.463466482089832 -1.177472013915227 3.000000000000000
1.778029844614524 -5.041719903513278 -1.185852556677309 25.000000000000000
1.781402540275445 -5.021771447613934 -1.280162691781654 76.000000000000000
1.792399082214271 -5.021818244620113 -1.380837082380825 76.000000000000000
1.802579455757845 -5.020218636893074 -1.481690974350315 76.000000000000000
1.813960164548818 -5.020437172629499 -1.583471855484001 79.000000000000000
1.815579124163950 -4.993647505766576 -1.677599783038645 69.000000000000000
1.834611650263447 -5.015328166948998 -1.788884420672736 81.000000000000000
1.639912964687091 -4.454381615295462 -1.682398850917636 9.000000000000000
1.759741597579824 -4.749573794774202 -1.895078435775521 7.000000000000000
1.765708615476388 -4.735374248524319 -1.991262868544784 9.000000000000000
1.793102501640766 -4.778231129296620 -2.113732881333488 44.000000000000000
1.756274000204868 -4.650427621572983 -2.159959391450549 38.000000000000000
1.744728910702853 -4.590743832998594 -2.235577797336295 63.000000000000000
1.750858137256928 -4.577344984227090 -2.333579370531952 21.000000000000000
1.914181868083339 -4.973287145976185 -2.651155736573963 49.000000000000000
1.941931599920685 -5.011593320880396 -2.790693470687260 40.000000000000000
1.955303266235532 -5.014235939045195 -2.913524855675032 67.000000000000000
1.968549164474456 -5.014150871636763 -3.037262126243176 72.000000000000000
1.895824227836479 -5.461590026207306 -1.177660767276003 3.000000000000000
1.760956522410469 -5.043181847573297 -1.186647790410962 24.000000000000000
1.764248936992394 -5.023276054981308 -1.280897874060472 78.000000000000000
1.772520265142574 -5.016087726757890 -1.379511445087634 73.000000000000000
1.785140548110950 -5.021854628838106 -1.482320245529764 76.000000000000000
1.797666175063115 -5.025753283699125 -1.585189027977863 82.000000000000000
1.661022433770918 -4.614999000499907 -1.550330513114736 7.000000000000000
1.747021672813706 -4.824614165559518 -1.720685162428514 38.000000000000000
1.659910554496766 -4.554861184601488 -1.720079224943133 3.000000000000000
1.666374314045622 -4.543780620496893 -1.812588844246222 3.000000000000000
1.759936667847331 -4.768552632790174 -2.004700654331298 6.000000000000000
1.775442333534898 -4.780115616897009 -2.113929802379793 42.000000000000000
1.738907411312552 -4.652245440271467 -2.160062355200800 38.000000000000000
1.727424058680303 -4.592571374242501 -2.235611391539419 62.000000000000000
1.732175646018939 -4.575859171656764 -2.331840554691412 22.000000000000000
1.891397967066462 -4.965679213149170 -2.645891094182656 47.000000000000000
1.923939599952126 -5.017470919884550 -2.792593415420323 46.000000000000000
1.933330308379529 -5.010328160725353 -2.909726729530386 52.000000000000000
1.946413817421247 -5.010402927715787 -3.033301790671136 71.000000000000000
1.878876213874280 -5.467064604677432 -1.179418831976431 6.000000000000000
1.742613903033353 -5.040902222157602 -1.186548596392671 25.000000000000000
1.747101758203590 -5.024729107741518 -1.281607131806413 76.000000000000000
1.756529578574175 -5.021253621142375 -1.381170486130740 75.000000000000000
1.766428843964716 -5.019803317060067 -1.481850126444044 77.000000000000000
1.777515836819468 -5.020181412885085 -1.583462039828899 80.000000000000000
1.633110526871086 -4.583959336787554 -1.539832070617136 21.000000000000000
1.647915917356263 -4.597738460320036 -1.639596956516389 8.000000000000000
1.657512644512311 -4.595228777587702 -1.735044758763196 6.000000000000000
1.612748007798572 -4.443104381299469 -1.772052854804052 13.000000000000000
1.765446871061525 -4.833200197522995 -2.031353537945269 7.000000000000000
1.756513891846589 -4.778479254887461 -2.112566912161628 42.000000000000000
1.721547563739278 -4.654010901335445 -2.160139003868543 38.000000000000000
1.711395609889565 -4.597757514990541 -2.237278458261001 64.000000000000000
1.713523670173157 -4.574313172435279 -2.330072881315393 23.000000000000000
1.864902649938501 -4.947941381953072 -2.635237785667298 43.000000000000000
1.904669687643181 -5.019980647095015 -2.792620934492314 72.000000000000000
1.915172085670654 -5.016201835921452 -2.911614504629031 63.000000000000000
1.926829477752745 -5.013083003318647 -3.033241000234037 73.000000000000000
1.856861231625448 -5.457651448034581 -1.177948656883000 7.000000000000000
1.724300994994405 -5.038563944918004 -1.186421279155774 25.000000000000000
1.728695680409344 -5.022453892066493 -1.281352467746565 77.000000000000000
1.739255415853691 -5.022716890260847 -1.381799420578838 73.000000000000000
1.749014419814252 -5.021330815773830 -1.482425511734718 76.000000000000000
1.758686797307891 -5.018159704163690 -1.582844885793519 80.000000000000000
1.615562919145996 -4.581572058980006 -1.538950916258925 40.000000000000000
1.625117776752001 -4.581161074870352 -1.633505254897379 26.000000000000000
1.634588431563847 -4.578838106460808 -1.728572316745830 12.000000000000000
1.609193733206029 -4.479612712517072 -1.786231081037914 9.000000000000000
1.678215862187961 -4.642539855424543 -1.950712487963149 19.000000000000000
1.738878624005082 -4.780253666470876 -2.112709164833139 41.000000000000000
1.702934154709039 -4.652280469486359 -2.158591600549115 36.000000000000000
1.692835016066286 -4.596069905077061 -2.235599927541776 64.000000000000000
1.697411551792163 -4.579476499868194 -2.331723184899413 23.000000000000000
1.846059899623279 -4.950223939952978 -2.635253648383643 40.000000000000000
1.882910806325985 -5.015789281900047 -2.788925379962224 73.000000000000000
1.893267943948739 -5.012158617516604 -2.907751448330850 70.000000000000000
1.907249728471779 -5.015704527155640 -3.033150601192554 73.000000000000000
1.839924002423302 -5.463017224993264 -1.179651840473924 8.000000000000000
1.706018026037682 -5.036167158553517 -1.186265925474340 25.000000000000000
1.711573546195951 -5.023800294149615 -1.282008814503416 78.000000000000000
1.720732921801222 -5.020466398401824 -1.381394713450013 73.000000000000000
1.730350999968682 -5.019163686162422 -1.481899223434521 78.000000000000000
1.692150868024552 -4.878452606018702 -1.538788357985948 48.000000000000000
1.599303203732338 -4.582728089661998 -1.539251934789877 41.000000000000000
1.607468937713211 -4.578805333910768 -1.632478278090542 35.000000000000000
1.614300940171969 -4.569466316839164 -1.724745214178670 23.000000000000000
1.624223937490051 -4.569070814347066 -1.821507204039049 19.000000000000000
1.638651416830104 -4.580996662028197 -1.924347971809467 19.000000000000000
1.722501084798731 -4.785450319521815 -2.114360246565315 39.000000000000000
1.684351691553148 -4.650490219212048 -2.157015553994712 37.000000000000000
1.674305453533608 -4.594322596198688 -2.233892819793680 65.000000000000000
1.677554833445488 -4.574429668055491 -2.328175893870009 24.000000000000000
1.827222765300450 -4.952450060613242 -2.635241044591495 36.000000000000000
1.863674856437689 -5.018176159490965 -2.788892264286748 74.000000000000000
1.873877236505013 -5.014627416213055 -2.907672605207247 72.000000000000000
1.885223262003261 -5.011750309754255 -3.029091627052558 73.000000000000000
1.818012347021541 -5.453466234433765 -1.178117623995173 10.000000000000000
1.689006226995893 -5.037413265314212 -1.186954742020737 26.000000000000000
1.694458426793655 -5.025095313572445 -1.282639360607738 79.000000000000000
1.703484151212350 -5.021822332194950 -1.381970408668873 73.000000000000000
1.712961891027537 -5.020583007182554 -1.482420934781056 77.000000000000000
1.665117557130261 -4.850792731540680 -1.530064507322703 35.000000000000000
1.584296235325920 -4.587438679288995 -1.540738719736528 43.000000000000000
1.591095886693083 -4.579973597918415 -1.632700744692241 42.000000000000000
1.551815550889067 -4.439085722649457 -1.675246382771384 16.000000000000000
1.597671155026075 -4.542111045482613 -1.810361878438256 12.000000000000000
1.620617952741055 -4.578870188035085 -1.922945982698665 33.000000000000000
1.703628746896275 -4.783643444156577 -2.112913744554289 39.000000000000000
1.668273755305714 -4.655542511299016 -2.158611267191434 38.000000000000000
1.655807154131015 -4.592515736675098 -2.232157224910497 63.000000000000000
1.661445272601918 -4.579492174988254 -2.329774887273466 24.000000000000000
1.803484017946296 -4.941174415604788 -2.628048856392316 33.000000000000000
1.844444313255864 -5.020505525526346 -2.788830120939161 75.000000000000000
1.854491767965561 -5.017038265477819 -2.907564500622347 72.000000000000000
1.865677186638022 -5.014247364523839 -3.028939748926045 73.000000000000000
1.799859026047785 -5.455002498344550 -1.178961928736053 14.000000000000000
1.668313399615403 -5.027493773775420 -1.184998208991509 30.000000000000000
1.676119882963894 -5.022651295229426 -1.282302657122441 78.000000000000000
1.686242542057247 -5.023126533319288 -1.382520133531538 74.000000000000000
1.696812139123100 -5.025599854047552 -1.483994161552430 77.000000000000000
1.644443577783265 -4.841168362604508 -1.527020040603448 35.000000000000000
1.568041322388506 -4.588500259437305 -1.540991817118408 43.000000000000000
1.574731166489155 -4.581092469932447 -1.632898507322466 45.000000000000000
1.544405634760616 -4.465051040021169 -1.684751152344325 20.000000000000000
1.560242385127233 -4.483221083100013 -1.786492770682275 7.000000000000000
1.602616321730099 -4.576685694489963 -1.921516322901063 33.000000000000000
1.683560364384788 -4.778293464100236 -2.109900488271788 39.000000000000000
1.650954762751749 -4.657095311644794 -2.158581856127629 37.000000000000000
1.641006036267125 -4.600927049015076 -2.235386650800320 65.000000000000000
1.644100611192818 -4.581113987538066 -2.329623105452571 25.000000000000000
1.778631973311912 -4.926447628765909 -2.619029985421951 32.000000000000000
1.824008230103245 -5.019444459144737 -2.786888461721571 75.000000000000000
1.835111754045542 -5.019391208377541 -2.907427169754410 74.000000000000000
1.847338291066702 -5.019952130672665 -3.030730249315126 72.000000000000000
1.781711847045415 -5.456484625449150 -1.179778973509476 15.000000000000000
1.652568830293183 -5.032335609651942 -1.186506878603087 25.000000000000000
1.659031021078708 -5.023840110132915 -1.282880594177899 79.000000000000000
1.667788252290185 -5.020706258371256 -1.382032927492886 74.000000000000000
1.679425693400829 -5.026918539512163 -1.484464663592245 79.000000000000000
1.626289920470128 -4.838736629169525 -1.526234886284022 34.000000000000000
1.548132201602853 -4.578679986791878 -1.537582604256381 48.000000000000000
1.558374962154882 -4.582162002128750 -1.633071603934195 39.000000000000000
1.527080727172911 -4.462504674800126 -1.683490564299092 27.000000000000000
1.576844038809449 -4.579887142861125 -1.824602048646901 33.000000000000000
1.587080922287089 -4.581470126708723 -1.923008482609458 37.000000000000000
1.665977425437333 -4.779848691218920 -2.109934052757567 37.000000000000000
1.631217898755966 -4.651679036567721 -2.155321393095370 38.000000000000000
1.621325156468523 -4.595583041816885 -2.231932177008831 64.000000000000000
1.627970475652300 -4.586083239075456 -2.331173235663879 25.000000000000000
1.756311722810519 -4.918365323546135 -2.613551544633713 28.000000000000000
1.803601896607446 -5.018318601905611 -2.784915547789940 77.000000000000000
1.814542846085065 -5.018382547644664 -2.905347976614327 71.000000000000000
1.826601057206748 -5.019066436368245 -3.028547619756532 72.000000000000000
1.762366386555983 -5.454184578194410 -1.179762394096319 16.000000000000000
1.633190069540631 -5.025997801067251 -1.185365893056244 29.000000000000000
1.641949760945393 -5.024977719754924 -1.283432857027576 80.000000000000000
1.651781580753838 -5.025579931341793 -1.383541818369424 76.000000000000000
1.660837968214288 -5.024528280207372 -1.483829102266897 81.000000000000000
1.608167845591157 -4.836246868591887 -1.525422042072902 34.000000000000000
1.531930075673555 -4.579632786310638 -1.537783400156039 50.000000000000000
1.539610487488044 -4.575998576008521 -1.630660166676310 43.000000000000000
1.509788581511009 -4.459902457330815 -1.682203468737815 9.000000000000000
1.559024718109210 -4.577497275578640 -1.823234658620394 46.000000000000000
1.569119781585757 -4.579177318574025 -1.921526007134298 40.000000000000000
1.647198908565425 -4.777861111016501 -2.108401043316247 36.000000000000000
1.615139319284129 -4.656582578021419 -2.156841133085558 37.000000000000000
1.606492044617892 -4.603905289133890 -2.235114180364039 65.000000000000000
1.609434666970465 -4.584201129416686 -2.329241090528940 26.000000000000000
1.725732988078585 -4.886598403551630 -2.595499508045423 22.000000000000000
1.785600030089479 -5.023808695036624 -2.786617075993553 76.000000000000000
1.794003752065574 -5.017308773021355 -2.903237367790926 72.000000000000000
1.805893424246977 -5.018115144946760 -3.026333314808117 72.000000000000000
1.744243667737630 -5.455555079482832 -1.180523952440715 19.000000000000000
1.618643899174433 -5.034457034103671 -1.187701266914140 23.000000000000000
1.626071934768500 -5.029762528416852 -1.284904265185520 79.000000000000000
1.633366009062861 -5.023049336958387 -1.383000664829910 76.000000000000000
1.642281445327318 -5.022078896537271 -1.483165267692247 79.000000000000000
1.592472272875260 -4.840978897716129 -1.526877654558689 33.000000000000000
1.519328710457813 -4.591391129447745 -1.541604283208620 41.000000000000000
1.524492221020721 -4.580557844246257 -1.632062898163362 48.000000000000000
1.517644092437784 -4.532246251968760 -1.709174163215619 26.000000000000000
1.541237947298475 -4.575050206184214 -1.821840059033990 52.000000000000000
1.549997900133842 -4.573306242613732 -1.918539163230957 46.000000000000000
1.629643390541598 -4.779307240112630 -2.108380592841596 43.000000000000000
1.599044951357480 -4.661441432168568 -2.158337095543791 39.000000000000000
1.585689213467261 -4.595006194545702 -2.229935378072694 66.000000000000000
1.590930925434197 -4.582259676029635 -2.327280613061065 26.000000000000000
1.694221719506943 -4.851327322078922 -2.575604779309413 14.000000000000000
1.766405233550711 -5.025904840060252 -2.786438064903575 78.000000000000000
1.774665345640501 -5.019481032584416 -2.903010346951585 72.000000000000000
1.785215643967368 -5.017098400478436 -3.024087423414028 71.000000000000000
1.722583295807215 -5.445666537356347 -1.178832792606008 22.000000000000000
1.600510395147408 -5.031722643575058 -1.187382715538303 22.000000000000000
1.608994764872345 -5.030801362403960 -1.285406355456455 78.000000000000000
1.616166707302858 -5.024143596104161 -1.383445806647803 77.000000000000000
1.624941576522561 -5.023234456633134 -1.483555346652763 80.000000000000000
1.574390410578499 -4.838380581781315 -1.526011854777011 31.000000000000000
1.501923742226348 -4.588635320106216 -1.540543725965126 37.000000000000000
1.510544030542726 -4.588674049990792 -1.634725418757789 41.000000000000000
1.509640361230919 -4.558207966746349 -1.718640774458903 53.000000000000000
1.519935460521467 -4.561895747237813 -1.816178236622979 32.000000000000000
1.532113897748645 -4.570894754052788 -1.917000822038987 48.000000000000000
1.601482260189276 -4.749225747016726 -2.094453001184910 12.000000000000000
1.581758050509540 -4.662786216072042 -2.158203459560018 38.000000000000000
1.570836774851380 -4.603235734668536 -2.233068874406956 66.000000000000000
1.572459480368878 -4.580259030561978 -2.325291894699136 27.000000000000000
1.662981461969013 -4.815921969409505 -2.555658083880996 12.000000000000000
1.746053662980538 -5.024596232007338 -2.784375210220401 77.000000000000000
1.755333277031157 -5.021595631066558 -2.902754279059857 72.000000000000000
1.765722034069982 -5.019296934054159 -3.023786365832464 72.000000000000000
1.705678949896238 -5.450657327863961 -1.180346565244190 22.000000000000000
1.584750943203541 -5.036375418877981 -1.188793963703182 21.000000000000000
1.590753500278763 -5.028083815015120 -1.284935971375173 78.000000000000000
1.598975541428767 -5.025186402496467 -1.383865180600045 77.000000000000000
1.608783231764220 -5.028005549275641 -1.485002595838684 80.000000000000000
1.557514490461171 -4.839371474299714 -1.526268765892067 30.000000000000000
1.484551788956726 -4.585823705011715 -1.539456700416744 40.000000000000000
1.493038993420545 -4.585947795802854 -1.633518098551930 39.000000000000000
1.487413753632841 -4.541226903194816 -1.711909617708680 26.000000000000000
1.470636278256899 -4.463375778983478 -1.776536403414893 8.000000000000000
1.517770780352435 -4.579009199270391 -1.919872550797446 39.000000000000000
1.578214216777639 -4.733030967134847 -2.086653241461914 18.000000000000000
1.562149829210683 -4.657133363337020 -2.154830097058754 38.000000000000000
1.551296868564361 -4.597652085047108 -2.229500690837387 69.000000000000000
1.555179412329024 -4.581613364288106 -2.325007521631827 27.000000000000000
1.640097790697929 -4.804065507696707 -2.548221700462215 12.000000000000000
1.728035311752926 -5.029925415159216 -2.785993589237124 76.000000000000000
1.734861123679874 -5.020334482313476 -2.900552114208341 73.000000000000000
1.745092721119522 -5.018153264343189 -3.021478646334847 69.000000000000000
1.686442043078581 -5.448117444652766 -1.180214194376234 23.000000000000000
1.567816928689828 -5.037258598212914 -1.189302271436348 23.000000000000000
1.574865103912077 -5.032725819141787 -1.286333834517169 78.000000000000000
1.582954078004250 -5.029868099441011 -1.385275167306262 77.000000000000000
1.590286290738718 -5.025390025312423 -1.484257594549848 80.000000000000000
1.540647353671127 -4.840311794321770 -1.526500398092224 31.000000000000000
1.469536444424454 -4.590213692945339 -1.540779313076811 38.000000000000000
1.477889082834855 -4.590377383463710 -1.634852695573032 39.000000000000000
1.443272319893185 -4.456102293532465 -1.679491994683170 12.000000000000000
1.474167901879421 -4.524681641246420 -1.800507995660121 13.000000000000000
1.501074308370667 -4.580025034684135 -1.919763163105314 37.000000000000000
1.559695908261883 -4.730765953841138 -2.084994523668751 30.000000000000000
1.548362878995290 -4.668796606227367 -2.159466286986030 38.000000000000000
1.536413818895865 -4.605792510602485 -2.232586823929559 69.000000000000000
1.536761229728657 -4.579498309656460 -2.322963657627148 28.000000000000000
1.613889109480411 -4.781966327745426 -2.535362692517472 11.000000000000000
1.707721370920490 -5.028495372874503 -2.783871046632937 75.000000000000000
1.715554383075063 -5.022330383756599 -2.900237003264946 73.000000000000000
1.726754149604641 -5.023519832926132 -3.023096524264643 68.000000000000000
1.669529057011066 -5.453007477468640 -1.181676004015837 19.000000000000000
1.549743516529423 -5.034362013909771 -1.188904599148884 22.000000000000000
1.556664163420461 -5.029899441969971 -1.285810361597946 77.000000000000000
1.564618383416788 -5.027117862515361 -1.384626776663380 76.000000000000000
1.572971259652872 -5.026390136824168 -1.484569839631258 81.000000000000000
1.526089247762216 -4.848509069329354 -1.529011253227248 32.000000000000000
1.453357214265737 -4.590929868280704 -1.540860717998177 38.000000000000000
1.459277854434966 -4.583936652360103 -1.632309073277891 40.000000000000000
1.461719015732263 -4.564381514263665 -1.719960148170541 30.000000000000000
1.478449601664373 -4.589617195163405 -1.825907110780517 32.000000000000000
1.485532579842907 -4.584525441643204 -1.921109947179355 37.000000000000000
1.541210383385226 -4.728441977323585 -2.083307711604263 49.000000000000000
1.529949167541744 -4.666509531699820 -2.157646944078907 37.000000000000000
1.518077708219754 -4.603542528778308 -2.230634944928390 70.000000000000000
1.519510825708728 -4.580745508625086 -2.322626408995875 28.000000000000000
1.590118776370821 -4.766544255529295 -2.526055054252309 10.000000000000000
1.687438606938098 -5.027001251735262 -2.781717700067159 75.000000000000000
1.694009424689484 -5.017618541967847 -2.896054598305021 74.000000000000000
1.706162243624566 -5.022253169067532 -3.020728306918898 71.000000000000000
1.649195323715966 -5.446604910803816 -1.180675116126843 18.000000000000000
1.532838491853011 -5.035140690743088 -1.189361333790957 21.000000000000000
1.540769614914685 -5.034446338471427 -1.287159298147392 81.000000000000000
1.547452773530771 -5.028006620326722 -1.384969075337992 78.000000000000000
1.554526879352770 -5.023660892628637 -1.483770001463626 81.000000000000000
1.506940183355542 -4.842040930946906 -1.526887981098542 30.000000000000000
1.439463670582944 -4.598868382410063 -1.543358008480510 17.000000000000000
1.446409682480241 -4.595497337267249 -1.636168467364236 24.000000000000000
1.452187688610991 -4.586683044835065 -1.728014341164219 40.000000000000000
1.460745070142387 -4.586910431819602 -1.824384973222270 31.000000000000000
1.468843066665027 -4.585444482059718 -1.920951573428690 42.000000000000000
1.526151831624531 -4.736592755716842 -2.086232406353572 51.000000000000000
1.512697456346252 -4.667647136553433 -2.157409700123766 37.000000000000000
1.500900779666383 -4.604688476536530 -2.230328425064017 69.000000000000000
1.502269540905326 -4.581940996507771 -2.322263320769091 29.000000000000000
1.558644777895695 -4.727278387116895 -2.504126495813654 8.000000000000000
1.668302440369436 -5.028804701252465 -2.781392860442138 75.000000000000000
1.675851514538666 -5.022821198788142 -2.897599852675124 74.000000000000000
1.685601404227797 -5.020921684088352 -3.018328899957171 71.000000000000000
1.631162698886639 -5.447639139645960 -1.181270525306662 19.000000000000000
1.515942414579185 -5.035868898615563 -1.189792852405960 20.000000000000000
1.522609800473651 -5.031511471262080 -1.286582958871944 81.000000000000000
1.532548155367987 -5.036244934537354 -1.387324443244991 78.000000000000000
1.538367383455214 -5.028235275854026 -1.485116764493064 80.000000000000000
1.488974221411382 -4.839169364801444 -1.525889781976257 28.000000000000000
1.427784577300587 -4.614049519467986 -1.548277182134977 14.000000000000000
1.434605082151109 -4.610645627262852 -1.641296791585284 18.000000000000000
1.439149798512649 -4.598199133883773 -1.731996703978253 16.000000000000000
1.447566389479312 -4.598416879532035 -1.828510254301212 18.000000000000000
1.453284660440562 -4.589855011969387 -1.922251457231249 39.000000000000000
1.508815789601410 -4.737676136756583 -2.086040204851454 35.000000000000000
1.495455024202206 -4.668733081847755 -2.157146652652235 38.000000000000000
1.482619300713269 -4.602325164319430 -2.228322034855966 69.000000000000000
1.486148291333751 -4.586512715029468 -2.323611062772510 29.000000000000000
1.525254857410891 -4.681082587805891 -2.478549460084462 6.000000000000000
1.649173841912155 -5.030551204216812 -2.781039413763402 74.000000000000000
1.656578427281117 -5.024641371332457 -2.897197094393321 74.000000000000000
1.666165881453978 -5.022823506629068 -3.017879930801282 71.000000000000000
1.553834452426782 -4.620384470155320 -3.007927831979867 25.000000000000000
1.612026329670529 -5.444864739803940 -1.181024588096595 22.000000000000000
1.501281241288690 -5.044024859786695 -1.191966378891831 20.000000000000000
1.506709813680967 -5.035963341463593 -1.287883054004637 78.000000000000000
1.513148445244166 -5.029630456315328 -1.385576867431190 77.000000000000000
1.521078922330771 -5.029080409768662 -1.485351522072174 80.000000000000000
1.473270402961914 -4.843568425455357 -1.527174917188060 28.000000000000000
1.416020369840075 -4.629208809998533 -1.553179997820582 11.000000000000000
1.421601832408721 -4.622152242627766 -1.645120322670433 17.000000000000000
1.426050173444898 -4.609686133433880 -1.735960441382574 15.000000000000000
1.432103711820387 -4.602752297270504 -1.829777650033296 15.000000000000000
1.439930845811956 -4.601312121961642 -1.926496798743283 25.000000000000000
1.498132716531345 -4.759815497128836 -2.095113074979623 23.000000000000000
1.477117263361868 -4.666277312639468 -2.155245840229025 38.000000000000000
1.466575204150280 -4.606826032687016 -2.229638328323401 69.000000000000000
1.467815097937267 -4.584177058764700 -2.321459784739514 29.000000000000000
1.497685575267956 -4.651740584644902 -2.461916215227844 5.000000000000000
1.628961956078993 -5.028872510266408 -2.778796182006546 73.000000000000000
1.636226507364712 -5.023068866369282 -2.894843342964986 73.000000000000000
1.645655870887148 -5.021366204642903 -3.015419405901075 71.000000000000000
1.534481323519495 -4.618756119572352 -3.005138761468894 25.000000000000000
1.592921473454850 -5.442030382539603 -1.180749971383568 24.000000000000000
1.483279024192595 -5.040916450324650 -1.191464929083767 18.000000000000000
1.490795612769487 -5.040370988033048 -1.289159704591330 79.000000000000000
1.496010107179291 -5.030365642112532 -1.385842439049684 77.000000000000000
1.504902193760336 -5.033561582743191 -1.486649649361675 82.000000000000000
1.455347466390869 -4.840589581627862 -1.526124586757410 29.000000000000000
1.412988501961671 -4.673509781693612 -1.567850060987416 5.000000000000000
1.414043533786945 -4.651744022344087 -1.655371388885704 5.000000000000000
1.417290423172457 -4.635539887972921 -1.745325701236199 7.000000000000000
1.419924227565099 -4.617767077560440 -1.835283739745050 15.000000000000000
1.427612297756847 -4.616287526240647 -1.932208219206307 21.000000000000000
1.485124236383489 -4.774900535319570 -2.101072792720718 29.000000000000000
1.462091508766723 -4.674243670945924 -2.158156279006278 39.000000000000000
1.449426939486797 -4.607817752686672 -2.229254831802654 69.000000000000000
1.449515729940303 -4.581783124423144 -2.319280825904210 30.000000000000000
1.475756493019022 -4.639304084461260 -2.454242120332319 5.000000000000000
1.607703205867545 -5.023758621059268 -2.774660288967985 75.000000000000000
1.616980976105155 -5.024771129055983 -2.894382079739902 72.000000000000000
1.627317455649008 -5.026453903179368 -3.016894936479050 70.000000000000000
1.572524288603446 -4.825826490224018 -3.015921426032906 15.000000000000000
1.513038797377515 -4.610600069452220 -2.998115507647692 26.000000000000000
1.574936774289815 -5.442897721142498 -1.181263118094944 26.000000000000000
1.464220290999169 -5.034005705852866 -1.190051046328313 15.000000000000000
1.472687210896408 -5.037277258278111 -1.288505414073340 80.000000000000000
1.479971859900734 -5.034759959485265 -1.387104698379285 76.000000000000000
1.486529911580327 -5.030616076703716 -1.485743824078398 82.000000000000000
1.439639510597789 -4.844894720672807 -1.527361524041550 32.000000000000000
