# This PCD file was generated using the MATLAB® pcwrite function
# from Computer Vision Toolbox®.
# .PCD v.7 - Point Cloud Data file format
VERSION .7
FIELDS x y z intensity
SIZE 8 8 8 8
TYPE F F F F
COUNT 1 1 1 1
WIDTH 638
HEIGHT 1
VIEWPOINT 0 0 0 1 0 0 0
POINTS 638
DATA ascii
6.744305790569824 -1.631000894282586 -3.001295634577796 74.000000000000000
9.789914558787581 -4.207613566023579 -0.656153191452481 22.000000000000000
9.145725099676003 -3.024488248333667 -2.484127057307630 111.000000000000000
9.147972898809963 -2.949626970774617 -2.641082462915043 113.000000000000000
9.144026416468366 -2.871512395090511 -2.796686156823864 110.000000000000000
9.134063575759972 -2.790136285281693 -2.950260683995463 1.000000000000000
6.612281232669947 -1.965158309311489 -2.250650065964233 64.000000000000000
6.534460886923289 -1.886702414155936 -2.337956141095865 39.000000000000000
6.494526396377433 -1.820370352823388 -2.438229411954178 91.000000000000000
6.561928728681387 -1.781041016506010 -2.578947121836566 54.000000000000000
6.691036889020980 -1.699060131797443 -2.869459185682364 41.000000000000000
6.731870825689700 -1.649472305436623 -3.009035111098820 87.000000000000000
9.718563264229356 -4.209673509443291 -0.665372845150009 20.000000000000000
9.144704323327998 -3.054129474302618 -2.499655174839568 81.000000000000000
9.146917948067999 -2.979203814162950 -2.656809493544551 112.000000000000000
9.150262667015916 -2.903326921242114 -2.814853799579213 115.000000000000000
9.162167872928020 -2.828540894829953 -2.975842111833257 2.000000000000000
6.599907523693828 -1.982912225718139 -2.258491484107730 0.000000000000000
6.540340495211217 -1.909586481922115 -2.352167016765733 1.000000000000000
6.493165248599730 -1.840972442986608 -2.449903165135453 107.000000000000000
6.513590594748220 -1.788914227460824 -2.572335019159782 72.000000000000000
6.722936997671578 -1.668783405814562 -3.018346578810430 88.000000000000000
9.643611930325347 -4.209774265811381 -0.674155448097010 20.000000000000000
9.823405915816195 -4.205287639954849 -0.857118473928992 0.000000000000000
9.139896262903916 -3.082564648964218 -2.514182866919417 0.000000000000000
9.145743316126346 -3.008811505836361 -2.672544951516621 112.000000000000000
9.149052202956945 -2.932871307041341 -2.830788880136121 117.000000000000000
9.222883487072524 -2.877378277368653 -3.012227486896022 10.000000000000000
6.484495171740756 -1.859521398125614 -2.458841706491856 87.000000000000000
6.490491895076249 -1.803539936545892 -2.575597534016825 71.000000000000000
6.717490206549044 -1.688964673489885 -3.029244733695329 64.000000000000000
9.408870603099766 -4.219057321353206 -0.507627120296923 22.000000000000000
9.572384096362438 -4.211099974876610 -0.683007842781981 21.000000000000000
9.751816575792713 -4.207592441404541 -0.865202472910160 0.000000000000000
9.151761430615664 -3.040879462097365 -2.690438405555865 109.000000000000000
9.147721762642096 -2.962446072101003 -2.846732130562610 116.000000000000000
9.243266918459335 -2.913974357097256 -3.035639326450840 13.000000000000000
6.482975896243403 -1.880140097507826 -2.470514266801612 81.000000000000000
6.470962172842909 -1.819071012672107 -2.580238207703359 78.000000000000000
6.556327143663485 -1.786305908715478 -2.732153287381506 0.000000000000000
6.729713848237003 -1.713661832356790 -3.048174969579450 59.000000000000000
9.345344858100580 -4.222387411191152 -0.517492060796623 19.000000000000000
9.504867068110073 -4.213681756216276 -0.691945138639437 33.000000000000000
9.672976524566355 -4.206354740490325 -0.872445386452807 0.000000000000000
9.849355362045928 -4.200798297036933 -1.058816612897961 0.000000000000000
9.867590648715742 -3.960926924858092 -1.568826531300315 0.000000000000000
9.143034184704652 -3.068117947033919 -2.704040340011684 19.000000000000000
9.153559007102963 -2.994434948033881 -2.864964370716944 113.000000000000000
9.245292316339350 -2.944934248413531 -3.053115827799137 13.000000000000000
6.510194680882507 -1.909229652856367 -2.493229100917737 57.000000000000000
6.454987286482663 -1.835538273639113 -2.586271907080369 90.000000000000000
6.533103402563104 -1.801135853723894 -2.735202655718342 49.000000000000000
6.748901592854377 -1.740285388433724 -3.070372950762125 16.000000000000000
9.278228993785230 -4.223743791462421 -0.526990628916460 20.000000000000000
9.437404149787229 -4.215922890102808 -0.700711851109985 25.000000000000000
9.616123330720260 -4.214313036911003 -0.881495158976730 0.000000000000000
9.788525322093312 -4.208045475761150 -1.066953275764289 0.000000000000000
9.819621233053518 -4.138638107445074 -1.239636017130804 0.000000000000000
9.807289357774083 -4.051322991069990 -1.406937622966605 1.000000000000000
9.791892635059517 -3.963511327272928 -1.572201190066448 1.000000000000000
9.824792835965544 -3.895288990865131 -1.745598295142666 0.000000000000000
9.151978051994510 -3.024090091524578 -2.880933330390284 113.000000000000000
9.247186413720936 -2.975944054554326 -3.070609778864404 13.000000000000000
6.504869843298385 -1.928900109089344 -2.503564796625479 2.000000000000000
6.435382537042167 -1.850910166512186 -2.590826732422405 98.000000000000000
6.506282666894347 -1.814864322265908 -2.736694603026885 78.000000000000000
9.207539434166199 -4.223096184166974 -0.536108372951485 18.000000000000000
9.373635903819368 -4.219461684195327 -0.709583707701921 24.000000000000000
9.522836830064280 -4.205888791537856 -0.887007430176045 0.000000000000000
9.698516046478845 -4.202332796630864 -1.071709644704661 0.000000000000000
9.744084543547618 -4.139859913346331 -1.244980444049024 1.000000000000000
9.735356868491849 -4.054558727781031 -1.411729494656563 1.000000000000000
9.716268050546288 -3.965708994006397 -1.575382920051569 1.000000000000000
9.767407311003335 -3.905440886829354 -1.751051655560210 0.000000000000000
9.874150580096622 -3.866719349075526 -1.938564364952187 0.000000000000000
9.146642493518435 -3.052561689625114 -2.895759352362681 51.000000000000000
9.230820817960204 -3.001109585376863 -3.082068182774612 11.000000000000000
6.430064168054368 -1.870362839159789 -2.601129301782868 97.000000000000000
6.468748255228187 -1.825447980608559 -2.733600497617459 51.000000000000000
9.147795859326298 -4.227116125181817 -0.545696051223113 20.000000000000000
9.306281402066936 -4.221032690470715 -0.718014966083973 23.000000000000000
9.462443699515712 -4.211563730411523 -0.895380465599729 0.000000000000000
9.641440504210506 -4.210486107093180 -1.079910989732199 0.000000000000000
9.664971310312298 -4.139132944375757 -1.249660769818544 1.000000000000000
9.652524770776223 -4.052825580910035 -1.414731904027278 1.000000000000000
9.644376190647304 -3.969025452424304 -1.578970820276117 1.000000000000000
9.684435976411988 -3.904982483883120 -1.751729322510512 0.000000000000000
9.834921915134478 -3.884504837577847 -1.946904489193514 30.000000000000000
9.156444422253262 -3.007195538751000 -3.074045629769208 2.000000000000000
6.435397450546934 -1.892967505462241 -2.615785479881346 74.000000000000000
6.441911806358836 -1.838894062227112 -2.734947331668470 70.000000000000000
9.077230502651723 -4.225781874366542 -0.554470875704327 18.000000000000000
9.231728506328801 -4.218947226514825 -0.725705922064180 23.000000000000000
9.394817013275164 -4.213677039612783 -0.902903700798481 0.000000000000000
9.555259471981085 -4.205536522393288 -1.084663533973505 0.000000000000000
9.596883600783237 -4.142722707986596 -1.255570674135859 1.000000000000000
9.569789960018495 -4.050665876048836 -1.417522515427085 1.000000000000000
9.565247032984017 -3.968945720749321 -1.581168891591321 2.000000000000000
9.605215515210862 -3.905581703935732 -1.752861221042605 0.000000000000000
9.762783848712141 -3.889010467314873 -1.948587464919321 19.000000000000000
9.877039078858159 -3.853129805892228 -2.140874992533125 0.000000000000000
9.154459192963374 -3.036884947090599 -3.090241204583048 1.000000000000000
6.447766915591809 -1.917754141891500 -2.633381258659231 2.000000000000000
6.422173114134225 -1.854267782458469 -2.739262580153291 78.000000000000000
9.013968807867780 -4.227481068247230 -0.563519430364176 18.000000000000000
9.171751883738308 -4.223155976473896 -0.734368423555682 25.000000000000000
9.327250106423287 -4.215449488628573 -0.910256590774212 1.000000000000000
9.491006023364752 -4.209819947964116 -1.091705395323019 0.000000000000000
9.547059887272210 -4.153890504894124 -1.263718790787073 3.000000000000000
9.545469812877512 -4.072962656492990 -1.428830728343200 3.000000000000000
9.551855881319149 -3.995923245224748 -1.594121275430858 3.000000000000000
9.555271849396505 -3.917741228960930 -1.759164445704377 2.000000000000000
9.690713142016229 -3.893149583910115 -1.950087463796029 17.000000000000000
9.361567449021715 -3.217625249748861 -3.014804579006012 9.000000000000000
6.420155415260799 -1.874741027484795 -2.751140585968423 65.000000000000000
6.446129193066325 -1.824721008167246 -2.879422801300845 39.000000000000000
8.961592760296199 -4.233980772083825 -0.573102102797779 20.000000000000000
9.104580310153798 -4.223708936395128 -0.742291180451242 25.000000000000000
9.263370291659498 -4.218532506857313 -0.917798631611761 1.000000000000000
9.423171291212618 -4.212158688668520 -1.098163010641230 0.000000000000000
9.551784984404417 -4.188735342664605 -1.279048021310654 4.000000000000000
9.550203257316792 -4.107685930992977 -1.444489541761409 3.000000000000000
9.556580896783027 -4.030545591156933 -1.610117946253346 3.000000000000000
9.549056469704267 -3.947733532123109 -1.773464546516182 2.000000000000000
9.589564042986400 -3.885113706199967 -1.945491443147328 23.000000000000000
9.780000172671446 -3.881513624751054 -2.152451765642708 18.000000000000000
9.319322966069411 -3.234246193694819 -3.018232431848449 28.000000000000000
6.442874614598376 -1.902560532347690 -2.773707648854991 65.000000000000000
6.426299245167564 -1.840177887318881 -2.883543541301469 85.000000000000000
8.894819303196696 -4.233360417349077 -0.581612534512013 21.000000000000000
9.041086695942472 -4.225612132065018 -0.750344897894912 25.000000000000000
9.199543422840469 -4.221295720713428 -0.925180657795615 1.000000000000000
9.348146246665047 -4.210889020252914 -1.103593861017530 1.000000000000000
9.505533276052146 -4.201180803987222 -1.287517374669030 0.000000000000000
9.551157064271989 -4.140900534817867 -1.459618270080371 3.000000000000000
9.557523612649849 -4.063688768582629 -1.625521450407833 3.000000000000000
9.557278930929265 -3.983797269291909 -1.790486736504322 2.000000000000000
9.554057751639277 -3.903302597229052 -1.954027971346968 53.000000000000000
9.700566664738149 -3.882981167019132 -2.151206089510177 13.000000000000000
9.862293547887669 -3.866193954960630 -2.356610760800153 8.000000000000000
9.262635490437454 -3.245609866669249 -3.016856702706932 20.000000000000000
6.461896938238387 -1.929481419445560 -2.794814736543318 51.000000000000000
6.424064796456662 -1.860655687905432 -2.895564867515731 78.000000000000000
8.828112991472652 -4.232403324407077 -0.589955175703797 23.000000000000000
8.977648885306527 -4.227197306833479 -0.758239685887146 26.000000000000000
9.132155853382038 -4.222067998373005 -0.932033951449606 1.000000000000000
9.291310291751760 -4.217455246229333 -1.110999688767041 1.000000000000000
9.448404862960293 -4.208561569549886 -1.294384433194426 1.000000000000000
9.548346469985605 -4.172575270645248 -1.474201919654546 3.000000000000000
9.558330873070608 -4.096878091400131 -1.640940225940868 2.000000000000000
9.550813474673129 -4.013841336298904 -1.804797966261152 4.000000000000000
9.558483285860857 -3.937795546398428 -1.970720555706285 53.000000000000000
9.610329410032444 -3.879642582783212 -2.147323464343614 23.000000000000000
9.840821925843642 -3.891262098400252 -2.368256553962992 32.000000000000000
9.252821836620416 -3.273261817800722 -3.030681298303779 14.000000000000000
6.494915039777924 -1.960809688127606 -2.822128273663588 19.000000000000000
6.421745723978144 -1.881149427062379 -2.907589154201693 76.000000000000000
8.768665909733819 -4.234582250106207 -0.598621191203105 23.000000000000000
8.917871667001126 -4.230173943279151 -0.766285417126440 26.000000000000000
9.064834889660936 -4.222500788158094 -0.938718017931951 1.000000000000000
9.212814210550382 -4.213819036394458 -1.115637687782469 1.000000000000000
9.373207190010408 -4.207535557668033 -1.298602134641822 1.000000000000000
9.538163004097122 -4.201082866028267 -1.487660330867462 2.000000000000000
9.555376056712493 -4.128546317605976 -1.655745668328239 2.000000000000000
9.526095138629254 -4.036205076626537 -1.815647539914676 3.000000000000000
9.555506769547904 -3.969340976571121 -1.985930157089511 52.000000000000000
9.556485673322456 -3.890600444515611 -2.151373923035592 51.000000000000000
9.754029961408628 -3.890229943609604 -2.364044521109109 16.000000000000000
9.253699577459138 -3.304753526299641 -3.048047286467630 14.000000000000000
6.415826387777752 -1.900617407436173 -2.918017346152225 82.000000000000000
6.442541066415034 -1.850387327809962 -3.049299484248167 33.000000000000000
8.709268510709956 -4.236465492792094 -0.607139305874514 23.000000000000000
8.854545051874801 -4.231134159503430 -0.773867978793967 24.000000000000000
9.008396652360176 -4.227669689427809 -0.946369246562548 1.000000000000000
9.152468994988412 -4.218100965505402 -1.122290310293297 1.000000000000000
9.305326636621771 -4.209397561152473 -1.303642726340676 1.000000000000000
9.455502688884890 -4.197446967591722 -1.489701934866719 1.000000000000000
9.559537858693155 -4.163393446922851 -1.671822638419576 2.000000000000000
9.508559478529611 -4.061565283100394 -1.827835904663849 4.000000000000000
9.494445304675436 -3.976635775158425 -1.989002832641704 17.000000000000000
9.556985825351429 -3.923597196641186 -2.167612274494977 53.000000000000000
9.670972890064711 -3.890205086103278 -2.360493962646292 16.000000000000000
9.250850803601505 -3.334996343949739 -3.064238697514815 15.000000000000000
6.409832607003735 -1.920080622314374 -2.928438552198856 91.000000000000000
6.408529864764843 -1.861789963600570 -3.046535590445858 67.000000000000000
8.646337569423510 -4.236297004885094 -0.615254680581224 24.000000000000000
8.794871700365352 -4.233506696598826 -0.781611683616321 23.000000000000000
8.944797717702079 -4.229156868976544 -0.953113826874953 1.000000000000000
9.081356068476675 -4.217061059253454 -1.127450211792086 1.000000000000000
9.230294034361570 -4.207626979067204 -1.307490437538625 1.000000000000000
9.391017685096632 -4.201469512723561 -1.494408502336878 1.000000000000000
9.487622805630000 -4.164973389333693 -1.674522667577756 2.000000000000000
8.919459034187774 -3.840783929541677 -1.729197890358555 13.000000000000000
9.418960337274640 -3.977517428793231 -1.988868338652222 5.000000000000000
9.557349250493914 -3.956638965439026 -2.183865243382246 54.000000000000000
9.580794866622869 -3.886820348603147 -2.354955052942058 34.000000000000000
9.251465682514821 -3.366569897466353 -3.081630388402212 13.000000000000000
6.414279582680020 -1.942723641612815 -2.943678360068043 64.000000000000000
6.371038408670171 -1.872001586248973 -3.042021639688118 68.000000000000000
8.587049298686201 -4.237579718259524 -0.623472913067068 25.000000000000000
8.731662557325471 -4.233843231700845 -0.788883054946291 14.000000000000000
8.874071400967058 -4.226901886674037 -0.958922943186786 1.000000000000000
9.017523990373759 -4.219029547057906 -1.133336121407085 1.000000000000000
9.173374462803295 -4.213753078131557 -1.313729790225201 1.000000000000000
9.319374078050814 -4.201916531184830 -1.497794464641334 1.000000000000000
9.502433977363435 -4.204528747302265 -1.692474673062417 1.000000000000000
8.888159935559223 -3.858144006882684 -1.737720858502624 24.000000000000000
9.419411328326801 -4.010305816988832 -2.004684883470275 4.000000000000000
9.564797100212340 -3.992739840727933 -2.201794948680164 54.000000000000000
9.566529285047997 -3.913972323788454 -2.367943007535656 52.000000000000000
6.485116492806892 -1.985783327895916 -2.989594060967919 25.000000000000000
6.344018540184599 -1.885133099822330 -3.042426327415066 74.000000000000000
8.534963426859061 -4.242120527268140 -0.632073361492570 25.000000000000000
8.682845296525842 -4.240861505340932 -0.797312516593402 2.000000000000000
8.817784488679786 -4.231177021176474 -0.966127179343543 1.000000000000000
8.953753490796570 -4.220678878195683 -1.139062874999033 1.000000000000000
9.105696445121529 -4.214601795567005 -1.318265509715143 1.000000000000000
9.020848733123737 -4.098874546297218 -1.464162418523526 1.000000000000000
8.803285839145071 -3.925894143857400 -1.582193921595592 19.000000000000000
8.889283157179568 -3.889568245940219 -1.752570629577349 25.000000000000000
9.556766940065401 -4.101959419368831 -2.049910870043930 38.000000000000000
9.546848851914662 -4.018303348137602 -2.213905869959665 41.000000000000000
9.566582318468450 -3.947033092925385 -2.384498376455441 52.000000000000000
6.313509485833149 -1.897093843213676 -3.041090745495046 61.000000000000000
8.472205555712611 -4.241047605110486 -0.639737628203115 26.000000000000000
8.619743762101821 -4.240605854396734 -0.804288171840725 1.000000000000000
8.754373406093539 -4.231710683988211 -0.972396500251974 1.000000000000000
8.904402331085130 -4.228827338288458 -1.146479162091407 1.000000000000000
9.027310122247309 -4.210082149794856 -1.321054218701863 1.000000000000000
8.881363911248240 -4.066662597098321 -1.455680733313067 23.000000000000000
8.779218706166471 -3.945889540127273 -1.592108867637792 93.000000000000000
8.890275634623187 -3.921038767854844 -1.767436030357144 22.000000000000000
9.556739082001789 -4.135224336596804 -2.065941384588896 45.000000000000000
9.554016433991414 -4.054502307738387 -2.231868503197723 40.000000000000000
9.562899779892481 -3.978640676039146 -2.400164613250330 46.000000000000000
9.841654988558444 -4.013408022509526 -2.642099000991222 26.000000000000000
9.443296352185698 -3.613775710546401 -3.032146948724797 7.000000000000000
6.286474225317281 -1.909964309669715 -3.041361233100957 48.000000000000000
8.413078914300476 -4.241456959568424 -0.647519916204371 27.000000000000000
8.438857868947684 -4.181636667561507 -0.799935402520012 4.000000000000000
8.540751005339780 -4.158752674070206 -0.961588509031514 9.000000000000000
8.826403668574020 -4.223021458557671 -1.150040016670943 1.000000000000000
8.949030939481178 -4.205161756841272 -1.323644908201692 35.000000000000000
8.878657196847376 -4.096679421722485 -1.469424409932617 23.000000000000000
8.769474278085767 -3.972300772022655 -1.604601963908905 65.000000000000000
8.801254977974990 -3.912598064029838 -1.764299068191209 45.000000000000000
9.333658688310909 -4.071298106736267 -2.033421553983318 29.000000000000000
9.561024310871563 -4.090785351937583 -2.249864291750920 54.000000000000000
9.566274726946640 -4.013285197596946 -2.417650465086136 41.000000000000000
9.733311393630744 -4.002960397356444 -2.630220783853300 6.000000000000000
9.339506300117382 -3.606169946190662 -3.016139318608971 23.000000000000000
6.255961736866652 -1.921644099827869 -3.039882020812177 70.000000000000000
8.361126732484419 -4.245185403905522 -0.655713847498997 28.000000000000000
8.358242201247860 -4.171520676306764 -0.804722655592898 11.000000000000000
8.481275054161344 -4.159982271683007 -0.967748394441239 21.000000000000000
8.777140060379400 -4.230614094367845 -1.157177922801511 0.000000000000000
8.885191885779294 -4.206626025006154 -1.328180198099151 39.000000000000000
8.951140618969598 -4.161735880023436 -1.495758030016260 22.000000000000000
8.863700522951360 -4.046202957125445 -1.636292965572204 19.000000000000000
8.769814913974219 -3.929429864581492 -1.772543741059841 83.000000000000000
9.552680015037449 -4.200304997485078 -2.097254981733505 33.000000000000000
9.564283139524690 -4.125603883511164 -2.267042263249929 53.000000000000000
9.562326768602878 -4.044958411925112 -2.433333971376949 52.000000000000000
9.589323569202794 -3.977081216012112 -2.608316408408960 21.000000000000000
9.296543931766040 -3.621642652542605 -3.019561461872930 23.000000000000000
6.246225845334958 -1.939629617688164 -3.048467752044698 80.000000000000000
8.175086747763915 -4.250776888455617 -0.504813342837121 26.000000000000000
8.305660324642904 -4.246843823356397 -0.663496881433769 29.000000000000000
8.299114412992241 -4.171728057132512 -0.811394464732085 18.000000000000000
8.425425677571951 -4.162678505733576 -0.974173398125264 22.000000000000000
8.702892079039643 -4.225826375793529 -1.160860414622176 1.000000000000000
8.821419873385443 -4.207771362761586 -1.332556781590885 27.000000000000000
8.958819683263252 -4.197047225491809 -1.511425972307732 33.000000000000000
8.885848379158865 -4.087712024667802 -1.654904524734291 8.000000000000000
8.763433535215714 -3.957454549773758 -1.785829264048375 55.000000000000000
8.889142337433061 -3.939792367922174 -1.966617553699060 48.000000000000000
9.341644929039798 -4.062316361144768 -2.230345220301227 43.000000000000000
9.568994924043125 -4.081235855737709 -2.451773650539099 52.000000000000000
9.574444354622399 -4.004299458407975 -2.621300659526276 51.000000000000000
9.260701706490051 -3.639714354577913 -3.025207979708460 12.000000000000000
6.253712504363198 -1.963015003337303 -3.065509420870211 27.000000000000000
8.123531100684353 -4.253309950554645 -0.513276651258236 23.000000000000000
8.239603519644266 -4.242749744349815 -0.670277887062827 28.000000000000000
8.240048502412350 -4.171641361745412 -0.817919939154723 21.000000000000000
8.366064689931726 -4.163327031144781 -0.980043690667314 21.000000000000000
8.646582192253948 -4.229384872718205 -1.166763039789697 1.000000000000000
8.757716510007882 -4.208598136986724 -1.336774944292129 33.000000000000000
8.898417459232975 -4.200379172163717 -1.515558488238245 42.000000000000000
9.029430443910670 -4.185772335813565 -1.696440924794324 25.000000000000000
8.796308869281303 -4.003399748990087 -1.807198031757779 11.000000000000000
8.771502535668530 -3.918581730353876 -1.955473469341209 53.000000000000000
9.423665914550318 -4.131124781587435 -2.266191688691986 37.000000000000000
9.564774975968096 -4.112983142695459 -2.467478333642959 52.000000000000000
9.566615245050354 -4.034491276408001 -2.636227777290481 51.000000000000000
9.263953063587460 -3.673136300039251 -3.043623392764372 11.000000000000000
8.064951964826465 -4.251866496227510 -0.521157464975539 21.000000000000000
8.191338955352840 -4.247504786746033 -0.678360674780425 29.000000000000000
8.188144472218012 -4.174880245144947 -0.825014570043508 22.000000000000000
8.313878103346898 -4.167245289657510 -0.986611158722788 22.000000000000000
8.501283841207471 -4.188795603291863 -1.160374269392218 1.000000000000000
8.694083401146889 -4.209106720492343 -1.340834974711034 40.000000000000000
8.820225659263484 -4.194923614525268 -1.516473273080754 46.000000000000000
8.979553524841924 -4.194586456991950 -1.701822243748945 40.000000000000000
8.843244289888814 -4.056127108753812 -1.831628594170043 8.000000000000000
8.764868300355957 -3.946622679967189 -1.968907590361678 32.000000000000000
8.958763748213336 -3.958928253256667 -2.169899350030925 54.000000000000000
9.553287086761186 -4.141656179562718 -2.481331482936513 51.000000000000000
9.565802603404345 -4.067717251543467 -2.653126629883758 50.000000000000000
9.263506045718081 -3.705200788828932 -3.060888572850375 11.000000000000000
8.013492139822789 -4.253876592352112 -0.529359671713981 23.000000000000000
8.136033739194508 -4.248334348721394 -0.685730454451758 27.000000000000000
8.136282946310576 -4.177865617961758 -0.831982389133752 22.000000000000000
8.247531531197144 -4.163739239422905 -0.991344131973804 21.000000000000000
8.384763459391596 -4.161547371233739 -1.157535834015083 19.000000000000000
8.641203489363889 -4.214507018612085 -1.346401442911752 38.000000000000000
8.770660512317502 -4.202730353139895 -1.522139204038543 59.000000000000000
8.915436298558628 -4.196446900303567 -1.704355895720071 42.000000000000000
8.847092722792611 -4.089373967793673 -1.847260378463580 14.000000000000000
9.032820041559090 -4.099331182769927 -2.044512154715290 71.000000000000000
8.776942339829009 -3.909644579821770 -2.141097480916536 42.000000000000000
9.277933789727580 -4.055030090900051 -2.426194459503678 35.000000000000000
8.945236084927245 -3.835321026446074 -2.497071887034112 68.000000000000000
9.262922183752886 -3.737307271838352 -3.078166820301142 11.000000000000000
7.962076638608574 -4.255635527311572 -0.537436377264457 24.000000000000000
8.080783173709261 -4.248891554175882 -0.692964544800208 26.000000000000000
8.084465194250312 -4.180597741747331 -0.838823607591259 22.000000000000000
8.198996565490205 -4.168910761283759 -0.998069328018995 22.000000000000000
8.328841557308438 -4.163855737069313 -1.162824025434157 22.000000000000000
8.595472646107343 -4.223143187523021 -1.352958095322373 19.000000000000000
8.714006046600232 -4.206863398182678 -1.526438655447862 45.000000000000000
8.851390091715796 -4.197987597671693 -1.706730668286619 36.000000000000000
9.003950150357861 -4.194022726830242 -1.895151460095497 0.000000000000000
8.986350333618647 -4.110236847953183 -2.049371790378675 55.000000000000000
8.759361295925860 -3.932915575472976 -2.152060585494308 41.000000000000000
9.046022065661843 -3.985702896144028 -2.381571164426561 69.000000000000000
8.813589867161722 -3.810003330739002 -2.476199562479147 15.000000000000000
9.265740445877974 -3.770895681290906 -3.096640720271349 11.000000000000000
7.910706719076998 -4.257143567940734 -0.545387794776220 24.000000000000000
8.025588626282307 -4.249176712639947 -0.700063187466996 27.000000000000000
8.025627670858794 -4.179397835325610 -0.844794781483175 22.000000000000000
8.146955405045746 -4.172035734682214 -1.004240736442470 22.000000000000000
8.276518683970782 -4.167673651416109 -1.168475420868779 23.000000000000000
8.546210712942379 -4.229805910606926 -1.358840832689250 1.000000000000000
8.650297682218847 -4.207262714360889 -1.529343147023535 41.000000000000000
8.762533052260387 -4.187317969530523 -1.704107605197216 18.000000000000000
8.957481335509403 -4.204462195499967 -1.900474091013154 0.000000000000000
9.537310420446422 -4.396306563626542 -2.191388268349129 40.000000000000000
8.926564579525140 -4.039788619867624 -2.208730113516637 70.000000000000000
8.782742627566007 -3.900902338617921 -2.327861010133589 32.000000000000000
8.877460133209354 -3.869066627978057 -2.510187445499847 57.000000000000000
7.862893857928204 -4.260302906636287 -0.553461220557813 24.000000000000000
7.977489388651365 -4.252942182950214 -0.707650932619688 27.000000000000000
7.977439362216545 -4.183453862639060 -0.851750551117169 23.000000000000000
8.091426326972142 -4.173084518237913 -1.009844343859567 23.000000000000000
8.210084917992097 -4.164057108555061 -1.171978684128140 22.000000000000000
8.479262511505135 -4.227399067177590 -1.361759298778468 1.000000000000000
8.586664741867541 -4.207344160506722 -1.532089986201461 38.000000000000000
8.723517169849504 -4.200111297479698 -1.711004756312587 43.000000000000000
8.882626120390443 -4.201248926146409 -1.899611714511958 0.000000000000000
9.543156649168761 -4.433202960982409 -2.209157458435867 17.000000000000000
8.997264641291592 -4.103941211677919 -2.241984724670452 62.000000000000000
8.772027399074611 -3.927407979033812 -2.340655010057188 44.000000000000000
9.114635475370893 -4.004833042564885 -2.593776484643754 74.000000000000000
9.641068433137981 -4.073470235715167 -3.086808012541915 7.000000000000000
7.804604111192728 -4.257496293606934 -0.560663872098755 25.000000000000000
7.922399564164877 -4.252703951393424 -0.714488801537802 26.000000000000000
7.925766254021460 -4.185417944965433 -0.858208548416962 23.000000000000000
8.039483086700550 -4.175692060901138 -1.015757604541061 19.000000000000000
8.161408259430058 -4.169130151119845 -1.177866293740618 23.000000000000000
8.281512612981325 -4.158923163619454 -1.343280670649581 8.000000000000000
8.530190760102935 -4.210603863391623 -1.535954654879504 32.000000000000000
8.659693665821488 -4.200695086196319 -1.712904669541560 40.000000000000000
8.829146452475783 -4.207790856772085 -1.903146086457770 0.000000000000000
9.513394794664398 -4.453585770747203 -2.218690889567628 17.000000000000000
9.563676507478782 -4.396594159596079 -2.399930719021724 41.000000000000000
8.846205683778816 -3.992252107093261 -2.376264318986589 30.000000000000000
8.784820986774214 -3.891245619824802 -2.515899790636663 24.000000000000000
9.374726902663845 -3.994181507404167 -3.019171009794134 16.000000000000000
7.756883004410996 -4.260165061479978 -0.568492484405125 24.000000000000000
7.874384822134992 -4.255986125634409 -0.721835002848642 26.000000000000000
7.877657257581334 -4.188999140678018 -0.864926778100307 23.000000000000000
7.984066011150378 -4.176204116230942 -1.021094074593047 6.000000000000000
8.105712559481447 -4.170339116623010 -1.182607101039376 23.000000000000000
8.232618389336881 -4.164407588466061 -1.348584403246050 21.000000000000000
8.505588574453439 -4.229407204016165 -1.545462294830677 1.000000000000000
8.603022457168212 -4.204418282331059 -1.716058130909245 39.000000000000000
8.765092046163774 -4.208975979006916 -1.904244372558119 0.000000000000000
9.437583402162614 -4.452145311529008 -2.217351043983563 14.000000000000000
9.551460208249502 -4.425342919623584 -2.413700050537316 21.000000000000000
8.962431368195407 -4.076859224534493 -2.423559950509790 62.000000000000000
8.773849517627744 -3.917777954081837 -2.528769768985252 48.000000000000000
8.834037571386402 -3.869312574043940 -2.703415689767098 0.000000000000000
9.313422719588388 -4.001196420458821 -3.017011841402408 21.000000000000000
7.705707956937823 -4.260672285474796 -0.575944926335933 25.000000000000000
7.819404893364148 -4.255225680640771 -0.728413015018338 27.000000000000000
7.826077359776106 -4.190469105567723 -0.871138240511986 22.000000000000000
7.932225901572754 -4.178295402108492 -1.026750105496625 3.000000000000000
8.050076852662338 -4.171274036202385 -1.187211683371548 24.000000000000000
8.169656005791024 -4.162470719364220 -1.351437108221518 21.000000000000000
8.427998260882180 -4.221595837295361 -1.545211280407107 1.000000000000000
8.560533166243122 -4.214818844554918 -1.721914637035246 10.000000000000000
8.708180597788827 -4.213260632395429 -1.906731632873670 0.000000000000000
9.372476414458808 -4.455360550419397 -2.218330955060571 12.000000000000000
9.521479605915253 -4.445824564526013 -2.422958120892105 28.000000000000000
9.547572298351133 -4.377398835509485 -2.598969534765323 40.000000000000000
8.752200932121649 -3.939530017360035 -2.538555905645599 16.000000000000000
8.738319302411838 -3.858665388317609 -2.690400191439257 12.000000000000000
9.273278278054706 -4.017049321710237 -3.021577191584892 14.000000000000000
7.658072037585543 -4.262871216701003 -0.583538907848061 25.000000000000000
7.767983596504560 -4.256110191298669 -0.735187652208387 28.000000000000000
7.771045190641606 -4.189798490026847 -0.876829092796705 22.000000000000000
7.873415952982492 -4.176410008625981 -1.031360592212786 3.000000000000000
7.994502512109742 -4.171935241651816 -1.191680294095116 23.000000000000000
8.117337715822709 -4.165638516293092 -1.355898284849432 21.000000000000000
8.234263050052524 -4.154720889747974 -1.523256495417457 8.000000000000000
8.507476727778108 -4.219775489796726 -1.725525584285742 1.000000000000000
8.637217326740618 -4.210389825483834 -1.905967042766951 0.000000000000000
9.307441994759367 -4.458253951229803 -2.219151013458427 11.000000000000000
9.438565355448638 -4.441298003479078 -2.418598783431732 20.000000000000000
9.556254049688054 -4.415895234419653 -2.618583933436248 50.000000000000000
8.631919500118672 -3.916479861012014 -2.519526789251964 2.000000000000000
8.488073540327592 -3.778644793579471 -2.629217963187037 9.000000000000000
9.271742217132074 -4.049587565394367 -3.038705778658757 17.000000000000000
7.606996109662880 -4.262889534265219 -0.590747836412339 26.000000000000000
7.720104765743321 -4.258669445764687 -0.742173131861790 27.000000000000000
7.719575120945529 -4.190755736188387 -0.882785541161012 22.000000000000000
7.825194386719494 -4.179848225108587 -1.037220143031514 1.000000000000000
7.942500630859226 -4.174167598142540 -1.196541930488736 23.000000000000000
8.054526827250701 -4.163102581812444 -1.358454446201753 21.000000000000000
8.181749324283153 -4.158303798070513 -1.527057142855006 20.000000000000000
8.436867899756733 -4.215681206032225 -1.725408940269251 1.000000000000000
8.573400215591199 -4.210619374993472 -1.906592043996396 1.000000000000000
9.235439864774715 -4.457427186675082 -2.218120235609390 10.000000000000000
9.362822978639198 -4.439687214496711 -2.415848361983897 18.000000000000000
9.571794116608809 -4.457765632069943 -2.640177827114878 52.000000000000000
8.522451809464171 -3.897612190851121 -2.503284715147200 6.000000000000000
8.312253191666992 -3.730326259400818 -2.590346864040918 23.000000000000000
7.559450096264038 -4.264619683572298 -0.598108014142377 25.000000000000000
7.668783575093562 -4.259063027423684 -0.748703283556180 28.000000000000000
7.668158954715451 -4.191462008706726 -0.888617169981219 22.000000000000000
7.777014188174833 -4.183054057924956 -1.042963597353668 19.000000000000000
7.887047209459102 -4.174292279421969 -1.200744053377549 24.000000000000000
8.002327571849690 -4.165731646815798 -1.362647892719025 22.000000000000000
8.125774288096080 -4.159833672987078 -1.530069289934120 21.000000000000000
8.250410829586762 -4.152863958947083 -1.701207242376951 10.000000000000000
8.509665400756877 -4.210531235366997 -1.907059905498543 1.000000000000000
8.562476844337764 -4.163942997400294 -2.071498251165242 18.000000000000000
9.287190989131908 -4.437694650107641 -2.412909804321973 18.000000000000000
9.580108977835463 -4.496476272842483 -2.659879151495598 52.000000000000000
8.504441260967566 -3.920214834562103 -2.513724425952776 35.000000000000000
8.249035600834164 -3.731780097924664 -2.586171873040134 26.000000000000000
8.323583525723087 -3.695379095357187 -2.759780178185993 31.000000000000000
7.511947857492705 -4.266120723236892 -0.605353913904478 26.000000000000000
7.617517216897570 -4.259206679429806 -0.755109205459467 28.000000000000000
7.620283894618630 -4.193836108740549 -0.894733512527526 22.000000000000000
7.732369002167185 -4.187919324048353 -1.049064988256892 23.000000000000000
7.838654903387367 -4.177872835499941 -1.205887173823849 24.000000000000000
7.946678652955248 -4.166270533984152 -1.366112815370975 17.000000000000000
8.069862751389298 -4.161088657418358 -1.532944995374530 22.000000000000000
8.194247340707596 -4.154843908298107 -1.703501868793980 21.000000000000000
8.316183760197926 -4.145408486306033 -1.878051156992854 12.000000000000000
8.446086311089804 -4.138341222477645 -2.058188998115486 19.000000000000000
9.204655566081627 -4.431942854176050 -2.407948181984059 20.000000000000000
9.577728180398353 -4.530308397923839 -2.676679420869069 51.000000000000000
8.514378119710154 -3.955776634287302 -2.532463712321975 5.000000000000000
8.196399152616250 -3.737702794677235 -2.585150430759027 8.000000000000000
8.267368358186799 -3.700327865357284 -2.757030670651329 32.000000000000000
7.464490534210395 -4.267392914247064 -0.612485738705277 27.000000000000000
7.573251691129974 -4.263009933465113 -0.762089974986386 27.000000000000000
7.565493346628077 -4.192122851006101 -0.899906897517047 22.000000000000000
7.680782518895549 -4.188769594780356 -1.054103021185377 24.000000000000000
7.786813583870571 -4.179346320061381 -1.210371243477862 23.000000000000000
7.891095632110016 -4.166535955321390 -1.369442170341014 13.000000000000000
8.014016088965775 -4.162069098369066 -1.535684520400919 22.000000000000000
8.131144073794060 -4.152971241015649 -1.704191867866022 22.000000000000000
8.259847400554138 -4.147836898649895 -1.879626021781323 20.000000000000000
8.386008879201842 -4.139791557729121 -2.058338392126652 20.000000000000000
8.565468107741042 -4.155637183176702 -2.256123156450085 23.000000000000000
9.578704426539892 -4.565844586218192 -2.694473737761631 52.000000000000000
8.506664655656763 -3.983253025239827 -2.546011738605644 2.000000000000000
8.224135041224379 -3.780288743733557 -2.609486508435450 37.000000000000000
8.214702835205703 -3.706572934740167 -2.755313123533336 31.000000000000000
7.420537111481356 -4.270426468868926 -0.619792506498419 27.000000000000000
7.522086788146721 -4.262674157480362 -0.768257364909462 27.000000000000000
7.521194392751633 -4.195954211567654 -0.906202604757390 22.000000000000000
7.625772359363256 -4.187457403898042 -1.058533142471601 22.000000000000000
7.731542491411872 -4.178683471600250 -1.214182501796001 24.000000000000000
7.839070113352788 -4.168384180084488 -1.373247641600188 23.000000000000000
7.954742154834038 -4.160947966272803 -1.537612848566425 22.000000000000000
8.075121666821319 -4.154380631828679 -1.706203865872902 22.000000000000000
8.200078277690357 -4.148220214159593 -1.880262028172798 21.000000000000000
8.329503304444932 -4.142684177270697 -2.059205309975667 20.000000000000000
8.463203797153373 -4.137212369852561 -2.244440084873657 21.000000000000000
9.579525591347403 -4.601436059267997 -2.712286791102366 51.000000000000000
9.580831193306908 -4.521336197239610 -2.885410306505510 46.000000000000000
8.443380664988014 -3.911908998795873 -2.695113157410364 24.000000000000000
8.176012003296453 -3.718893996685580 -2.758164455460957 44.000000000000000
7.369715189497183 -4.269251815158900 -0.626407985626708 27.000000000000000
7.477901167901610 -4.266037560436571 -0.775018487547319 25.000000000000000
7.469994303793198 -4.195679208916537 -0.911546530443007 22.000000000000000
7.570832367770583 -4.185874677184625 -1.062829452932953 23.000000000000000
7.679820580692059 -4.179642753112766 -1.218411385670124 24.000000000000000
7.794069400753580 -4.173710874474468 -1.378159538126959 24.000000000000000
7.902522875851027 -4.163207763123319 -1.540756086381272 22.000000000000000
8.019165871976448 -4.155515205862093 -1.708079650243853 23.000000000000000
8.140386812032080 -4.148307950251571 -1.880751897612705 22.000000000000000
8.266080514389293 -4.141801991498349 -2.058196587513920 21.000000000000000
8.403036578843457 -4.138877625709115 -2.243678286658611 21.000000000000000
9.587166343175046 -4.640458412037103 -2.732106007175723 51.000000000000000
9.577972856694311 -4.555203539155535 -2.902511442404989 32.000000000000000
8.365925314450857 -3.906688890250749 -2.686360278857196 24.000000000000000
8.165121837468508 -3.743782758307137 -2.770356662579228 50.000000000000000
8.299405478498411 -3.733898005631737 -2.966657780568887 6.000000000000000
7.322399441673926 -4.269839067921935 -0.633198823925707 26.000000000000000
7.426842428377967 -4.265223491544504 -0.780948212893622 21.000000000000000
7.422316203087576 -4.197112371787977 -0.917194592203825 22.000000000000000
7.526369016395541 -4.189814152735769 -1.068469369975696 22.000000000000000
7.628157263863425 -4.180350336419450 -1.222515367005853 24.000000000000000
7.738667839373642 -4.173197373430164 -1.381102369210799 19.000000000000000
7.846879064371373 -4.163366706190156 -1.543088662040388 19.000000000000000
7.966761560787377 -4.158193509600328 -1.710567441020197 23.000000000000000
8.091228266671470 -4.153466748406024 -1.883529428095587 23.000000000000000
8.209717150732127 -4.144121854151254 -2.058779823808445 21.000000000000000
8.342946019534939 -4.140245922475837 -2.242769586147521 22.000000000000000
9.580701268575099 -4.672782811887828 -2.747967975659306 51.000000000000000
9.627141109854790 -4.614109483689700 -2.935529206713603 0.000000000000000
8.285134288558066 -3.899437619843495 -2.676291476933840 24.000000000000000
8.174948870532868 -3.778270954471699 -2.789635022501847 49.000000000000000
8.308935247851919 -3.768565241852570 -2.986555049702690 7.000000000000000
7.278572935789462 -4.272217564151933 -0.640178961654381 28.000000000000000
7.379292877228025 -4.266154537444567 -0.787122668160990 21.000000000000000
7.378143045843339 -4.200283238547791 -0.923160826209627 12.000000000000000
7.471555078768676 -4.187720763720127 -1.072512708564947 22.000000000000000
7.583488856519235 -4.184633369500488 -1.227617336922032 23.000000000000000
7.683337499207476 -4.172411790089737 -1.383910664455032 3.000000000000000
7.794780764165724 -4.165109481194689 -1.545975371166720 20.000000000000000
7.914414277643671 -4.160617425436178 -1.712928860457094 23.000000000000000
8.028199614607940 -4.151195534284891 -1.882926069749443 22.000000000000000
8.153420886260724 -4.146165799535045 -2.059226314481549 20.000000000000000
8.282933604019295 -4.141317664256143 -2.241714280439862 22.000000000000000
9.581055082149661 -4.708537063789835 -2.765835539530785 52.000000000000000
8.207963475091441 -3.893415917647502 -2.667146805815890 23.000000000000000
8.205381831870630 -3.822536227407916 -2.816083412003531 35.000000000000000
7.132219631538152 -4.277914218840142 -0.503107407764136 27.000000000000000
7.227917466672054 -4.270330566456453 -0.646440985832974 29.000000000000000
7.331793263428519 -4.266856875145301 -0.793183427316437 22.000000000000000
7.416800095593626 -4.250693792608752 -0.939509778277912 1.000000000000000
7.423727485582280 -4.189258522845228 -1.077426214911648 22.000000000000000
7.528472796407031 -4.182934892552715 -1.230915528549492 24.000000000000000
7.631545473658346 -4.173249707587182 -1.387214677549333 3.000000000000000
7.742741804365235 -4.166599161425246 -1.548736510496667 18.000000000000000
7.855183014717098 -4.159111523236160 -1.713649655730191 23.000000000000000
7.979154228576093 -4.155844069485510 -1.885450043548841 23.000000000000000
8.097193097186134 -4.147934191266275 -2.059536329324006 22.000000000000000
8.223000814734625 -4.142093260618879 -2.240512669281150 23.000000000000000
9.581252416712632 -4.744344545124623 -2.783720705168644 51.000000000000000
8.179395101958168 -3.910165813360492 -2.673649767282473 40.000000000000000
8.373811140631279 -3.931929207904494 -2.890343177732881 19.000000000000000
8.424079187034334 -3.882715370510166 -3.061573974637729 10.000000000000000
7.081918033049322 -4.275213794452666 -0.509831329845916 43.000000000000000
7.184181070377849 -4.272273678567909 -0.653204381063380 29.000000000000000
7.294652758495818 -4.273369464924165 -0.800261550509026 15.000000000000000
7.393217146321913 -4.265598603154594 -0.948025729659920 1.000000000000000
7.372500705811547 -4.188606094469133 -1.081719154024859 22.000000000000000
7.473531416221036 -4.180966147822709 -1.234080322149943 23.000000000000000
7.583274488496290 -4.175740852783242 -1.391028526852856 3.000000000000000
7.683837948918670 -4.164082957795499 -1.549975320885594 4.000000000000000
7.806430953209691 -4.162855684430311 -1.716511672950660 24.000000000000000
7.919756966029683 -4.154802761711638 -1.885381555626776 24.000000000000000
8.037569194146153 -4.147638851726454 -2.058822334482020 22.000000000000000
8.166613965838895 -4.144331434368764 -2.240115464673203 23.000000000000000
9.584755628951937 -4.781932314996759 -2.802635700205055 51.000000000000000
8.154251004233702 -3.928462097525841 -2.681226605167220 25.000000000000000
8.400058336880299 -3.975390271416267 -2.915971900916856 15.000000000000000
8.419153029924088 -3.911554206581326 -3.076687495943644 14.000000000000000
7.137447324251425 -4.336528778237057 -0.524202107071295 22.000000000000000
7.140485217389237 -4.274009128765956 -0.659864249274847 28.000000000000000
7.247237892372017 -4.273644213053543 -0.806109218159148 9.000000000000000
7.348975238087484 -4.268431077509298 -0.953815016934537 0.000000000000000
7.324781957833127 -4.189674130692518 -1.086399534613377 23.000000000000000
7.425563942984270 -4.182612902660786 -1.238262264283067 23.000000000000000
7.524693949823465 -4.172255829264908 -1.392809483258612 3.000000000000000
7.635390452492956 -4.166934208427411 -1.553179944699531 3.000000000000000
7.750809970477084 -4.162651076664976 -1.717724313006297 24.000000000000000
7.867363971089515 -4.157124094073167 -1.886827870495603 24.000000000000000
7.988408122366284 -4.152444166909799 -2.060640461412220 22.000000000000000
8.106838581586143 -4.144525825061423 -2.238626788347108 22.000000000000000
9.581176274786825 -4.816117124203402 -2.819542700052047 27.000000000000000
8.139410678507968 -3.951683142924001 -2.692172755326221 16.000000000000000
8.098946182140814 -3.863015194208094 -2.827480919140586 19.000000000000000
8.417543056877820 -3.942020845562427 -3.093065880119481 15.000000000000000
7.134765752965494 -4.362790324308996 -0.534395206215900 11.000000000000000
7.093415713421453 -4.273479636809127 -0.666100075336533 38.000000000000000
7.206723510951012 -4.277755445495255 -0.812615890345244 2.000000000000000
7.297911291535169 -4.267041595641436 -0.958598352778295 0.000000000000000
7.273678805036981 -4.188533159913971 -1.090450645126541 22.000000000000000
7.377648788929853 -4.184029071394251 -1.242329697354782 23.000000000000000
7.476543514149241 -4.174254221411634 -1.396379166294049 7.000000000000000
7.583543356660234 -4.167656819336901 -1.555561247231694 2.000000000000000
7.702168380757609 -4.165908400747111 -1.720344567533592 25.000000000000000
7.811578679518324 -4.157353564992794 -1.887313929725648 24.000000000000000
7.932387680777864 -4.153397940214606 -2.060547313716593 22.000000000000000
8.050599452076483 -4.146203275173793 -2.237952381790983 23.000000000000000
7.879238129683660 -3.923308203391644 -2.477497777383254 1.000000000000000
7.993671877245252 -3.910862425879658 -2.659569326936424 10.000000000000000
8.035960820056347 -3.862975084157320 -2.821464371155354 36.000000000000000
7.101382931489783 -4.370246396356170 -0.542257222618083 4.000000000000000
7.104354237262261 -4.307864730533400 -0.677752414175069 32.000000000000000
7.149151639529313 -4.271468520956883 -0.817074971768039 1.000000000000000
7.257188017195991 -4.271451405221601 -0.964624785031648 0.000000000000000
7.215780049781567 -4.183165285995993 -1.093339134583785 3.000000000000000
7.322914348875523 -4.181290697280890 -1.245114269400700 24.000000000000000
7.431886448930137 -4.177955587637427 -1.400482387585732 23.000000000000000
7.524872908074309 -4.164315959554484 -1.556393364907824 18.000000000000000
7.646685520204288 -4.165178452100727 -1.721297480755096 25.000000000000000
7.759315484659478 -4.159157548886639 -1.888504088706964 24.000000000000000
7.876441163811434 -4.154077647928252 -2.060318783101210 23.000000000000000
7.994433114015496 -4.147605857532892 -2.237142113521471 24.000000000000000
7.837181149015154 -3.931918137226701 -2.479345760411248 24.000000000000000
7.913624147734572 -3.901443876712679 -2.648439639722490 12.000000000000000
8.041688515260933 -3.895861902318969 -2.839521414178803 16.000000000000000
7.101937474944311 -4.398568907940911 -0.552684054480610 2.000000000000000
7.193399323912629 -4.390112988197654 -0.697029495496112 27.000000000000000
7.108728365149005 -4.275153717771473 -0.823369734657947 1.000000000000000
7.206238852136161 -4.269595052147060 -0.969176813922355 0.000000000000000
7.219622189598888 -4.213489035543864 -1.105526836762908 2.000000000000000
7.278549970558784 -4.184199017911823 -1.249533074626056 24.000000000000000
7.373533151458722 -4.173669601226129 -1.401868369049003 22.000000000000000
7.486918665508130 -4.172178369236685 -1.561384178009838 15.000000000000000
7.591280024632319 -4.164176619244250 -1.722116335024396 23.000000000000000
7.703675267041907 -4.158850816736015 -1.888725301387409 25.000000000000000
7.824010574703889 -4.156311432268528 -2.060861423025728 22.000000000000000
7.938340935986142 -4.148733957780799 -2.236196264106332 24.000000000000000
7.822620708665881 -3.954219155599620 -2.489839375911777 29.000000000000000
7.614231054485836 -3.782566867983283 -2.563215429521813 20.000000000000000
7.749340367034375 -3.783376181272792 -2.751816226936168 25.000000000000000
7.098986033588005 -4.424821608742639 -0.562856132352363 2.000000000000000
7.197086658736099 -4.420743617873924 -0.708198765651158 31.000000000000000
