# This PCD file was generated using the MATLAB® pcwrite function
# from Computer Vision Toolbox®.
# .PCD v.7 - Point Cloud Data file format
VERSION .7
FIELDS x y z intensity
SIZE 8 8 8 8
TYPE F F F F
COUNT 1 1 1 1
WIDTH 637
HEIGHT 1
VIEWPOINT 0 0 0 1 0 0 0
POINTS 637
DATA ascii
9.234758537868153 -3.085857094318563 -1.365629796363217 5.000000000000000
9.137746331509586 -2.979385966889438 -1.502942194924803 78.000000000000000
9.135543153641922 -2.904794984944003 -1.654690721370718 122.000000000000000
9.141919883185945 -2.832901637658668 -1.807641878459420 122.000000000000000
9.141483168242447 -2.759479797349585 -1.960117530343413 107.000000000000000
9.239830855985794 -2.713650784995270 -2.135444021712436 29.000000000000000
9.469333683731641 -2.704872697860091 -2.347500644199365 26.000000000000000
9.703047207017876 -2.692372153314106 -2.568203863878677 24.000000000000000
9.160347728911155 -3.090355917857763 -1.368731451525008 15.000000000000000
9.142245433828721 -3.010102383709661 -1.517948637873916 119.000000000000000
9.136278491786443 -2.934203505688666 -1.669270831148961 121.000000000000000
9.138881777539977 -2.861087094691371 -1.821681775925263 121.000000000000000
9.138426164348525 -2.787627911352561 -1.974293257497090 119.000000000000000
9.150563920415761 -2.716485823048195 -2.129855561197392 59.000000000000000
9.372430134406473 -2.706892638023339 -2.339083072890844 27.000000000000000
9.602282146124008 -2.694780250364486 -2.557724181469461 26.000000000000000
9.847197977093142 -2.681681295574842 -2.788848764077531 23.000000000000000
9.153464589083200 -3.117446281355394 -1.381824409707453 0.000000000000000
9.142871237783465 -3.039629870785161 -1.532348451868054 119.000000000000000
9.133150074449507 -2.962432605813293 -1.683171641157605 119.000000000000000
9.143227562663119 -2.891656762477716 -1.837228049365208 120.000000000000000
9.139004006123290 -2.816944509806423 -1.989284646483231 118.000000000000000
9.136153079019852 -2.741280630714891 -2.141556308011407 106.000000000000000
9.279366451919891 -2.709486610674313 -2.331346511688103 28.000000000000000
9.501630460400001 -2.696650934905464 -2.546977096338388 26.000000000000000
9.750151451704527 -2.686093401446248 -2.778055598351302 25.000000000000000
9.147125031302144 -3.070449984028873 -1.547392825788861 116.000000000000000
9.141144082758643 -2.994354937282298 -1.699160783392720 120.000000000000000
9.139965561282242 -2.919893015584874 -1.851280183039091 120.000000000000000
9.139465344600636 -2.846296908936897 -2.004287185265674 118.000000000000000
9.136595926309010 -2.770555365323591 -2.156752616094453 119.000000000000000
9.186403840647301 -2.711586404250990 -2.323363864921220 31.000000000000000
9.412260113296812 -2.701189010678058 -2.538974889248407 26.000000000000000
9.645781082325071 -2.687919498777082 -2.764876141882978 25.000000000000000
9.136294364279284 -3.096257059436945 -1.559904327555201 32.000000000000000
9.137787277527996 -3.022644754857597 -1.713078619497453 117.000000000000000
9.144069464153207 -2.950555139971103 -1.866858859349299 118.000000000000000
9.143543536251268 -2.876859458359803 -2.020125554890927 117.000000000000000
9.136921988630874 -2.799865519933271 -2.171959862419754 122.000000000000000
9.138230566954148 -2.726525155246548 -2.326512128271125 98.000000000000000
9.311830174012748 -2.702018211982540 -2.527709712854783 28.000000000000000
9.548955186074620 -2.691279032309090 -2.753559155818534 26.000000000000000
9.141791434873545 -3.053443196616468 -1.728409096918123 114.000000000000000
9.144315183883240 -2.980057152787923 -1.881690512257512 118.000000000000000
9.143766714481609 -2.906292949872063 -2.035154923012521 119.000000000000000
9.140855921633690 -2.830364102817482 -2.188069483681105 119.000000000000000
9.138407412935676 -2.755805155573814 -2.341929097926552 101.000000000000000
9.218947444948773 -2.704490041132324 -2.518206827226183 29.000000000000000
9.444828612715494 -2.692011427401955 -2.739836300067581 27.000000000000000
9.737483515081619 -2.692684785964129 -2.989675473517325 1.000000000000000
9.134479971946213 -3.080523878679740 -1.741626904649056 56.000000000000000
9.144443784822693 -3.009593902004206 -1.896532734027214 118.000000000000000
9.140148087054641 -2.934565323438343 -2.049359731522174 119.000000000000000
9.137222861729839 -2.858590650857491 -2.202406380737148 120.000000000000000
9.138466927750610 -2.785119785214814 -2.357356568789132 112.000000000000000
9.144712590319108 -2.711967551259164 -2.513555179695995 75.000000000000000
9.351935049403060 -2.695387212319600 -2.729077244676405 28.000000000000000
9.563184587202489 -2.674943385615271 -2.952927096093948 1.000000000000000
9.148178357477365 -3.040402471716706 -1.912163578191370 116.000000000000000
9.147581248585317 -2.966470078541946 -2.066085325838606 117.000000000000000
9.140913046048256 -2.889179368755188 -2.218547105595040 120.000000000000000
9.134698614401721 -2.813325983198262 -2.371830967060853 114.000000000000000
9.140912801172853 -2.740153014096157 -2.528172980769714 106.000000000000000
9.255451445847221 -2.697193053333345 -2.716988068912872 29.000000000000000
9.462944209949029 -2.677112652084374 -2.938613742471422 4.000000000000000
9.144348744520260 -3.068770164884551 -1.926248092459841 90.000000000000000
9.147447533995228 -2.996017150995292 -2.081150845985618 116.000000000000000
9.140765151543800 -2.918638130347314 -2.233801224013723 119.000000000000000
9.141938770486322 -2.845004709735062 -2.389210689383491 113.000000000000000
9.140703462327849 -2.769472043008480 -2.543820122725289 114.000000000000000
9.159085751046165 -2.698485609172159 -2.704644084177043 47.000000000000000
9.373878039295274 -2.681908958162488 -2.927486096388089 14.000000000000000
9.129268246943210 -3.093374983087521 -1.937967102239546 0.000000000000000
9.147195907906594 -3.025597836323360 -2.096226312975819 118.000000000000000
9.144205936684076 -2.949326004759696 -2.249977312143375 120.000000000000000
9.141640347690950 -2.874431567220928 -2.404673557644101 115.000000000000000
9.144070611485683 -2.799955826033368 -2.560511672386146 114.000000000000000
9.140269265945554 -2.722326702363429 -2.715045316677081 107.000000000000000
9.295947394514625 -2.689427228420448 -2.919590248895807 26.000000000000000
9.146826152933096 -3.055211770315771 -2.111311527592053 114.000000000000000
9.143817305598011 -2.978862111341358 -2.265256189366058 118.000000000000000
9.144920090976349 -2.905065828390504 -2.421124751510115 114.000000000000000
9.143620229393497 -2.829351901154174 -2.576183401868218 113.000000000000000
9.143475309116527 -2.752747745874994 -2.732007159426307 114.000000000000000
9.203394865121034 -2.692238958192021 -2.906849213264579 29.000000000000000
9.142636580829247 -3.083610162644389 -2.125545745383793 28.000000000000000
9.154402038113059 -3.012080610177711 -2.283311131314125 119.000000000000000
9.144380268536851 -2.934569139682152 -2.436611883090746 115.000000000000000
9.143051292869794 -2.858780692633803 -2.591864581218735 113.000000000000000
9.139197918008099 -2.780984158155546 -2.746777844596150 117.000000000000000
9.147649322568299 -2.705411900344554 -2.905519285909109 83.000000000000000
9.146377151770762 -3.039259530430222 -2.296769580139638 117.000000000000000
9.147408719826181 -2.965300075626420 -2.453097057586157 113.000000000000000
9.146044088806971 -2.889404572068622 -2.608604750533898 113.000000000000000
9.145830219563457 -2.812620619068299 -2.764878812554305 115.000000000000000
9.139565776202087 -2.732546897271783 -2.919263755929895 99.000000000000000
9.883358871045264 -4.214588212558751 -0.648197211264980 19.000000000000000
9.141940157552504 -3.067666125209582 -2.311149216292734 51.000000000000000
9.146626495284973 -2.994878325629684 -2.468607617752253 111.000000000000000
9.145232639582517 -2.918908151676650 -2.624309274835996 113.000000000000000
9.141319692421042 -2.840910736420279 -2.779662653749057 70.000000000000000
9.135041976412280 -2.760778036770789 -2.934172578576392 30.000000000000000
9.146691334087494 -2.688752770511578 -3.096646924981117 5.000000000000000
9.793582567239731 -4.209190041694626 -0.656399033787233 22.000000000000000
9.145725099676003 -3.024488248333667 -2.484127057307630 111.000000000000000
9.144301962654742 -2.948443332343327 -2.640022638491722 112.000000000000000
9.144026416468366 -2.871512395090511 -2.796686156823864 111.000000000000000
9.130408488294684 -2.789019784167135 -2.949080107491263 1.000000000000000
9.714900028924331 -4.208086749733739 -0.665122044982218 20.000000000000000
9.141031751310598 -3.052902916280809 -2.498651297259311 81.000000000000000
9.143251848690017 -2.978009744497954 -2.655744640040124 112.000000000000000
9.146604025405754 -2.902166054820186 -2.813728308255911 117.000000000000000
9.165818139012851 -2.829667803552993 -2.977027706300122 2.000000000000000
9.643611930325347 -4.209774265811381 -0.674155448097010 20.000000000000000
9.827071365784784 -4.206856777133938 -0.857438294255085 0.000000000000000
9.132560872644763 -3.080090680546109 -2.512165063655437 0.000000000000000
9.145743316126346 -3.008811505836361 -2.672544951516621 111.000000000000000
9.145398428115508 -2.931700032557699 -2.829658373394853 117.000000000000000
9.219238078579609 -2.876240973701709 -3.011036883146261 10.000000000000000
9.408870603099766 -4.219057321353206 -0.507627120296923 22.000000000000000
9.572384096362438 -4.211099974876610 -0.683007842781981 21.000000000000000
9.748155983984983 -4.206013014812421 -0.864877697207116 0.000000000000000
9.148105113623807 -3.039664568185220 -2.689363520056241 108.000000000000000
9.144072890778254 -2.961264402347472 -2.845596617147946 115.000000000000000
9.239626403721855 -2.912826671253578 -3.034443722147393 13.000000000000000
9.341704287450755 -4.220742538806581 -0.517290466694248 20.000000000000000
9.497569665370643 -4.210446683850660 -0.691413894771000 32.000000000000000
9.676632222421443 -4.207944443718024 -0.872775108821081 0.000000000000000
9.838370950861490 -4.196113391872951 -1.057635776526699 0.000000000000000
9.834539544942599 -3.947659957115731 -1.563571809014605 0.000000000000000
9.150336927663682 -3.070568520474042 -2.706200116641086 18.000000000000000
9.153559007102963 -2.994434948033881 -2.864964370716944 113.000000000000000
9.241656731472522 -2.943776193262759 -3.051915231720568 13.000000000000000
9.274593324116820 -4.222088719443823 -0.526784127886320 20.000000000000000
9.437404149787229 -4.215922890102808 -0.700711851109985 24.000000000000000
9.605171026243358 -4.209513135957801 -0.880491178157850 0.000000000000000
9.777555738243374 -4.203329698238817 -1.065757586624470 0.000000000000000
9.819621233053518 -4.138638107445074 -1.239636017130804 0.000000000000000
9.810954264111070 -4.052836938376070 -1.407463384410165 1.000000000000000
9.802894761615766 -3.967964710786718 -1.573967708257534 1.000000000000000
9.828461541281438 -3.896743542392714 -1.746250124229725 0.000000000000000
9.148339094518567 -3.022887670017014 -2.879787830060108 112.000000000000000
9.247186413720936 -2.975944054554326 -3.070609778864404 13.000000000000000
9.207539434166199 -4.223096184166974 -0.536108372951485 18.000000000000000
9.366358236192179 -4.216185704626852 -0.709032788674202 24.000000000000000
9.537420041136354 -4.212329662581559 -0.888365787649516 0.000000000000000
9.705819145911436 -4.205497203857242 -1.072516654979287 0.000000000000000
9.740428226645726 -4.138306494992355 -1.244513284407730 1.000000000000000
9.728037051297491 -4.051510187384203 -1.410668043908701 1.000000000000000
9.716268050546288 -3.965708994006397 -1.575382920051569 1.000000000000000
9.756416230008206 -3.901046167151751 -1.749081229841275 0.000000000000000
9.881478335629160 -3.869588899612874 -1.940003002699833 0.000000000000000
9.150276439681930 -3.053774467412013 -2.896909832836405 51.000000000000000
9.227195200985358 -2.999930830630054 -3.080857629678471 11.000000000000000
9.140544336647482 -4.223765260239144 -0.545263474091743 20.000000000000000
9.306281402066936 -4.221032690470715 -0.718014966083973 24.000000000000000
9.469725302978208 -4.214804641323729 -0.896069484811426 0.000000000000000
9.634147432724719 -4.207301170552261 -1.079094113037999 0.000000000000000
9.675925187883484 -4.143824065959863 -1.251077083497976 1.000000000000000
9.652524770776223 -4.052825580910035 -1.414731904027278 1.000000000000000
9.629746875227285 -3.963004936000453 -1.576575718538876 1.000000000000000
9.680777330406546 -3.903507235494800 -1.751067543393583 0.000000000000000
9.842239565368953 -3.887395094153425 -1.948353078843211 31.000000000000000
9.149203264149465 -3.004817369088089 -3.071614593288568 2.000000000000000
9.080851256741335 -4.227467467455639 -0.554692044781194 19.000000000000000
9.231728506328801 -4.218947226514825 -0.725705922064180 23.000000000000000
9.398452778373180 -4.215307719581673 -0.903253121735323 1.000000000000000
9.562542444139609 -4.208741961815844 -1.085490259228058 0.000000000000000
9.582298671298764 -4.136426776819443 -1.253662512017111 1.000000000000000
9.577089570971980 -4.053755628814701 -1.418603768299265 1.000000000000000
9.561594781348665 -3.967430277556976 -1.580565161583076 2.000000000000000
9.597908390437023 -3.902610550109991 -1.751527739702900 0.000000000000000
9.766437585182466 -3.890465935304138 -1.949316726695114 19.000000000000000
9.873386327719526 -3.851704831851587 -2.140083248822868 0.000000000000000
9.147228182542392 -3.034486143814856 -3.087800255764261 1.000000000000000
9.013968807867780 -4.227481068247230 -0.563519430364176 19.000000000000000
9.168128117683885 -4.221487404377303 -0.734078274040250 24.000000000000000
9.330880799341317 -4.217090379826948 -0.910610914087086 1.000000000000000
9.494642424139990 -4.211432905798586 -1.092123673252263 0.000000000000000
9.547059887272210 -4.153890504894124 -1.263718790787073 3.000000000000000
9.549114513073338 -4.074517815964732 -1.429376291813358 3.000000000000000
9.555503019876355 -3.997448989113723 -1.594729950984669 3.000000000000000
9.555271849396505 -3.917741228960930 -1.759164445704377 2.000000000000000
9.683415918264711 -3.890217995368014 -1.948619024440761 18.000000000000000
9.365186145368458 -3.218869016756881 -3.015969946063997 9.000000000000000
8.954371492963164 -4.230569022871832 -0.572640296107369 21.000000000000000
9.104580310153798 -4.223708936395128 -0.742291180451242 25.000000000000000
9.266995876900850 -4.220183595901093 -0.918157848297323 1.000000000000000
9.412277451569597 -4.207289141051562 -1.096893458027772 0.000000000000000
9.555420989347093 -4.190329836514116 -1.279534906739398 4.000000000000000
9.553842816484977 -4.109251360082531 -1.445040033202629 3.000000000000000
9.556580896783027 -4.030545591156933 -1.610117946253346 3.000000000000000
9.549056469704267 -3.947733532123109 -1.773464546516182 2.000000000000000
9.589564042986400 -3.885113706199967 -1.945491443147328 23.000000000000000
9.776357714506577 -3.880067995840533 -2.151650107629433 18.000000000000000
9.319322966069411 -3.234246193694819 -3.018232431848449 28.000000000000000
8.891213782603588 -4.231644422044112 -0.581376777505725 20.000000000000000
9.041086695942472 -4.225612132065018 -0.750344897894912 25.000000000000000
9.203163864958864 -4.222956994117880 -0.925544758802225 1.000000000000000
9.344520123217933 -4.209255626529000 -1.103165779612946 1.000000000000000
9.505533276052146 -4.201180803987222 -1.287517374669030 1.000000000000000
9.554791446716534 -4.142476219952881 -1.460173680381011 3.000000000000000
9.553886807622202 -4.062142463876167 -1.624902911043142 2.000000000000000
9.550002738366699 -3.980764306011139 -1.789123594717871 2.000000000000000
9.557696006685598 -3.904789003397076 -1.954772079485333 53.000000000000000
9.700566664738149 -3.882981167019132 -2.151206089510177 13.000000000000000
9.869563944900490 -3.869044079512757 -2.358348033753193 9.000000000000000
9.262635490437454 -3.245609866669249 -3.016856702706932 20.000000000000000
8.831713363818277 -4.234129426904796 -0.590195777325210 22.000000000000000
8.981257265083578 -4.228896341120791 -0.758544444603339 25.000000000000000
9.128540589782121 -4.220396554193127 -0.931664975221795 1.000000000000000
9.287689360227304 -4.215811654940858 -1.110566719285838 1.000000000000000
9.441153592919648 -4.205331668115083 -1.293391045294814 1.000000000000000
9.555604810137629 -4.175747125659042 -1.475322559654283 3.000000000000000
9.558330873070608 -4.096878091400131 -1.640940225940868 2.000000000000000
9.547180605340809 -4.012314580370300 -1.804111470267900 4.000000000000000
9.554850262947189 -3.936298854818649 -1.969971517106625 54.000000000000000
9.610329410032444 -3.879642582783212 -2.147323464343614 23.000000000000000
9.840821925843642 -3.891262098400252 -2.368256553962992 32.000000000000000
9.252821836620416 -3.273261817800722 -3.030681298303779 14.000000000000000
8.765070720758940 -4.232846054021703 -0.598375754060340 23.000000000000000
8.917871667001126 -4.230173943279151 -0.766285417126440 26.000000000000000
9.068444939397958 -4.224182389427771 -0.939091860232999 1.000000000000000
9.212814210550382 -4.213819036394458 -1.115637687782469 1.000000000000000
9.373207190010408 -4.207535557668033 -1.298602134641822 1.000000000000000
9.538163004097122 -4.201082866028267 -1.487660330867462 2.000000000000000
9.555376056712493 -4.128546317605976 -1.655745668328239 2.000000000000000
9.529722745308092 -4.037742093030432 -1.816338951772984 3.000000000000000
9.555506769547904 -3.969340976571121 -1.985930157089511 52.000000000000000
9.556485673322456 -3.890600444515611 -2.151373923035592 52.000000000000000
9.750405275432630 -3.888784298888828 -2.363166020729656 16.000000000000000
9.250101716037108 -3.303468629905280 -3.046862198098086 14.000000000000000
8.709268510709956 -4.236465492792094 -0.607139305874514 23.000000000000000
8.850947105896793 -4.229414885159870 -0.773553526141064 24.000000000000000
9.001187051197823 -4.224286200280607 -0.945611848205955 1.000000000000000
9.152468994988412 -4.218100965505402 -1.122290310293297 1.000000000000000
9.301711513608321 -4.207762208564613 -1.303136260635027 1.000000000000000
9.466358604715985 -4.202266080068865 -1.491412270038781 0.000000000000000
9.559537858693155 -4.163393446922851 -1.671822638419576 2.000000000000000
9.504937170156836 -4.060018020135404 -1.827139586223976 4.000000000000000
9.494445304675436 -3.976635775158425 -1.989002832641704 18.000000000000000
9.553364383204649 -3.922110422409795 -2.166790898112068 53.000000000000000
9.667353513983098 -3.888749171026142 -2.359610544247098 16.000000000000000
9.250850803601505 -3.334996343949739 -3.064238697514815 15.000000000000000
8.646337569423510 -4.236297004885094 -0.615254680581224 24.000000000000000
8.794871700365352 -4.233506696598826 -0.781611683616321 24.000000000000000
8.933999169149519 -4.224051247001924 -0.951963186440094 1.000000000000000
9.084961211814697 -4.218735160507624 -1.127897790280293 1.000000000000000
9.248343103650507 -4.215854642303549 -1.310047125918638 1.000000000000000
9.394631004713830 -4.203086084294443 -1.494983495989182 1.000000000000000
9.476775675897953 -4.160211605733084 -1.672608198064520 2.000000000000000
8.915842059721356 -3.839226434030913 -1.728496674669034 13.000000000000000
9.418960337274640 -3.977517428793231 -1.988868338652222 5.000000000000000
9.560965349340110 -3.958135991154289 -2.184691526107703 54.000000000000000
9.577180836118675 -3.885354177215519 -2.354066725875690 35.000000000000000
9.251465682514821 -3.366569897466353 -3.081630388402212 13.000000000000000
8.590628727322587 -4.239346112473053 -0.623732801734457 25.000000000000000
8.735249928959538 -4.235582690711404 -0.789207164664839 14.000000000000000
8.870477204368854 -4.225189897250517 -0.958534558033612 1.000000000000000
9.017523990373759 -4.219029547057906 -1.133336121407085 1.000000000000000
9.166165524129189 -4.210441680820648 -1.312697389604200 1.000000000000000
9.333805938798859 -4.208423564140594 -1.500113929549799 1.000000000000000
9.516875366386785 -4.210918608620353 -1.695046823021478 1.000000000000000
8.895383145584058 -3.861279434763125 -1.739133065620465 24.000000000000000
9.419411328326801 -4.010305816988832 -2.004684883470275 4.000000000000000
9.557575660348080 -3.989725314611869 -2.200132589338012 54.000000000000000
9.566529285047997 -3.913972323788454 -2.367943007535656 51.000000000000000
8.527815216283802 -4.238567662504934 -0.631543986817953 25.000000000000000
8.682845296525842 -4.240861505340932 -0.797312516593402 2.000000000000000
8.817784488679786 -4.231177021176474 -0.966127179343543 1.000000000000000
8.960942373567180 -4.224067620771512 -1.139977417652585 1.000000000000000
9.105696445121529 -4.214601795567005 -1.318265509715143 1.000000000000000
9.020848733123737 -4.098874546297218 -1.464162418523526 1.000000000000000
8.803285839145071 -3.925894143857400 -1.582193921595592 19.000000000000000
8.892889357243334 -3.891146164092731 -1.753281611577178 24.000000000000000
9.556766940065401 -4.101959419368831 -2.049910870043930 38.000000000000000
9.550454157372332 -4.019820834296264 -2.214741937131099 41.000000000000000
9.562979085956787 -3.945546451459123 -2.383600260306117 51.000000000000000
8.465068061562896 -4.237474692216542 -0.639198674851638 26.000000000000000
8.612590447776425 -4.237086679413832 -0.803620712776957 1.000000000000000
8.754373406093539 -4.231710683988211 -0.972396500251974 1.000000000000000
8.900813293466799 -4.227122853266979 -1.146017058438811 1.000000000000000
9.012935424600419 -4.203378197327030 -1.318950629181637 1.000000000000000
8.881363911248240 -4.066662597098321 -1.455680733313067 26.000000000000000
8.775619190501788 -3.944271709237512 -1.591456096474348 93.000000000000000
8.893876394296996 -3.922626875901769 -1.768151881321242 21.000000000000000
9.560339963343914 -4.136782446746238 -2.066719810129435 46.000000000000000
9.554016433991414 -4.054502307738387 -2.231868503197723 41.000000000000000
9.562899779892481 -3.978640676039146 -2.400164613250330 46.000000000000000
9.845249457144480 -4.014873839902699 -2.643063975060248 25.000000000000000
9.436139628917655 -3.611036964270883 -3.029848997266878 7.000000000000000
8.413078914300476 -4.241456959568424 -0.647519916204371 27.000000000000000
8.435286621436491 -4.179867037147812 -0.799596877169813 4.000000000000000
8.540751005339780 -4.158752674070206 -0.961588509031514 9.000000000000000
8.833570866031247 -4.226450627423735 -1.150973869709246 0.000000000000000
8.949030939481178 -4.205161756841272 -1.323644908201692 35.000000000000000
8.878657196847376 -4.096679421722485 -1.469424409932617 23.000000000000000
8.765880231250488 -3.970672779902974 -1.603944340153204 66.000000000000000
8.801254977974990 -3.912598064029838 -1.764299068191209 45.000000000000000
9.326467888088789 -4.068161513433695 -2.031854973433253 29.000000000000000
9.564618680913243 -4.092323241167636 -2.250710105394436 54.000000000000000
9.569867019371330 -4.014792251745499 -2.418558332328001 41.000000000000000
9.733311393630744 -4.002960397356444 -2.630220783853300 6.000000000000000
9.339506300117382 -3.606169946190662 -3.016139318608971 22.000000000000000
8.357568806215278 -4.243378942031519 -0.655434820329848 28.000000000000000
8.358242201247860 -4.171520676306764 -0.804722655592898 11.000000000000000
8.484847621580958 -4.161734580980262 -0.968156039089277 21.000000000000000
8.766405686069929 -4.225440086099153 -1.155762703164983 0.000000000000000
8.881609147115675 -4.204929804834781 -1.327644641567660 39.000000000000000
8.951140618969598 -4.161735880023436 -1.495758030016260 22.000000000000000
8.863700522951360 -4.046202957125445 -1.636292965572204 19.000000000000000
8.773404686759308 -3.931038309061469 -1.773269301330434 83.000000000000000
9.549090131529356 -4.198726528865203 -2.096466836306321 34.000000000000000
9.560694290316613 -4.124055814511722 -2.266191590730886 53.000000000000000
9.565913537833410 -4.046475650639262 -2.434246699798321 52.000000000000000
9.585740114954211 -3.975595012269207 -2.607341701230930 21.000000000000000
9.292976570318704 -3.620252920135643 -3.018402765993470 23.000000000000000
8.178630348434814 -4.252619444540772 -0.505032160931112 26.000000000000000
8.302107860859909 -4.245027380318177 -0.663213093203899 29.000000000000000
8.299114412992241 -4.171728057132512 -0.811394464732085 18.000000000000000
8.421858604888813 -4.160916152428863 -0.973760962308953 21.000000000000000
8.710037310631630 -4.229295855576612 -1.161813501990503 1.000000000000000
8.821419873385443 -4.207771362761586 -1.332556781590885 26.000000000000000
8.955239019920620 -4.195369748583138 -1.510821885188505 33.000000000000000
8.878682372401478 -4.084415482712425 -1.653569924311118 8.000000000000000
8.763433535215714 -3.957454549773758 -1.785829264048375 55.000000000000000
8.896311000608408 -3.942969619831789 -1.968203535597204 48.000000000000000
9.348811515099667 -4.065432829392674 -2.232056263815076 42.000000000000000
9.565413713367956 -4.079708447109064 -2.450856070580064 52.000000000000000
9.567288566614460 -4.001306708439059 -2.619341540946660 51.000000000000000
9.267825323187351 -3.642514134850665 -3.027535062769774 12.000000000000000
8.119992977382662 -4.251457463642383 -0.513053098709778 22.000000000000000
8.243150486290689 -4.244576154054657 -0.670566426833409 29.000000000000000
8.243603311947473 -4.173441034464026 -0.818272795038741 21.000000000000000
8.366064689931726 -4.163327031144781 -0.980043690667314 21.000000000000000
8.643015120392457 -4.227640076978635 -1.166281701901995 0.000000000000000
8.754144847483410 -4.206881742966746 -1.336229766908649 33.000000000000000
8.894842361820666 -4.198691595156018 -1.514949585671656 42.000000000000000
9.033007872771172 -4.187430724219196 -1.697113048774036 26.000000000000000
8.799887514061322 -4.005028471426616 -1.807933262852880 11.000000000000000
8.771502535668530 -3.918581730353876 -1.955473469341209 53.000000000000000
9.434399019236597 -4.135829935097216 -2.268772772619882 36.000000000000000
9.568350592781545 -4.114520706487122 -2.468400755449929 53.000000000000000
9.570187543498841 -4.035997807877907 -2.637212178999701 51.000000000000000
9.263953063587460 -3.673136300039251 -3.043623392764372 12.000000000000000
8.068484576287187 -4.253728899423404 -0.521385742445961 21.000000000000000
8.191338955352840 -4.247504786746033 -0.678360674780425 29.000000000000000
8.184595211501836 -4.173070587474750 -0.824656956445743 22.000000000000000
8.306766146030089 -4.163680494713406 -0.985767179972812 22.000000000000000
8.511968320270570 -4.194060113895079 -1.161832636718643 1.000000000000000
8.697649473091577 -4.210833179360469 -1.341384948039464 40.000000000000000
8.820225659263484 -4.194923614525268 -1.516473273080754 47.000000000000000
8.975981705619631 -4.192917965958939 -1.701145305704494 40.000000000000000
8.843244289888814 -4.056127108753812 -1.831628594170043 8.000000000000000
8.764868300355957 -3.946622679967189 -1.968907590361678 32.000000000000000
8.962335823073071 -3.960506773293851 -2.170764541159327 53.000000000000000
9.556857074461769 -4.143203883665693 -2.482258736853904 51.000000000000000
9.565802603404345 -4.067717251543467 -2.653126629883758 51.000000000000000
9.267056642132692 -3.706620950112500 -3.062061776596197 11.000000000000000
8.013492139822789 -4.253876592352112 -0.529359671713981 23.000000000000000
8.136033739194508 -4.248334348721394 -0.685730454451758 26.000000000000000
8.136282946310576 -4.177865617961758 -0.831982389133752 23.000000000000000
8.251081910676779 -4.165531636857008 -0.991770883644908 21.000000000000000
8.384763459391596 -4.161547371233739 -1.157535834015083 19.000000000000000
8.634082596500793 -4.211034000879401 -1.345291923799340 38.000000000000000
8.770660512317502 -4.202730353139895 -1.522139204038543 58.000000000000000
8.915436298558628 -4.196446900303567 -1.704355895720071 42.000000000000000
8.850660098890511 -4.091022908909719 -1.848005241519413 14.000000000000000
9.032820041559090 -4.099331182769927 -2.044512154715290 71.000000000000000
8.773375926850616 -3.908055939196081 -2.140227469749971 42.000000000000000
9.281498113119714 -4.056587920362555 -2.427126535746285 34.000000000000000
8.948797086553411 -3.836847826217749 -2.498065944313983 67.000000000000000
9.266467121442803 -3.738737546339630 -3.079344840515570 11.000000000000000
7.962076638608574 -4.255635527311572 -0.537436377264457 24.000000000000000
8.084313441587682 -4.250747775912087 -0.693267281604402 25.000000000000000
8.080927135084334 -4.178768158490549 -0.838456507544173 23.000000000000000
8.202541311087044 -4.170713143800526 -0.998500832268030 21.000000000000000
8.328841557308438 -4.163855737069313 -1.162824025434157 22.000000000000000
8.595472646107343 -4.223143187523021 -1.352958095322373 20.000000000000000
8.706889667632000 -4.203427821703968 -1.525192074267423 45.000000000000000
8.844269102100579 -4.194610294696896 -1.705357594539003 35.000000000000000
9.007511839499614 -4.195681754807627 -1.895901124438888 0.000000000000000
8.993473877283822 -4.113495061863570 -2.050996341936644 55.000000000000000
8.762922011899812 -3.934514321641867 -2.152935406870526 42.000000000000000
9.049580689605852 -3.987270835914345 -2.382508053161584 69.000000000000000
8.810034566690902 -3.808466419351048 -2.475200692143334 15.000000000000000
9.269279689745765 -3.772336053972836 -3.097823547131651 11.000000000000000
7.910706719076998 -4.257143567940734 -0.545387794776220 24.000000000000000
8.029113258968419 -4.251042842070180 -0.700370637263863 26.000000000000000
8.032692483949340 -4.183076882715862 -0.845538438861241 22.000000000000000
8.146955405045746 -4.172035734682214 -1.004240736442470 22.000000000000000
8.269429588738259 -4.164103909530528 -1.167474585390519 23.000000000000000
8.539112531287111 -4.226292782774197 -1.357712227346485 1.000000000000000
8.650297682218847 -4.207262714360889 -1.529343147023535 42.000000000000000
8.762533052260387 -4.187317969530523 -1.704107605197216 19.000000000000000
8.961037302693009 -4.206131295220292 -1.901228546785688 0.000000000000000
9.540866464600208 -4.397945753247582 -2.192205340783264 40.000000000000000
8.926564579525140 -4.039788619867624 -2.208730113516637 70.000000000000000
8.786295516978452 -3.902480373544546 -2.328802701480730 32.000000000000000
8.884559261664542 -3.872160643674162 -2.512194792517441 57.000000000000000
7.859383637455911 -4.258400985695824 -0.553214139655778 24.000000000000000
7.973970425533303 -4.251066160813933 -0.707338779583685 27.000000000000000
7.980966081651656 -4.185303311738369 -0.852127098664082 23.000000000000000
8.091426326972142 -4.173084518237913 -1.009844343859567 23.000000000000000
8.213623747698131 -4.165851960757025 -1.172483847354058 22.000000000000000
8.475719150656202 -4.225632498407354 -1.361190239313873 1.000000000000000
8.586664741867541 -4.207344160506722 -1.532089986201461 38.000000000000000
8.723517169849504 -4.200111297479698 -1.711004756312587 42.000000000000000
8.879075910110510 -4.199569769900947 -1.898852477215989 0.000000000000000
9.550257212151774 -4.436501475090282 -2.210801176782918 16.000000000000000
8.993715424470569 -4.102322299957335 -2.241100312550266 62.000000000000000
8.768480279220560 -3.925819864202015 -2.339708526025625 45.000000000000000
9.107547889464694 -4.001718864460246 -2.591759551140920 74.000000000000000
9.619863737170668 -4.064510990328696 -3.080018845358905 7.000000000000000
7.804604111192728 -4.257496293606934 -0.560663872098755 25.000000000000000
7.922399564164877 -4.252703951393424 -0.714488801537802 26.000000000000000
7.929287251913074 -4.187277304336809 -0.858589804991114 23.000000000000000
8.043010722982560 -4.177524308404824 -1.016203307746213 18.000000000000000
8.157875182261474 -4.167325332872608 -1.177356394912160 22.000000000000000
8.281512612981325 -4.158923163619454 -1.343280670649581 8.000000000000000
8.537272695146608 -4.214099590966045 -1.537229835165830 32.000000000000000
8.663236912002263 -4.202413864873159 -1.713605530699311 40.000000000000000
8.825602033988240 -4.206101659318542 -1.902382077591268 0.000000000000000
9.513394794664398 -4.453585770747203 -2.218690889567628 17.000000000000000
9.563676507478782 -4.396594159596079 -2.399930719021724 41.000000000000000
8.849746999104589 -3.993850286479606 -2.377215585727575 31.000000000000000
8.791896960182811 -3.894379929627319 -2.517926290669395 25.000000000000000
9.367670277219609 -3.991174972584893 -3.016898393302003 16.000000000000000
7.753384184833005 -4.258243471465780 -0.568236060190238 24.000000000000000
7.870877301056089 -4.254090363440362 -0.721513472780557 26.000000000000000
7.877657257581334 -4.188999140678018 -0.864926778100307 23.000000000000000
7.991109739435468 -4.179888460400533 -1.021994907477558 5.000000000000000
8.105712559481447 -4.170339116623010 -1.182607101039376 23.000000000000000
8.229086592516060 -4.162621055824077 -1.348005859958514 21.000000000000000
8.502053417107446 -4.227649345660381 -1.544819958049783 1.000000000000000
8.599485030171023 -4.202689491918917 -1.715352514901470 38.000000000000000
8.761553454300167 -4.207276755761456 -1.903475602121075 0.000000000000000
9.441122053606994 -4.453814657352604 -2.218182446699718 14.000000000000000
9.544385052539683 -4.422064887831269 -2.411912124573954 22.000000000000000
8.955360416425627 -4.073642767552611 -2.421647871653372 63.000000000000000
8.773849517627744 -3.917777954081837 -2.528769768985252 48.000000000000000
8.819925690281950 -3.863131563542272 -2.699097134352135 0.000000000000000
9.313422719588388 -4.001196420458821 -3.017011841402408 21.000000000000000
7.705707956937823 -4.260672285474796 -0.575944926335933 25.000000000000000
7.819404893364148 -4.255225680640771 -0.728413015018338 27.000000000000000
7.822567908045265 -4.188589971439665 -0.870747595561083 22.000000000000000
7.928709843992271 -4.176443320813231 -1.026294985769012 3.000000000000000
8.046555384222852 -4.169449331899584 -1.186692343177597 24.000000000000000
8.180233894447637 -4.167860193752692 -1.353186918892499 21.000000000000000
8.431527573386738 -4.223363674748166 -1.545858353807613 1.000000000000000
8.560533166243122 -4.214818844554918 -1.721914637035246 9.000000000000000
8.701115136857556 -4.209842165350890 -1.905184588952474 0.000000000000000
9.372476414458808 -4.455360550419397 -2.218330955060571 12.000000000000000
9.525011312000531 -4.447473609245792 -2.423856844230714 28.000000000000000
9.547572298351133 -4.377398835509485 -2.598969534765323 40.000000000000000
8.752200932121649 -3.939530017360035 -2.538555905645599 17.000000000000000
8.734797206763950 -3.857110101986163 -2.689315789911067 12.000000000000000
9.269761676508232 -4.015525981049748 -3.020431352680233 14.000000000000000
7.658072037585543 -4.262871216701003 -0.583538907848061 25.000000000000000
7.767983596504560 -4.256110191298669 -0.735187652208387 27.000000000000000
7.774548817869128 -4.191687488444353 -0.877224417004459 22.000000000000000
7.883946602941898 -4.181995933737831 -1.032740031257208 3.000000000000000
7.998018124472146 -4.173769865768636 -1.192204339958834 23.000000000000000
8.113817621409952 -4.163832081550555 -1.355310297735448 21.000000000000000
8.234263050052524 -4.154720889747974 -1.523256495417457 8.000000000000000
8.507476727778108 -4.219775489796726 -1.725525584285742 1.000000000000000
8.630163658037688 -4.206951369113494 -1.904410515986415 0.000000000000000
9.307441994759367 -4.458253951229803 -2.219151013458427 12.000000000000000
9.435039555913544 -4.439638945577144 -2.417695309848082 20.000000000000000
9.559777742184250 -4.417523514373348 -2.619549487983974 50.000000000000000
8.621358424058167 -3.911688083041771 -2.516444170831182 2.000000000000000
8.488073540327592 -3.778644793579471 -2.629217963187037 9.000000000000000
9.271742217132074 -4.049587565394367 -3.038705778658757 17.000000000000000
7.610477572413298 -4.264840513457103 -0.591018201554862 26.000000000000000
7.720104765743321 -4.258669445764687 -0.742173131861790 27.000000000000000
7.723072889464309 -4.192654583372886 -0.883185534609657 22.000000000000000
7.825194386719494 -4.179848225108587 -1.037220143031514 1.000000000000000
7.946010352746481 -4.176012126466951 -1.197070671951612 23.000000000000000
8.058041018711107 -4.164918944195434 -1.359047140113709 21.000000000000000
8.185266843339166 -4.160091546908892 -1.527713659253482 20.000000000000000
8.436867899756733 -4.215681206032225 -1.725408940269251 1.000000000000000
8.569879312011899 -4.208890167857952 -1.905809049317137 1.000000000000000
9.235439864774715 -4.457427186675082 -2.218120235609390 10.000000000000000
9.362822978639198 -4.439687214496711 -2.415848361983897 18.000000000000000
9.571794116608809 -4.457765632069943 -2.640177827114878 52.000000000000000
8.522451809464171 -3.897612190851121 -2.503284715147200 6.000000000000000
8.305232707552408 -3.727175646006053 -2.588159071081424 24.000000000000000
8.527059788801509 -3.754973790156198 -2.810915721512180 46.000000000000000
7.559450096264038 -4.264619683572298 -0.598108014142377 25.000000000000000
7.665299348117147 -4.257127969255841 -0.748363118502316 28.000000000000000
7.671650830377890 -4.193370689038559 -0.889021822608715 22.000000000000000
7.780512620108335 -4.184935773650518 -1.043432766763184 19.000000000000000
7.887047209459102 -4.174292279421969 -1.200744053377549 24.000000000000000
8.005835825936428 -4.167557921101996 -1.363245283290142 22.000000000000000
8.125774288096080 -4.159833672987078 -1.530069289934120 21.000000000000000
8.246897025996651 -4.151095277533563 -1.700482707776280 10.000000000000000
8.506150462549213 -4.208792065092165 -1.906272189717668 1.000000000000000
8.558961870263733 -4.162233661194465 -2.070647882425027 18.000000000000000
9.287190989131908 -4.437694650107641 -2.412909804321973 18.000000000000000
9.583620747988627 -4.498124541270944 -2.660854180510075 51.000000000000000
8.504441260967566 -3.920214834562103 -2.513724425952776 35.000000000000000
8.249035600834164 -3.731780097924664 -2.586171873040134 26.000000000000000
8.316585977571995 -3.692272429451043 -2.757460060339682 31.000000000000000
7.508478135618576 -4.264150228676505 -0.605074304706369 26.000000000000000
7.617517216897570 -4.259206679429806 -0.755109205459467 28.000000000000000
7.620283894618630 -4.193836108740549 -0.894733512527526 22.000000000000000
7.732369002167185 -4.187919324048353 -1.049064988256892 23.000000000000000
7.835157065411737 -4.176008545970491 -1.205349071559760 23.000000000000000
7.946678652955248 -4.166270533984152 -1.366112815370975 17.000000000000000
8.069862751389298 -4.161088657418358 -1.532944995374530 21.000000000000000
8.190739529345992 -4.153065293611337 -1.702772629980284 21.000000000000000
8.316183760197926 -4.145408486306033 -1.878051156992854 12.000000000000000
8.446086311089804 -4.138341222477645 -2.058188998115486 19.000000000000000
9.208163437867482 -4.433631856788159 -2.408865845163168 20.000000000000000
9.577728180398353 -4.530308397923839 -2.676679420869069 52.000000000000000
8.517880537694403 -3.957403856267674 -2.533505449760198 5.000000000000000
8.196399152616250 -3.737702794677235 -2.585150430759027 8.000000000000000
8.267368358186799 -3.700327865357284 -2.757030670651329 32.000000000000000
7.464490534210395 -4.267392914247064 -0.612485738705277 26.000000000000000
7.569779315297270 -4.261055320932576 -0.761740552714499 27.000000000000000
7.572453322107958 -4.195979449765077 -0.900734778747513 23.000000000000000
7.677296008446664 -4.186868201410052 -1.053624535928370 23.000000000000000
7.783321739214126 -4.177472173729515 -1.209828476104105 24.000000000000000
7.887599355799820 -4.164689904831658 -1.368835417053313 13.000000000000000
8.017515659310302 -4.163886595791935 -1.536355124994980 22.000000000000000
8.134645858494229 -4.154759772988523 -1.704925800625654 22.000000000000000
8.256344496652289 -4.146077849922731 -1.878828894545622 21.000000000000000
8.382505951516293 -4.138062321489469 -2.057478601653751 19.000000000000000
8.558464454341417 -4.152239278693319 -2.254278411432546 22.000000000000000
9.578704426539892 -4.565844586218192 -2.694473737761631 52.000000000000000
8.510161024195876 -3.984890202808771 -2.547058188148844 2.000000000000000
8.220642839508361 -3.778683525583351 -2.608378446223800 36.000000000000000
8.214702835205703 -3.706572934740167 -2.755313123533336 32.000000000000000
7.417079265669855 -4.268436521772528 -0.619503693587655 27.000000000000000
7.522086788146721 -4.262674157480362 -0.768257364909462 26.000000000000000
7.524668385542742 -4.197892296653826 -0.906621174089841 22.000000000000000
7.629252857929831 -4.189368612206532 -1.059016270332155 22.000000000000000
7.735028308585637 -4.180567458738031 -1.214729924024042 24.000000000000000
7.842560349378323 -4.170240094679360 -1.373859060852904 23.000000000000000
7.954742154834038 -4.160947966272803 -1.537612848566425 22.000000000000000
8.078617390486608 -4.156179065002631 -1.706942482265055 22.000000000000000
8.200078277690357 -4.148220214159593 -1.880262028172798 21.000000000000000
8.329503304444932 -4.142684177270697 -2.059205309975667 20.000000000000000
8.459708050025263 -4.135503484115324 -2.243513013380524 21.000000000000000
9.576031964217080 -4.599757927955354 -2.711297627429462 51.000000000000000
9.580831193306908 -4.521336197239610 -2.885410306505510 46.000000000000000
8.443380664988014 -3.911908998795873 -2.695113157410364 24.000000000000000
8.169050732965850 -3.715727633129441 -2.755816082148517 45.000000000000000
7.373167046728799 -4.271251464721036 -0.626701385151592 27.000000000000000
7.474440778652234 -4.264063456984263 -0.774659848728462 25.000000000000000
7.469994303793198 -4.195679208916537 -0.911546530443007 22.000000000000000
7.574306820440512 -4.187795684379296 -1.063317213122459 23.000000000000000
7.679820580692059 -4.179642753112766 -1.218411385670124 25.000000000000000
7.790585239197590 -4.171845111902061 -1.377543463232848 24.000000000000000
7.902522875851027 -4.163207763123319 -1.540756086381272 23.000000000000000
8.026145128610020 -4.159131842246654 -1.709566229573916 22.000000000000000
8.140386812032080 -4.148307950251571 -1.880751897612705 22.000000000000000
8.266080514389293 -4.141801991498349 -2.058196587513920 21.000000000000000
8.403036578843457 -4.138877625709115 -2.243678286658611 21.000000000000000
9.583678832682805 -4.638770358776995 -2.731112152680570 51.000000000000000
9.581457022884450 -4.556860579366212 -2.903567285054099 32.000000000000000
8.365925314450857 -3.906688890250749 -2.686360278857196 23.000000000000000
8.168596357399345 -3.745375857353225 -2.771535537754794 50.000000000000000
8.299405478498411 -3.733898005631737 -2.966657780568887 6.000000000000000
7.325845276705302 -4.271848403953898 -0.633496799842848 26.000000000000000
7.423388083062443 -4.263239666664716 -0.780584981166695 21.000000000000000
7.422316203087576 -4.197112371787977 -0.917194592203825 22.000000000000000
7.526369016395541 -4.189814152735769 -1.068469369975696 23.000000000000000
7.628157263863425 -4.180350336419450 -1.222515367005853 24.000000000000000
7.738667839373642 -4.173197373430164 -1.381102369210799 19.000000000000000
7.850360377177215 -4.165213807656966 -1.543773262156643 19.000000000000000
7.970245059502192 -4.160011696530629 -1.711315393552344 23.000000000000000
8.087743672241379 -4.151678003036340 -1.882718261244555 22.000000000000000
8.213201750541437 -4.145880819284596 -2.059653669234510 21.000000000000000
8.339462534766868 -4.138517218541610 -2.241833147906958 22.000000000000000
9.577219909102508 -4.671084853017229 -2.746969440784430 51.000000000000000
8.285134288558066 -3.899437619843495 -2.676291476933840 24.000000000000000
8.171480500201712 -3.776667954491014 -2.788451469246648 49.000000000000000
8.308935247851919 -3.768565241852570 -2.986555049702690 7.000000000000000
7.278572935789462 -4.272217564151933 -0.640178961654381 28.000000000000000
7.375844609528384 -4.264161007286881 -0.786754853830073 21.000000000000000
7.374687241138027 -4.198315892768612 -0.922728432380021 11.000000000000000
7.471555078768676 -4.187720763720127 -1.072512708564947 22.000000000000000
7.576553795836548 -4.180806544288326 -1.226494687322653 24.000000000000000
7.683337499207476 -4.172411790089737 -1.383910664455032 3.000000000000000
7.791305605554863 -4.163252544288227 -1.545286126685594 21.000000000000000
7.914414277643671 -4.160617425436178 -1.712928860457094 23.000000000000000
8.031678037317910 -4.152994145868203 -1.883741895602887 22.000000000000000
8.149942464380922 -4.144396957470397 -2.058347804961719 20.000000000000000
8.279456301918531 -4.139579075816068 -2.240773174528677 22.000000000000000
9.581055082149661 -4.708537063789835 -2.765835539530785 51.000000000000000
8.262946589835185 -3.990873215140665 -2.535161658396540 0.000000000000000
8.211431140268919 -3.895060791292475 -2.668273610550076 23.000000000000000
8.205381831870630 -3.822536227407916 -2.816083412003531 34.000000000000000
7.132219631538152 -4.277914218840142 -0.503107407764136 28.000000000000000
7.234784846687897 -4.274387887659738 -0.647055181543980 29.000000000000000
7.331793263428519 -4.266856875145301 -0.793183427316437 21.000000000000000
7.423699444519761 -4.254647926369318 -0.940383740862356 1.000000000000000
7.420271374089920 -4.187308216270345 -1.076924619839529 22.000000000000000
7.528472796407031 -4.182934892552715 -1.230915528549492 23.000000000000000
7.631545473658346 -4.173249707587182 -1.387214677549333 3.000000000000000
7.742741804365235 -4.166599161425246 -1.548736510496667 19.000000000000000
7.858654151709903 -4.160949398412137 -1.714406902595294 23.000000000000000
7.975682011766446 -4.154035608184603 -1.884629569204390 23.000000000000000
8.097193097186134 -4.147934191266275 -2.059536329324006 22.000000000000000
8.223000814734625 -4.142093260618879 -2.240512669281150 22.000000000000000
9.584721371244386 -4.746062265814385 -2.784728569290718 51.000000000000000
8.175933656718236 -3.908511066930801 -2.672518303140585 40.000000000000000
8.370355172352026 -3.930306455445598 -2.889150299822137 19.000000000000000
8.430978514787844 -3.885895317578561 -3.064081406230389 10.000000000000000
7.085335947157936 -4.277277121573540 -0.510077387437541 43.000000000000000
7.180753503073281 -4.270235380057143 -0.652892737751804 29.000000000000000
7.291216746833786 -4.271356573042429 -0.799884602063190 15.000000000000000
7.400104167417695 -4.269572146334059 -0.948908846315401 1.000000000000000
7.372500705811547 -4.188606094469133 -1.081719154024859 22.000000000000000
7.473531416221036 -4.180966147822709 -1.234080322149943 23.000000000000000
7.572895919397070 -4.170025878988374 -1.389124746934718 2.000000000000000
7.680375200856969 -4.162206399454897 -1.549276819163699 4.000000000000000
7.806430953209691 -4.162855684430311 -1.716511672950660 24.000000000000000
7.919756966029683 -4.154802761711638 -1.885381555626776 24.000000000000000
8.041035157576143 -4.149427398018702 -2.059710140577096 22.000000000000000
8.163149131742230 -4.142573126590076 -2.239165055057304 23.000000000000000
9.588218329684940 -4.783659891700153 -2.803648213102528 50.000000000000000
8.150795813130213 -3.926797494942144 -2.680090492198929 25.000000000000000
8.400058336880299 -3.975390271416267 -2.915971900916856 15.000000000000000
8.419153029924088 -3.911554206581326 -3.076687495943644 14.000000000000000
7.140859105955178 -4.338601688742907 -0.524452681692266 22.000000000000000
7.143906628609836 -4.276057048808489 -0.660180427640576 29.000000000000000
7.243808059010744 -4.271621664916745 -0.805727718292532 9.000000000000000
7.345537925066863 -4.266434617697553 -0.953368892043547 0.000000000000000
7.324781957833127 -4.189674130692518 -1.086399534613377 23.000000000000000
7.425563942984270 -4.182612902660786 -1.238262264283067 23.000000000000000
7.531600506913713 -4.176085343564371 -1.394087876542925 3.000000000000000
7.628477468832935 -4.163161520144542 -1.551773715686675 4.000000000000000
7.747351331489812 -4.160793579531257 -1.716957813982197 24.000000000000000
7.863904268375755 -4.155295983213856 -1.885998130886766 24.000000000000000
7.984948439333643 -4.150645793515728 -2.059748022927416 22.000000000000000
