# This PCD file was generated using the MATLAB® pcwrite function
# from Computer Vision Toolbox®.
# .PCD v.7 - Point Cloud Data file format
VERSION .7
FIELDS x y z intensity
SIZE 8 8 8 8
TYPE F F F F
COUNT 1 1 1 1
WIDTH 637
HEIGHT 1
VIEWPOINT 0 0 0 1 0 0 0
POINTS 637
DATA ascii
1.949510752527825 -4.550552451245822 -0.966341665374642 44.000000000000000
1.967424243780929 -4.561858088732174 -1.060703833900811 23.000000000000000
2.018805054859038 -4.650272293184648 -1.175163711877959 10.000000000000000
2.045192706661023 -4.678921367189619 -1.278506015737505 7.000000000000000
2.087858055629122 -4.744613994373121 -1.394600582225363 8.000000000000000
2.198893042218671 -4.962432925533404 -1.561740326835515 48.000000000000000
2.226753033281363 -4.990586002920347 -1.675791835589302 76.000000000000000
2.247443008377660 -5.002764382186389 -1.786385305700202 78.000000000000000
2.151007953631221 -4.754229643805452 -1.800240338781661 38.000000000000000
2.240748109648027 -4.917757287305629 -1.969826178184556 39.000000000000000
2.290799694675459 -4.992145712093346 -2.110017523174357 72.000000000000000
2.196843914312854 -4.753535606078627 -2.116052943073324 33.000000000000000
2.152074408669591 -4.623808262156955 -2.163463171481897 42.000000000000000
2.145376836428707 -4.576955306349071 -2.247634835421055 49.000000000000000
2.156723882685306 -4.568282629523280 -2.350855144548615 16.000000000000000
2.372318018751376 -4.989825415143744 -2.687468240611060 61.000000000000000
2.392666750300538 -4.995208658800494 -2.812824252784170 6.000000000000000
2.426714416315373 -5.030185971357208 -2.958155884196822 9.000000000000000
2.363931899357655 -4.863221600889552 -2.983936600506214 33.000000000000000
2.286009776884302 -4.665822107809257 -2.984682120137380 21.000000000000000
2.264805820490228 -4.583927229512285 -3.054865258895951 23.000000000000000
1.933874383960659 -4.552531792298451 -0.967566094472432 54.000000000000000
1.940853067813340 -4.538744737286720 -1.056025368498148 33.000000000000000
1.997964879529944 -4.641777817280310 -1.173617925548742 15.000000000000000
2.019487350273648 -4.659914064289602 -1.273800516376361 11.000000000000000
2.037081237502677 -4.669244842749289 -1.372817770235265 8.000000000000000
2.060665264550217 -4.690820509812719 -1.476511297686720 6.000000000000000
2.164004056748408 -4.892164174658732 -1.642873132826176 24.000000000000000
2.223171346457991 -4.991956648099255 -1.782521244694103 76.000000000000000
2.132052411254449 -4.753625833757240 -1.799871647729322 39.000000000000000
2.108183530718291 -4.667499218962935 -1.869309295378525 6.000000000000000
2.187268030955443 -4.808579003021287 -2.032000623145354 11.000000000000000
2.177445422668131 -4.753270290908465 -2.115361192058830 36.000000000000000
2.134517237341028 -4.626825518429367 -2.164166764716814 41.000000000000000
2.126293455279018 -4.576683259349287 -2.246646942808239 50.000000000000000
2.137523424093580 -4.568119716677501 -2.349759959134877 15.000000000000000
2.352999068370570 -4.993635015249320 -2.688234498462353 68.000000000000000
2.370099450031792 -4.992686184317230 -2.809931184546492 68.000000000000000
2.388613013341345 -4.995998957714036 -2.936383198258812 18.000000000000000
2.346076689417893 -4.870311519417829 -2.986463773628599 31.000000000000000
2.265676408736600 -4.666456626908974 -2.983144140009288 15.000000000000000
2.249139710583938 -4.593836367472434 -3.059352544438458 16.000000000000000
1.924336507248842 -4.568933336912379 -0.971844210622275 23.000000000000000
1.969403358242400 -4.645153233218444 -1.081481323215429 24.000000000000000
1.975666778451299 -4.629623812619158 -1.171131134482177 15.000000000000000
1.998515615154174 -4.651496085694836 -1.271974646268764 15.000000000000000
2.014402663735323 -4.657427840689906 -1.369702090639638 12.000000000000000
2.033167802818765 -4.668621258131320 -1.469763325745151 9.000000000000000
2.052789071565772 -4.681381614757096 -1.572204568328937 21.000000000000000
2.112998786898540 -4.786267920442257 -1.709061590555077 8.000000000000000
2.110050793641447 -4.746051568375703 -1.796857300558850 30.000000000000000
2.072508905664955 -4.629110451924011 -1.853656726534698 7.000000000000000
2.092678951867362 -4.641470046806530 -1.960965733767196 6.000000000000000
2.159604608046757 -4.756317217739205 -2.116140463471367 36.000000000000000
2.116962297227460 -4.629789265393535 -2.164843179115804 41.000000000000000
2.107235511465917 -4.576348598654791 -2.245628643121407 50.000000000000000
2.118348262130474 -4.567893839880704 -2.348634179243057 17.000000000000000
2.332158767362183 -4.994128436672661 -2.687218011593622 70.000000000000000
2.349095716972287 -4.993312132267941 -2.808815989389168 70.000000000000000
2.362890887548258 -4.987185184419468 -2.929545116540853 67.000000000000000
2.317642851788422 -4.855239601266990 -2.975413252952064 24.000000000000000
2.254384232247991 -4.685768030590187 -2.993548011455736 12.000000000000000
2.252901257811282 -4.643846636345823 -3.090530753875768 13.000000000000000
1.938911701907514 -4.643272366125033 -0.988446835285415 39.000000000000000
1.953357762960962 -4.647215064770611 -1.082645644543597 31.000000000000000
1.950427164917790 -4.610209651274355 -1.166790832003548 14.000000000000000
1.979135604297168 -4.646570311146176 -1.271090320700388 20.000000000000000
1.991818646478656 -4.645524765199552 -1.366548255810084 16.000000000000000
2.010402691692298 -4.656892282184860 -1.466299863385199 12.000000000000000
2.023742124132385 -4.655811517740417 -1.563723417452021 48.000000000000000
2.048406812424991 -4.680989564247204 -1.671449140781635 8.000000000000000
2.074403257174622 -4.707269198766674 -1.782022395192009 7.000000000000000
2.046256010257288 -4.611161782910172 -1.846187247359975 10.000000000000000
2.006861657805428 -4.490891899549707 -1.896939701990883 6.000000000000000
2.134160135432032 -4.742408934261377 -2.109374792816725 30.000000000000000
2.099409791578436 -4.632699536997642 -2.165492444439929 40.000000000000000
2.089719740658200 -4.579274585736941 -2.246210068966655 50.000000000000000
2.097685164891505 -4.564311974777963 -2.345785400647850 17.000000000000000
2.311341859566863 -4.994554387243987 -2.686168513156954 71.000000000000000
2.325103352846736 -4.987409760385551 -2.804035356515998 72.000000000000000
2.343265806980436 -4.991065171116887 -2.930172318397042 67.000000000000000
2.310296470462246 -4.884342817696845 -2.991438025061347 32.000000000000000
2.254907719209660 -4.730094616610580 -3.019917233263242 10.000000000000000
1.924519629763948 -4.648838583258899 -0.990408007568924 60.000000000000000
1.935811976061599 -4.645618241409788 -1.082943742037005 47.000000000000000
1.944912097661498 -4.637390846430357 -1.174231267601864 38.000000000000000
1.961313526922068 -4.645150255516629 -1.271152371978399 31.000000000000000
1.975370441404969 -4.647749333063843 -1.367538575773325 22.000000000000000
1.989244228626226 -4.648609391453406 -1.463910558937414 16.000000000000000
2.003956715774574 -4.651180893015370 -1.562265592577242 51.000000000000000
2.020833729567667 -4.659078253452002 -1.663597567217591 12.000000000000000
2.039035406656683 -4.668326812382563 -1.767122911172420 9.000000000000000
2.026193310081771 -4.606859056851384 -1.844177404830201 13.000000000000000
1.990087944497045 -4.493390171525689 -1.897582340665055 7.000000000000000
2.096757514578809 -4.701324063210368 -2.090525287514229 26.000000000000000
2.078844919881153 -4.628843034906837 -2.162977567446965 40.000000000000000
2.072206668899145 -4.582147219697480 -2.246764424319684 50.000000000000000
2.081576684281479 -4.570551371458106 -2.347985235966815 17.000000000000000
2.292046679985015 -4.998179775551439 -2.686842188897266 71.000000000000000
2.305663727026563 -4.991125629076574 -2.804668203664909 74.000000000000000
2.322151192899781 -4.991684065855957 -2.928890579040784 68.000000000000000
2.299795298438185 -4.907123709414349 -3.003580277899224 25.000000000000000
2.255130587891392 -4.774480849144185 -3.046298516677584 10.000000000000000
1.907129390092468 -4.647103797590467 -0.990799567958021 82.000000000000000
1.919785731394468 -4.647577768757158 -1.084057022895215 65.000000000000000
1.928776233038742 -4.639408788953357 -1.175290743538475 50.000000000000000
1.943518186432508 -4.643671686543061 -1.271186188803364 39.000000000000000
1.957427319951668 -4.646366012091679 -1.367456459557706 32.000000000000000
1.971158512761454 -4.647322972166670 -1.463714217304735 23.000000000000000
1.985721834946049 -4.649996261085753 -1.561956326568391 42.000000000000000
2.000930779802153 -4.654512062357377 -1.661931850531191 16.000000000000000
2.014455562915502 -4.653498689296230 -1.761346852200629 13.000000000000000
2.006180323880666 -4.602486619947914 -1.842135017113155 18.000000000000000
1.970319048579832 -4.489004643815190 -1.895314262756740 5.000000000000000
2.035692354591183 -4.605842981519108 -2.047501664724643 12.000000000000000
2.059825258677128 -4.628276402150481 -2.161999410039862 41.000000000000000
2.051710021158490 -4.578302340376784 -2.244025327214088 51.000000000000000
2.062467269029301 -4.570141855679052 -2.346769733730438 17.000000000000000
2.271265714464420 -4.998475628041356 -2.685728476628829 72.000000000000000
2.284741914116624 -4.991543646115046 -2.803451874886963 73.000000000000000
2.301060047413559 -4.992234812725072 -2.927575487124622 69.000000000000000
2.287682018540853 -4.926727145207659 -3.013770830491072 29.000000000000000
2.259456878272192 -4.828337468096849 -3.078692564937360 9.000000000000000
1.894202103966440 -4.656216424257450 -0.993490311882446 86.000000000000000
1.906726866101105 -4.656724956422885 -1.086834549651664 77.000000000000000
1.914128474058161 -4.644978258601911 -1.177237937680964 66.000000000000000
1.925749815109218 -4.642134737529465 -1.271191853430884 52.000000000000000
1.938023794765350 -4.641361788760663 -1.366297374935533 43.000000000000000
1.951611072041589 -4.642436119231440 -1.462373790226018 34.000000000000000
1.966024404448491 -4.645232757554941 -1.560436050997118 46.000000000000000
1.981077685039194 -4.649876824466779 -1.660233936265154 21.000000000000000
1.997442497469021 -4.655934492173070 -1.762099166873934 17.000000000000000
1.983239499262447 -4.591151081929536 -1.837301508044472 26.000000000000000
1.952088438492450 -4.487970964326683 -1.894458062788598 7.000000000000000
2.010975794239998 -4.591497218086911 -2.040557191377140 13.000000000000000
2.043800427281143 -4.634378724604771 -2.164134388243041 41.000000000000000
2.032744655081017 -4.577722972080106 -2.242887772076357 52.000000000000000
2.043384129285843 -4.569669868582250 -2.345523948365099 17.000000000000000
2.251983697721514 -5.001980044121837 -2.686341203831603 73.000000000000000
2.265315059342207 -4.995137720549123 -2.804023329907355 72.000000000000000
2.279992637695468 -4.992717536441683 -2.926227122655065 69.000000000000000
2.295913016036161 -4.990791650931452 -3.051137184688466 65.000000000000000
1.878299472348680 -4.658019442794172 -0.994608446940882 69.000000000000000
1.889216604036370 -4.654972717265703 -1.087055483655383 72.000000000000000
1.897989997821297 -4.646902064079913 -1.178249199032261 73.000000000000000
1.912432157603210 -4.651298134975694 -1.274116518273257 64.000000000000000
1.923098064958932 -4.646989348847915 -1.368257221521318 56.000000000000000
1.935068070678313 -4.644572390528328 -1.463235753726408 47.000000000000000
1.946377124359637 -4.640400937605247 -1.558883968755163 57.000000000000000
1.961274727072579 -4.645172769926424 -1.658503959139215 28.000000000000000
1.975999413533479 -4.647889435339967 -1.758878652599567 22.000000000000000
1.964827317227759 -4.590082344713656 -1.836572264361944 30.000000000000000
1.935361523659581 -4.490302528452615 -1.895018463158106 7.000000000000000
1.990803187035687 -4.587248798553841 -2.038099882403923 18.000000000000000
2.023337812193299 -4.630326725461685 -2.161525968667529 41.000000000000000
2.015275876966406 -4.580422553327411 -2.243356497012206 53.000000000000000
2.024327511763049 -4.569135543335613 -2.344247962939582 17.000000000000000
2.229776563595242 -4.998866077913550 -2.683402767295024 73.000000000000000
2.244429793220018 -4.995425191685802 -2.802742595668969 73.000000000000000
2.258949230225422 -4.993132362570300 -2.924845566028591 70.000000000000000
2.276156089584337 -4.994521145818910 -3.051601543422057 67.000000000000000
1.868226124602114 -4.674347171912198 -0.998816131122543 52.000000000000000
1.879028041484411 -4.671297041263055 -1.091485946589462 63.000000000000000
1.886239372061635 -4.659604582299441 -1.181982304393163 68.000000000000000
1.896147211710876 -4.653248113228047 -1.275054409921668 65.000000000000000
1.906689459203237 -4.649004850025099 -1.369143239623370 63.000000000000000
1.921460749061168 -4.653757828882141 -1.466309196566494 55.000000000000000
1.932645662377496 -4.649612146402474 -1.562040854689798 77.000000000000000
1.942988593002688 -4.643904963755704 -1.657993370030943 39.000000000000000
1.954629890612067 -4.639766600382504 -1.755622933519846 29.000000000000000
1.947908184813950 -4.592408885794210 -1.837196322991423 39.000000000000000
1.920103626024331 -4.496012539099969 -1.897000082652621 7.000000000000000
1.973607046003356 -4.589735178991655 -2.038632437368822 20.000000000000000
2.005847184491773 -4.632952682984917 -2.162033882641362 43.000000000000000
1.994894137495532 -4.576378411990394 -2.240522709202976 54.000000000000000
2.006752885718186 -4.571854354255267 -2.344642108966501 18.000000000000000
2.211971754224296 -5.005529866762457 -2.685715493395179 70.000000000000000
2.225016651908911 -4.998897718650696 -2.803252842181191 73.000000000000000
2.237930090786318 -4.993479417519977 -2.923430898030169 70.000000000000000
2.254961732604234 -4.995005545289851 -3.050090357188479 68.000000000000000
1.855177633157727 -4.683364998275234 -1.001451068381137 41.000000000000000
1.861515935413095 -4.669451254646046 -1.091659013926773 48.000000000000000
1.871525853273972 -4.665056251772205 -1.183865342143346 53.000000000000000
1.882770271442031 -4.662337919361657 -1.277937882158797 56.000000000000000
1.893191418676034 -4.658120229901009 -1.372110118043882 62.000000000000000
1.904903677526166 -4.655801906050371 -1.467123236461420 61.000000000000000
1.914508096109237 -4.648193582994200 -1.561618123916257 90.000000000000000
1.927639632262324 -4.649595651342328 -1.659959555877818 49.000000000000000
1.939153166929861 -4.645506319809155 -1.757606334706122 40.000000000000000
1.930993378834381 -4.594683934620818 -1.837794360595097 45.000000000000000
1.901921109285081 -4.494812678497971 -1.896061992464829 7.000000000000000
1.953512259015546 -4.585355955121561 -2.036113115400815 21.000000000000000
1.988360262586543 -4.635525511202149 -2.162514901951157 42.000000000000000
1.978902607172762 -4.582312777335372 -2.242573985846140 55.000000000000000
1.989181883047999 -4.574519776079189 -2.345009222671421 19.000000000000000
2.188386204804616 -4.998989037811386 -2.680946552705302 70.000000000000000
2.202732990658177 -4.995798309562129 -2.800082609860337 74.000000000000000
2.218366688776217 -4.996982688340720 -2.923869567294545 69.000000000000000
2.236644508964969 -5.001801649537003 -3.052439286735408 68.000000000000000
1.843522475020459 -4.696002565260057 -1.004848640923304 31.000000000000000
1.851212358485453 -4.685724037918371 -1.096056131895022 35.000000000000000
1.859671010982379 -4.677702532650372 -1.187563365445432 41.000000000000000
1.866472074535059 -4.664197173858358 -1.278828650896009 48.000000000000000
1.878210797366080 -4.663623441009547 -1.374003129954128 54.000000000000000
1.891236531166313 -4.664912183658641 -1.470154652387012 56.000000000000000
1.899284772102559 -4.653788399998747 -1.563543054250962 72.000000000000000
1.912272043472809 -4.655243762550254 -1.661902868097076 53.000000000000000
1.922214550266176 -4.647713833943118 -1.758246666574052 50.000000000000000
1.914083094373204 -4.596907531358371 -1.838366409608101 48.000000000000000
1.898179611135278 -4.527933946894436 -1.909594809490041 6.000000000000000
1.937787438710950 -4.591140137821143 -2.038104039852163 32.000000000000000
1.966564605769565 -4.627896353023310 -2.158236084632065 44.000000000000000
1.958587062835255 -4.578140936118881 -2.239679058777595 54.000000000000000
1.970182886706086 -4.573807858745988 -2.343646104727398 18.000000000000000
2.169156743028628 -5.002243647249896 -2.681434973614218 69.000000000000000
2.183346211537221 -4.999145234030681 -2.800530351493160 74.000000000000000
2.197385175095549 -4.997198888382879 -2.922390402087857 69.000000000000000
2.214060831485833 -4.998964265063691 -3.048916350295050 69.000000000000000
1.830382364404197 -4.704960579261553 -1.007447441642933 24.000000000000000
1.840822968193592 -4.701981137452939 -1.100439995096371 23.000000000000000
1.846325935073646 -4.686702712075081 -1.190325262313837 33.000000000000000
1.855893800640976 -4.680419232984137 -1.283647149435771 37.000000000000000
1.866072054898233 -4.676251762651621 -1.377985681429777 44.000000000000000
1.876097084388418 -4.670426465099626 -1.472043601272154 49.000000000000000
1.885474789853498 -4.662881517734399 -1.566634854839458 59.000000000000000
1.895454366246943 -4.657331619565742 -1.662567571820325 55.000000000000000
1.906712040110037 -4.653363394447813 -1.760182466482540 56.000000000000000
1.898608278522412 -4.602548102674511 -1.840299314593530 54.000000000000000
1.905669722683740 -4.588619587223867 -1.934739566916421 25.000000000000000
1.920615728623025 -4.593465481802212 -2.038555883574794 40.000000000000000
1.950546663372355 -4.633737464034960 -2.160238141595928 44.000000000000000
1.942591990412593 -4.583973707353996 -2.241678257259971 56.000000000000000
1.951211363996767 -4.573034078840499 -2.342253087685725 19.000000000000000
2.149929311875593 -5.005440322630180 -2.681893944682753 68.000000000000000
2.163961262065921 -5.002433777704611 -2.800948402944628 74.000000000000000
2.175020927961774 -4.994115232001010 -2.918989039449069 71.000000000000000
2.191525348224697 -4.996050388001856 -3.045357313786861 69.000000000000000
1.820023989500716 -4.721206073605414 -1.011595713807278 17.000000000000000
1.830347787064903 -4.718222216616877 -1.104810433065115 8.000000000000000
1.834355799889106 -4.699296163538149 -1.193989265767841 24.000000000000000
1.843811707725385 -4.693017681179371 -1.287462399681089 28.000000000000000
1.853869360595676 -4.688855110202724 -1.381951572729803 35.000000000000000
1.862359092573076 -4.679465408914128 -1.475034269800712 41.000000000000000
1.871623464911444 -4.671940723049540 -1.569706815269727 46.000000000000000
1.881481588616272 -4.666412033272458 -1.665720795159859 51.000000000000000
1.892610874016417 -4.662467669757864 -1.763418075221381 53.000000000000000
1.880276868968470 -4.601200532188194 -1.839432673030791 55.000000000000000
1.890080628046135 -4.594252960172673 -1.936661807706590 53.000000000000000
1.904864928936849 -4.599158129898845 -2.040498492695294 48.000000000000000
1.934509624789958 -4.639534134951533 -2.162216344914298 46.000000000000000
1.923755024382466 -4.583037175787673 -2.240366231559330 57.000000000000000
1.932267558223297 -4.572198573369111 -2.340830256366158 19.000000000000000
2.127895026834503 -5.001975828989346 -2.678787143649030 69.000000000000000
2.143177592002879 -5.002394434590397 -2.799507051235229 72.000000000000000
2.156893599698673 -5.000665836962066 -2.921224261610083 69.000000000000000
2.173212269227058 -5.002668442711857 -3.047615606531753 69.000000000000000
1.809580309185718 -4.737435443393015 -1.015730537244472 12.000000000000000
1.819786839147549 -4.734446938691086 -1.109167275384547 4.000000000000000
1.825130302507460 -4.719125123767737 -1.199482157054942 19.000000000000000
1.831666040615552 -4.705591191787682 -1.291261031482762 21.000000000000000
1.840195903533498 -4.697841616275535 -1.384841935026597 27.000000000000000
1.848580073502907 -4.688470579474608 -1.478005188505444 32.000000000000000
1.857730906848673 -4.680965865037441 -1.572758865208994 37.000000000000000
1.867467372873653 -4.675458069037819 -1.668853934867136 42.000000000000000
1.875651765844744 -4.664533428988047 -1.763984791072900 46.000000000000000
1.836640950483552 -4.537211008714591 -1.813523168147017 51.000000000000000
1.809787635019173 -4.441108808814094 -1.871663769058310 47.000000000000000
1.887690999339710 -4.601383426475891 -2.040899128708924 53.000000000000000
1.915648891505698 -4.638494954309945 -2.161006682848103 46.000000000000000
1.906345797306283 -4.585406049436139 -2.240669779973644 56.000000000000000
1.913351711952274 -4.571301480115564 -2.339377695940217 19.000000000000000
2.107303019226641 -5.001742472711643 -2.677414839323689 69.000000000000000
2.122419693279063 -5.002288356889687 -2.798033209257369 73.000000000000000
2.135976269039789 -5.000684376172457 -2.919648120579524 68.000000000000000
2.150738879855481 -4.999614873599467 -3.043989058186801 70.000000000000000
1.801827662160156 -4.760984230662780 -1.021425587722771 9.000000000000000
1.809140150011052 -4.750654966875411 -1.113510351689634 8.000000000000000
1.814403274858409 -4.735311254072005 -1.204039901017442 15.000000000000000
1.820851085970742 -4.721754953246275 -1.296035294354841 16.000000000000000
1.826481732283521 -4.706794466295809 -1.387712626476297 19.000000000000000
1.836156453082363 -4.701016744499702 -1.482083347095372 24.000000000000000
1.845194041953655 -4.693509790615724 -1.576984715503950 28.000000000000000
1.854808523483327 -4.687999695776647 -1.673226880495191 35.000000000000000
1.864283709883196 -4.680571931952787 -1.769828420745894 36.000000000000000
1.789267984672460 -4.462569538838133 -1.783361205718057 56.000000000000000
1.796095593607862 -4.449919110921731 -1.874930538680295 32.000000000000000
1.873307691449865 -4.610412260928925 -2.044313351086622 55.000000000000000
1.898207008836968 -4.640794380007490 -2.161350891015411 43.000000000000000
1.886165550299392 -4.580980453846545 -2.237653592122716 56.000000000000000
1.895848909164958 -4.573683831598557 -2.339604479862350 19.000000000000000
2.088118287389288 -5.004753016771026 -2.677781406125554 68.000000000000000
2.101687826049688 -5.002115676602844 -2.796526960306052 74.000000000000000
2.115084758823008 -5.000635855058838 -2.918039326002064 70.000000000000000
2.131050183349338 -5.002907613905945 -3.044234636615365 70.000000000000000
1.798074592935821 -4.795548018892231 -1.029477030699318 4.000000000000000
1.802545187881971 -4.777812634457111 -1.120411208291649 7.000000000000000
1.809114155062457 -4.766032988672847 -1.212285248955387 11.000000000000000
1.812715038023744 -4.745140350063599 -1.302782886409271 12.000000000000000
1.816878238880174 -4.726512855175195 -1.393748074419225 14.000000000000000
1.825053534168412 -4.717115987570360 -1.487272791799636 16.000000000000000
1.833978072267850 -4.709584620922838 -1.582388425389859 21.000000000000000
1.842085125706820 -4.700514845027238 -1.677582362010355 26.000000000000000
1.852827485214537 -4.696591931832886 -1.775657212379634 20.000000000000000
1.829606303457734 -4.607255180910101 -1.840837981008856 39.000000000000000
1.798955589299827 -4.500204219350662 -1.895662620791317 51.000000000000000
1.857501565106256 -4.615973632788640 -2.046185562706336 50.000000000000000
1.880770060931412 -4.643040981262414 -2.161668435311439 39.000000000000000
1.871541924144062 -4.589985510021142 -2.241196966794108 56.000000000000000
1.875604864483084 -4.569323085267790 -2.336383730204916 20.000000000000000
2.066197997202297 -5.001077529130532 -2.674573869606684 65.000000000000000
2.082347723666003 -5.005158597764792 -2.796822369934175 74.000000000000000
2.094219330095575 -5.000520405788444 -2.916397961312449 69.000000000000000
2.111363799337283 -5.006141231883684 -3.044450175858053 70.000000000000000
2.515048255871506 -6.771010140746125 -1.454433891433659 47.000000000000000
1.838194720971587 -4.918422597043389 -1.153921715145859 6.000000000000000
1.813233610887154 -4.822264578513956 -1.227014346761581 7.000000000000000
1.805817546857964 -4.772147645808819 -1.310516628685510 7.000000000000000
1.809909146167429 -4.753429104934653 -1.401897509441983 10.000000000000000
1.816609639238740 -4.740363240308718 -1.494707251790367 11.000000000000000
1.824048120460752 -4.729202283578299 -1.588973950460302 15.000000000000000
1.832043944578241 -4.720079850313859 -1.684445663058118 19.000000000000000
1.842656192126177 -4.716107320425447 -1.782799455869497 10.000000000000000
1.805866036207461 -4.591725177340893 -1.834285625262895 37.000000000000000
1.806976764324910 -4.564406395090887 -1.922241720919429 39.000000000000000
1.849892969157402 -4.642107452882644 -2.057170483589879 35.000000000000000
1.861971160857497 -4.641826704252293 -2.160373172353629 38.000000000000000
1.851418981743236 -4.585437982089966 -2.238122040114781 57.000000000000000
1.859496887735872 -4.574940365249224 -2.338266019706463 19.000000000000000
2.047042953038400 -5.003964488426164 -2.674879164931700 62.000000000000000
2.061656904573308 -5.004857223722123 -2.795252936315727 73.000000000000000
2.074729221870590 -5.003591471803039 -2.916620482547591 70.000000000000000
2.088991414691102 -5.002877052600804 -3.040722293453839 72.000000000000000
2.012024704047963 -5.468235151435600 -1.175285888158617 0.000000000000000
1.870267080266008 -5.051956519599190 -1.185787659133161 25.000000000000000
1.864544130386383 -5.006181198266287 -1.274240556553906 67.000000000000000
1.832754560926948 -4.889847869317527 -1.343153950346833 11.000000000000000
1.805504898093221 -4.787566774063136 -1.412168703394919 6.000000000000000
1.810755027650625 -4.770782239938327 -1.504394578867869 7.000000000000000
1.814007363588716 -4.748809340107026 -1.595547284212600 9.000000000000000
1.820529934663090 -4.736091701451762 -1.690032589163697 12.000000000000000
1.833734705299138 -4.739129892691183 -1.791259023922097 12.000000000000000
1.790412052629134 -4.597062713082013 -1.836065111533729 24.000000000000000
1.795551340242626 -4.580163579187885 -1.928406848264578 32.000000000000000
1.843482553800457 -4.671686306794023 -2.069672226403631 27.000000000000000
1.844556470503419 -4.643963709367446 -2.160636131606180 39.000000000000000
1.832701176970479 -4.584204672267754 -2.236665803979109 58.000000000000000
1.839322213318041 -4.570453242565375 -2.334985000619592 20.000000000000000
2.023854366081062 -4.996826813153565 -2.669829826832453 60.000000000000000
2.042334755365987 -5.007779878021055 -2.795488050468395 71.000000000000000
2.053904935377084 -5.003346642704459 -2.914915588721513 71.000000000000000
2.068001429139231 -5.002760953263798 -3.038917065926152 71.000000000000000
1.993718369440421 -5.470350238173957 -1.176416310268590 0.000000000000000
1.850417705418433 -5.046360427554995 -1.184996519269548 25.000000000000000
1.851423816142806 -5.018886672384709 -1.277891397098496 78.000000000000000
1.863001752179426 -5.018645258305726 -1.378843081232171 75.000000000000000
1.862951217838300 -4.987867327540871 -1.471451080670057 49.000000000000000
1.820918084384397 -4.844306689766288 -1.527666856826920 6.000000000000000
1.811956945590286 -4.789820343474044 -1.609303297880585 6.000000000000000
1.815677889658549 -4.769815932697393 -1.701931188148090 8.000000000000000
1.816580523522383 -4.741015151703964 -1.791721667244272 32.000000000000000
1.800566737951826 -4.668804757386026 -1.864355534652965 23.000000000000000
1.806944657527294 -4.654912736782314 -1.959396442166659 24.000000000000000
1.832852035999654 -4.690945025216723 -2.077592882286230 20.000000000000000
1.827147324593170 -4.646048051004999 -2.160872546446152 37.000000000000000
1.816694081247377 -4.589685176123812 -2.238484442481136 60.000000000000000
1.821875605604613 -4.572611628146408 -2.335100892005114 21.000000000000000
2.002074148266781 -4.992933740718655 -2.666519785344760 58.000000000000000
2.020355906431051 -5.004055907701838 -2.792017636753659 73.000000000000000
2.034432859326200 -5.006296685194717 -2.915077433054257 70.000000000000000
2.048358726943508 -5.005805289218295 -3.039038652631537 72.000000000000000
1.970091460071560 -5.457660055067857 -1.174345078020014 0.000000000000000
1.833286233176671 -5.048039700862597 -1.185899138105751 25.000000000000000
1.831565001769128 -5.013293842604791 -1.276870585453102 74.000000000000000
1.844331484344519 -5.016793127243179 -1.378632690132195 75.000000000000000
1.856269367483225 -5.018611531910477 -1.480711426010684 77.000000000000000
1.866751715448981 -5.015002773832625 -1.581576811703864 73.000000000000000
1.861857047327044 -4.970219335305789 -1.669881461143608 38.000000000000000
1.828017868081438 -4.849714199681467 -1.730294441817041 7.000000000000000
1.804783716674860 -4.756953695295386 -1.797488046369389 41.000000000000000
1.790202417399905 -4.688137153787697 -1.871705460805982 17.000000000000000
1.796478350478188 -4.674175061452758 -1.967016276281483 20.000000000000000
1.824777048891434 -4.717087646997029 -2.088553770528091 15.000000000000000
1.808412248012941 -4.644659552567508 -2.159492250965533 36.000000000000000
1.799340251278101 -4.591730007237945 -2.238625962674667 61.000000000000000
1.804434720163604 -4.574717263804327 -2.335190205726022 20.000000000000000
1.984311116588555 -4.998958483584967 -2.668508848022985 55.000000000000000
2.002382689956896 -5.010152883333508 -2.794030717187253 72.000000000000000
2.013650697702842 -5.005922883682739 -2.913309278168443 71.000000000000000
2.027410410030061 -5.005559264347246 -3.037169649593053 72.000000000000000
1.953158790175520 -5.463341597212520 -1.176209731522171 1.000000000000000
1.814838554697832 -5.045992238562649 -1.185912032466063 24.000000000000000
1.817051663539783 -5.022265265175905 -1.279546348607547 75.000000000000000
1.827014843354776 -5.018520270410646 -1.379393728287459 74.000000000000000
1.834823897802837 -5.009550041396761 -1.478217049960290 77.000000000000000
1.849148846647380 -5.016867189303997 -1.582235174627233 78.000000000000000
1.862828269885860 -5.022185784850197 -1.687298663355918 78.000000000000000
1.871683587504439 -5.015035961121021 -1.789120134851061 73.000000000000000
1.787594500375137 -4.758751113984152 -1.797903706371162 36.000000000000000
1.778401334864451 -4.703952408325985 -1.877643318726034 13.000000000000000
1.785900201797258 -4.693425215354487 -1.974623056964340 15.000000000000000
1.819186686498699 -4.750137553341439 -2.102562489915885 15.000000000000000
1.792346458284036 -4.650058920390833 -2.161265881461675 37.000000000000000
1.780675363875600 -4.590327174899730 -2.237086425658063 62.000000000000000
1.785685784892246 -4.573404921895085 -2.333535878879852 21.000000000000000
1.958667629382020 -4.984927509499008 -2.659796767170574 54.000000000000000
1.981776898409028 -5.009595348307824 -2.792335719634174 72.000000000000000
1.994197581388469 -5.008752181975568 -2.913410644921065 69.000000000000000
2.006489212864565 -5.005246442547444 -3.035268206933995 74.000000000000000
1.933591173556249 -5.461585612591365 -1.176457296241722 2.000000000000000
1.795109382820609 -5.040206609912923 -1.185031490340868 25.000000000000000
1.797250512968496 -5.016553522347139 -1.278468361384431 75.000000000000000
1.809703977463144 -5.020195294828773 -1.380128514209137 75.000000000000000
1.821338561537254 -5.022153688179596 -1.482104644268237 76.000000000000000
1.831551596805749 -5.018678640957678 -1.582866844378739 78.000000000000000
1.842435788122360 -5.016913111262261 -1.685475956722838 78.000000000000000
1.853796299806135 -5.016989960635929 -1.789651087140558 83.000000000000000
1.763839842548500 -4.742825913796503 -1.791618084653883 32.000000000000000
1.767825661170249 -4.723256512266150 -1.884965875299440 11.000000000000000
1.773898158294427 -4.709179631722680 -1.980751503891361 12.000000000000000
1.808148375433229 -4.769381291084919 -2.110450556792868 47.000000000000000
1.772339134525797 -4.645129258558335 -2.158237281559564 38.000000000000000
1.763345603770466 -4.592263203193668 -2.237173876625776 62.000000000000000
1.769570909028895 -4.578770464179889 -2.335289239959909 21.000000000000000
1.935743627794746 -4.977476476207776 -2.654603649558681 51.000000000000000
1.962493421016269 -5.012278311103448 -2.792450841914649 67.000000000000000
1.974748364981805 -5.011523187410890 -2.913482493004665 70.000000000000000
1.988165744055165 -5.011345752264610 -3.037261056515397 73.000000000000000
1.914051137615916 -5.459767452650366 -1.176674808760240 3.000000000000000
1.778029844614524 -5.041719903513278 -1.185852556677309 25.000000000000000
1.778801952625407 -5.014440394405739 -1.278293841136718 77.000000000000000
1.789795742951796 -5.014524390960535 -1.378831509276424 76.000000000000000
1.802579455757845 -5.020218636893074 -1.481690974350315 77.000000000000000
1.815263296850937 -5.024043808529377 -1.584609407104321 80.000000000000000
1.814275765137271 -4.990062690615273 -1.676395475943858 67.000000000000000
1.834611650263447 -5.015328166948998 -1.788884420672736 82.000000000000000
1.639912964687091 -4.454381615295462 -1.682398850917636 9.000000000000000
1.759741597579824 -4.749573794774202 -1.895078435775521 7.000000000000000
1.768309069991081 -4.742348290127446 -1.994195508999195 9.000000000000000
1.793102501640766 -4.778231129296620 -2.113732881333488 45.000000000000000
1.754977857031286 -4.646995571667764 -2.158365325478999 38.000000000000000
1.744728910702853 -4.590743832998594 -2.235577797336295 63.000000000000000
1.752148379067729 -4.580718119808687 -2.335299031085034 22.000000000000000
1.915468280629094 -4.976629408843105 -2.652937427257145 50.000000000000000
1.943214249590381 -5.014903488199338 -2.792536729254425 39.000000000000000
1.955303266235532 -5.014235939045195 -2.913524855675032 68.000000000000000
1.967275846774279 -5.010907565768952 -3.035297532371091 73.000000000000000
1.895824227836479 -5.461590026207306 -1.177660767276003 3.000000000000000
1.760956522410469 -5.043181847573297 -1.186647790410962 24.000000000000000
1.764248936992394 -5.023276054981308 -1.280897874060472 77.000000000000000
1.773810309003668 -5.019738445627437 -1.380515456328600 74.000000000000000
1.785140548110950 -5.021854628838106 -1.482320245529764 77.000000000000000
1.797666175063115 -5.025753283699125 -1.585189027977863 83.000000000000000
1.661022433770918 -4.614999000499907 -1.550330513114736 7.000000000000000
1.749604114310843 -4.831745893816072 -1.723228673385540 37.000000000000000
1.658619799788759 -4.551319301876291 -1.718741682777547 3.000000000000000
1.662505023842729 -4.533230046300692 -1.808380046620263 4.000000000000000
1.758648280828409 -4.765061745064852 -2.003233084306165 6.000000000000000
1.776728885950503 -4.783579468793312 -2.115461635569923 42.000000000000000
1.737623137005821 -4.648809513062995 -2.158467035883812 38.000000000000000
1.727424058680303 -4.592571374242501 -2.235611391539419 63.000000000000000
1.730897287608593 -4.572482153817902 -2.330119639152894 22.000000000000000
1.891397967066462 -4.965679213149170 -2.645891094182656 47.000000000000000
1.923939599952126 -5.017470919884550 -2.792593415420323 46.000000000000000
1.934596405503550 -5.013609318656412 -2.911632248017309 52.000000000000000
1.946413817421247 -5.010402927715787 -3.033301790671136 73.000000000000000
1.876328585109705 -5.459651635721936 -1.177819620000870 6.000000000000000
1.741338197394236 -5.037211956987647 -1.185679966380671 25.000000000000000
1.745824637035313 -5.021056060148139 -1.280670284487841 77.000000000000000
1.755251172767352 -5.017599142524367 -1.380165267436322 73.000000000000000
1.767707937986414 -5.023438221706743 -1.482923153327783 77.000000000000000
1.778795545845256 -5.023795654363044 -1.584602041297458 80.000000000000000
1.631830659687018 -4.580366892166246 -1.538625305671511 22.000000000000000
1.646636479532229 -4.594168787602396 -1.638323977512882 8.000000000000000
1.658791589454065 -4.598774478804976 -1.736383527867179 6.000000000000000
1.612748007798572 -4.443104381299469 -1.772052854804052 13.000000000000000
1.766723405313919 -4.836694919285484 -2.032822340214209 7.000000000000000
1.756513891846589 -4.778479254887461 -2.112566912161628 42.000000000000000
1.720275170861422 -4.650571129789743 -2.158542448802861 38.000000000000000
1.710126028576590 -4.594346715647076 -2.235618756140629 63.000000000000000
1.714790132604918 -4.577694039525031 -2.331795034221021 23.000000000000000
1.864902649938501 -4.947941381953072 -2.635237785667298 44.000000000000000
1.902151948465860 -5.013344849808703 -2.788929432926561 73.000000000000000
1.916426291358716 -5.019486840398153 -2.913521259379934 64.000000000000000
1.928079042913416 -5.016334029909644 -3.035208082594759 73.000000000000000
1.856861231625448 -5.457651448034581 -1.177948656883000 7.000000000000000
1.724300994994405 -5.038563944918004 -1.186421279155774 25.000000000000000
1.728695680409344 -5.022453892066493 -1.281352467746565 77.000000000000000
1.737988660270404 -5.019058684222784 -1.380793011678198 74.000000000000000
1.747747018060763 -5.017692170255153 -1.481351290349403 77.000000000000000
1.759954776253318 -5.021777699624514 -1.583986086143766 79.000000000000000
1.616831021908276 -4.585168269387368 -1.540158884011090 40.000000000000000
1.625117776752001 -4.581161074870352 -1.633505254897379 26.000000000000000
1.632054185933516 -4.571739132652342 -1.725892359665604 13.000000000000000
1.607927648443476 -4.476088233592983 -1.784825706465893 9.000000000000000
1.678215862187961 -4.642539855424543 -1.950712487963149 19.000000000000000
1.740141426201164 -4.783725165139336 -2.114243448903461 40.000000000000000
1.702934154709039 -4.652280469486359 -2.158591600549115 37.000000000000000
1.691577337748257 -4.592655291477450 -2.233939006347465 65.000000000000000
1.696156997799708 -4.576091816571915 -2.329999812257212 23.000000000000000
1.847310617712455 -4.953577750210399 -2.637039050584445 40.000000000000000
1.884157767124876 -5.019110996656273 -2.790772350412530 73.000000000000000
1.894510245749230 -5.015447435507101 -2.909659421722144 70.000000000000000
1.907249728471779 -5.015704527155640 -3.033150601192554 73.000000000000000
1.838673204325122 -5.459303413147586 -1.178849901765240 8.000000000000000
1.706018026037682 -5.036167158553517 -1.186265925474340 25.000000000000000
1.710319646162108 -5.020119854373681 -1.281069613906709 78.000000000000000
1.720732921801222 -5.020466398401824 -1.381394713450013 73.000000000000000
1.731606697356177 -5.022806040071102 -1.482974622000149 78.000000000000000
1.692150868024552 -4.878452606018702 -1.538788357985948 48.000000000000000
1.600559529893951 -4.586328033173123 -1.540461087920112 40.000000000000000
1.607468937713211 -4.578805333910768 -1.632478278090542 34.000000000000000
1.614300940171969 -4.569466316839164 -1.724745214178670 23.000000000000000
1.624223937490051 -4.569070814347066 -1.821507204039049 19.000000000000000
1.639904208433185 -4.584498953054212 -1.925819185855193 19.000000000000000
1.719999267682103 -4.778499774395423 -2.111289280339368 40.000000000000000
1.684351691553148 -4.650490219212048 -2.157015553994712 36.000000000000000
1.675551216519868 -4.597740990987527 -2.235554942427455 64.000000000000000
1.680040099865407 -4.581206600897055 -2.331625043342409 24.000000000000000
1.827222765300450 -4.952450060613242 -2.635241044591495 36.000000000000000
1.863674856437689 -5.018176159490965 -2.788892264286748 74.000000000000000
1.873877236505013 -5.014627416213055 -2.907672605207247 71.000000000000000
1.886449024852418 -5.015008925040181 -3.031061127460264 73.000000000000000
1.820490891461925 -5.460901089559102 -1.179723782991759 10.000000000000000
1.687765223155338 -5.033712006485914 -1.186082622445410 26.000000000000000
1.694458426793655 -5.025095313572445 -1.282639360607738 79.000000000000000
1.703484151212350 -5.021822332194950 -1.381970408668873 73.000000000000000
1.712961891027537 -5.020583007182554 -1.482420934781056 77.000000000000000
1.662628592171920 -4.843541920282771 -1.527777415383506 36.000000000000000
1.584296235325920 -4.587438679288995 -1.540738719736528 43.000000000000000
1.592339902241710 -4.583554499871441 -1.633977289449623 41.000000000000000
1.554302434784723 -4.446199642076780 -1.677931072487364 16.000000000000000
1.600155869108542 -4.549174981789740 -1.813177371250757 13.000000000000000
1.619377050786429 -4.575364161857416 -1.921473589143765 33.000000000000000
1.702389744171260 -4.780164430742646 -2.111377080012795 39.000000000000000
1.669510429698083 -4.658993617682486 -2.160211423801658 37.000000000000000
1.657040989566284 -4.595937879548924 -2.233820531337405 64.000000000000000
1.661445272601918 -4.579492174988254 -2.329774887273466 24.000000000000000
1.801030298193989 -4.934451729325054 -2.624473279716952 33.000000000000000
1.844444313255864 -5.020505525526346 -2.788830120939161 75.000000000000000
1.854491767965561 -5.017038265477819 -2.907564500622347 71.000000000000000
1.866891029960493 -5.017509724552807 -3.030910431911683 73.000000000000000
1.798631291377903 -5.451281487090564 -1.178157725510449 14.000000000000000
1.672001638523912 -5.038608351020319 -1.187617954479332 29.000000000000000
1.676119882963894 -5.022651295229426 -1.282302657122441 79.000000000000000
1.685010809009725 -5.019457339357769 -1.381510257612231 75.000000000000000
1.694347633474410 -5.018300507854310 -1.481838759720109 77.000000000000000
1.644443577783265 -4.841168362604508 -1.527020040603448 34.000000000000000
1.568041322388506 -4.588500259437305 -1.540991817118408 43.000000000000000
1.574731166489155 -4.581092469932447 -1.632898507322466 46.000000000000000
1.543174051319818 -4.461490393258791 -1.683407650627943 20.000000000000000
1.559011910060097 -4.479685419785264 -1.785083864711706 7.000000000000000
1.602616321730099 -4.576685694489963 -1.921516322901063 33.000000000000000
1.684787449198479 -4.781776185283982 -2.111438316616010 38.000000000000000
1.650954762751749 -4.657095311644794 -2.158581856127629 38.000000000000000
1.639784140484350 -4.597501191197493 -2.233722178238295 65.000000000000000
1.642881856106686 -4.577718054263390 -2.327896179503385 25.000000000000000
1.778631973311912 -4.926447628765909 -2.619029985421951 31.000000000000000
1.825219390946607 -5.022777423593041 -2.788738985268531 75.000000000000000
1.833905237441962 -5.016091148411481 -2.905515646302895 76.000000000000000
1.844934467656075 -5.013419987366650 -3.026786553479972 72.000000000000000
1.780495661484292 -5.452760062564884 -1.178973663629947 15.000000000000000
1.652568830293183 -5.032335609651942 -1.186506878603087 25.000000000000000
1.659031021078708 -5.023840110132915 -1.282880594177899 79.000000000000000
1.667788252290185 -5.020706258371256 -1.382032927492886 75.000000000000000
1.676984667683677 -5.019611971867524 -1.482307011464930 79.000000000000000
1.625068982091397 -4.835103944012491 -1.525089064297323 34.000000000000000
1.548132201602853 -4.578679986791878 -1.537582604256381 49.000000000000000
1.558374962154882 -4.582162002128750 -1.633071603934195 39.000000000000000
1.527080727172911 -4.462504674800126 -1.683490564299092 27.000000000000000
1.576844038809449 -4.579887142861125 -1.824602048646901 34.000000000000000
1.585863835690242 -4.577956729372288 -1.921533782852855 37.000000000000000
1.665977425437333 -4.779848691218920 -2.109934052757567 36.000000000000000
1.634856302991110 -4.662054528842592 -2.160128801407107 38.000000000000000
1.623745044761760 -4.602442120983777 -2.235263419064068 63.000000000000000
1.625556879691363 -4.579284005214705 -2.327717085573940 25.000000000000000
1.755108769575718 -4.914996580173844 -2.611761440836018 27.000000000000000
1.804801099996147 -5.021655249912197 -2.786767220361609 78.000000000000000
1.814542846085065 -5.018382547644664 -2.905347976614327 71.000000000000000
1.826601057206748 -5.019066436368245 -3.028547619756532 71.000000000000000
1.762366386555983 -5.454184578194410 -1.179762394096319 15.000000000000000
1.633190069540631 -5.025997801067251 -1.185365893056244 29.000000000000000
1.643157076946089 -5.028672556313568 -1.284376557657743 79.000000000000000
1.650573254798641 -5.021903574405918 -1.382529717551305 77.000000000000000
1.659629206956490 -5.020871418285823 -1.482749168422452 80.000000000000000
1.608167845591157 -4.836246868591887 -1.525422042072902 34.000000000000000
1.533139175970062 -4.583247334681840 -1.538997120282445 51.000000000000000
1.539610487488044 -4.575998576008521 -1.630660166676310 44.000000000000000
1.508580750645800 -4.456334535364951 -1.680857705962825 9.000000000000000
1.559024718109210 -4.577497275578640 -1.823234658620394 46.000000000000000
1.570324942708326 -4.582694351844817 -1.923001833560668 40.000000000000000
1.647198908565425 -4.777861111016501 -2.108401043316247 36.000000000000000
1.616340166361663 -4.660044721202103 -2.158444732441012 37.000000000000000
1.602898102683624 -4.593605724728670 -2.230113924926984 65.000000000000000
1.608239837967518 -4.580797862060030 -2.327511884077174 26.000000000000000
1.724542006030221 -4.883226009898384 -2.593708273050222 20.000000000000000
1.785600030089479 -5.023808695036624 -2.786617075993553 77.000000000000000
1.794003752065574 -5.017308773021355 -2.903237367790926 73.000000000000000
1.805893424246977 -5.018115144946760 -3.026333314808117 73.000000000000000
1.743050614613322 -5.451823509661025 -1.179716480517021 19.000000000000000
1.618643899174433 -5.034457034103671 -1.187701266914140 23.000000000000000
1.624876293639993 -5.026064173616546 -1.283959482637589 79.000000000000000
1.633366009062861 -5.023049336958387 -1.383000664829910 77.000000000000000
1.642281445327318 -5.022078896537271 -1.483165267692247 79.000000000000000
1.588880230154489 -4.830059396443084 -1.523433569623594 33.000000000000000
1.519328710457813 -4.591391129447745 -1.541604283208620 42.000000000000000
1.524492221020721 -4.580557844246257 -1.632062898163362 48.000000000000000
1.517644092437784 -4.532246251968760 -1.709174163215619 26.000000000000000
1.541237947298475 -4.575050206184214 -1.821840059033990 51.000000000000000
1.549997900133842 -4.573306242613732 -1.918539163230957 46.000000000000000
1.630834650330006 -4.782800885755987 -2.109921806725251 44.000000000000000
1.597856070352753 -4.657975676456918 -2.156732383948591 38.000000000000000
1.586875218862524 -4.598442997982161 -2.231603242977759 67.000000000000000
1.589748077162498 -4.578852791512140 -2.325550292902655 26.000000000000000
1.688326723962382 -4.834447268766191 -2.566643036862268 14.000000000000000
1.766405233550711 -5.025904840060252 -2.786438064903575 78.000000000000000
1.775835969219420 -5.022792035904062 -2.904925261428466 73.000000000000000
1.785215643967368 -5.017098400478436 -3.024087423414028 72.000000000000000
1.724946235856333 -5.453136587476178 -1.180449847191202 21.000000000000000
1.599327460635104 -5.028003705922750 -1.186505122991711 23.000000000000000
1.607810809931306 -5.027099521813523 -1.284460508248614 78.000000000000000
1.617351580255426 -5.027826985837375 -1.384460063104289 78.000000000000000
1.626126800137822 -5.026898376732793 -1.484637443915092 79.000000000000000
1.572019340683049 -4.831093864037669 -1.523713644152346 32.000000000000000
1.500738324908096 -4.585013666341335 -1.539327827207459 38.000000000000000
1.509359290126615 -4.585075089951584 -1.633443281174450 42.000000000000000
1.508456329575051 -4.554632901674390 -1.717292820910308 53.000000000000000
1.519935460521467 -4.561895747237813 -1.816178236622979 31.000000000000000
1.534476448092128 -4.577943165392885 -1.919956875735270 48.000000000000000
1.600302965446868 -4.745728526289908 -2.092910694114817 12.000000000000000
1.581758050509540 -4.662786216072042 -2.158203459560018 37.000000000000000
1.569662756335049 -4.599795349216615 -2.231399914112182 67.000000000000000
1.572459480368878 -4.580259030561978 -2.325291894699136 27.000000000000000
1.661814457434297 -4.812542375045006 -2.553864639611605 12.000000000000000
1.744890402712064 -5.021248732852103 -2.782520196755898 77.000000000000000
1.754174641204734 -5.018281046491596 -2.900838269634735 75.000000000000000
1.765722034069982 -5.019296934054159 -3.023786365832464 74.000000000000000
1.705678949896238 -5.450657327863961 -1.180346565244190 22.000000000000000
