# This PCD file was generated using the MATLAB® pcwrite function
# from Computer Vision Toolbox®.
# .PCD v.7 - Point Cloud Data file format
VERSION .7
FIELDS x y z intensity
SIZE 8 8 8 8
TYPE F F F F
COUNT 1 1 1 1
WIDTH 629
HEIGHT 1
VIEWPOINT 0 0 0 1 0 0 0
POINTS 629
DATA ascii
-1.289310309090052 -5.298017888300814 -1.728318657574088 40.000000000000000
-1.304473081119990 -5.293929261662239 -1.832530205248911 38.000000000000000
-1.316777084371331 -5.276826673450196 -1.933179342026777 35.000000000000000
-1.329608397458328 -5.261676962813346 -2.034825065799914 33.000000000000000
-1.344044828857254 -5.251767734652601 -2.139640894936337 29.000000000000000
-1.358212625166375 -5.240014900679604 -2.244348971415627 28.000000000000000
-1.372255546697725 -5.226108056561511 -2.349547466151769 27.000000000000000
-1.387706502462691 -5.217342855132152 -2.458094423537115 10.000000000000000
-1.400512141272644 -5.195798024511298 -2.562000903714206 26.000000000000000
-1.415083923883308 -5.182651391510458 -2.671640328046000 23.000000000000000
-1.431054560256022 -5.170604476857338 -2.783319634801811 23.000000000000000
-1.446999039968139 -5.159817286650778 -2.897402862342599 21.000000000000000
-1.462066342337771 -5.146637097576067 -3.012322790880293 21.000000000000000
-1.419723396226623 -4.935492189592963 -3.008588759646889 3.000000000000000
-1.423521043661126 -4.880207161116528 -3.095717994721241 3.000000000000000
-1.310727392582371 -4.371250809401077 -2.997625737753905 7.000000000000000
-1.306221455569900 -4.300773504089562 -3.064430253004633 29.000000000000000
-1.257897679637013 -4.027438298306546 -3.093745009029913 67.000000000000000
-1.247747318274814 -5.534885725363390 -1.060259702576022 12.000000000000000
-1.261897576023640 -5.523803015597961 -1.161839383261096 14.000000000000000
-1.242251835155246 -5.366538598404514 -1.229556769688955 47.000000000000000
-1.255126534369546 -5.352563212046539 -1.328555773675884 44.000000000000000
-1.267891071994192 -5.336852648497873 -1.427122993220506 43.000000000000000
-1.283368501959427 -5.334644435358554 -1.529362624257707 42.000000000000000
-1.295928891898440 -5.319253983336571 -1.628818396231116 42.000000000000000
-1.308398538491873 -5.302091758724171 -1.727975765611762 41.000000000000000
-1.321871097409933 -5.290573226692977 -1.829752916333706 38.000000000000000
-1.335195483922577 -5.277107832920221 -1.931725120053267 35.000000000000000
-1.349064249949946 -5.265542802697008 -2.034822017394331 31.000000000000000
-1.362697583255203 -5.251955331423730 -2.138280733047064 28.000000000000000
-1.376986485930950 -5.240152934218062 -2.243033981813330 27.000000000000000
-1.389257479123124 -5.219104631211234 -2.345091577139344 26.000000000000000
-1.406730432077351 -5.217375965195303 -2.456866607952058 10.000000000000000
-1.421532500040225 -5.202751525881752 -2.564255430191091 25.000000000000000
-1.435278642773778 -5.186033961935138 -2.672281976748113 23.000000000000000
-1.450422970684025 -5.170475455187991 -2.782222272466859 23.000000000000000
-1.465540698434052 -5.156243398403665 -2.894444416058469 21.000000000000000
-1.481699683748916 -5.146391085992979 -3.011305503795717 21.000000000000000
-1.439729590712937 -4.938643220232874 -3.009747804862299 3.000000000000000
-1.443502115115930 -4.883288210932372 -3.096998206751941 3.000000000000000
-1.331098824918903 -4.380877918447920 -3.003774389323361 3.000000000000000
-1.308987024409544 -4.253384281771769 -3.030302150199597 30.000000000000000
-1.276477673370439 -4.033660715632442 -3.098341811445334 63.000000000000000
-1.262964269971627 -5.523890065914502 -1.056056718394479 14.000000000000000
-1.277212304864408 -5.512816284570961 -1.157480600646151 21.000000000000000
-1.259885150482505 -5.367055322480446 -1.227725772731019 46.000000000000000
-1.273768801057033 -5.356825845755586 -1.327714539989177 43.000000000000000
-1.285737605935989 -5.337294146994543 -1.425396084300706 41.000000000000000
-1.300447908045304 -5.331296005761104 -1.526608704749286 41.000000000000000
-1.314026653264959 -5.319609926912143 -1.627187813378370 42.000000000000000
-1.326595941635740 -5.302407279659133 -1.726396318419792 39.000000000000000
-1.340187022317014 -5.290844875560370 -1.828221881492954 37.000000000000000
-1.354561382202071 -5.280987046240528 -1.931578442436795 35.000000000000000
-1.367613189370789 -5.265722984504255 -2.033386243369085 31.000000000000000
-1.381360981046158 -5.252088202671907 -2.136891984026750 28.000000000000000
-1.394819482779664 -5.236663833234426 -2.240162161128695 26.000000000000000
-1.409089119806099 -5.222684974518657 -2.345388136190068 27.000000000000000
-1.426724899507749 -5.220866699952535 -2.457263307513326 12.000000000000000
-1.439719003514427 -5.199192358571829 -2.561326220825400 25.000000000000000
-1.455507987233440 -5.189355435904754 -2.672890319288362 23.000000000000000
-1.469801533992556 -5.170289748977245 -2.781095352966874 23.000000000000000
-1.485042497969581 -5.156000420073278 -2.893358679360103 21.000000000000000
-1.502319743611273 -5.149435806918810 -3.012216834555273 20.000000000000000
-1.457813620640636 -4.935109484156863 -3.006837845122284 3.000000000000000
-1.462536845697056 -4.883033892956684 -3.096168919037656 3.000000000000000
-1.314356615092576 -4.215487651280990 -3.002953637714020 8.000000000000000
-1.312729359396256 -4.151115390016116 -3.071248385876734 26.000000000000000
-1.279009130224224 -5.516686935185407 -1.052568716976574 26.000000000000000
-1.296051640171478 -5.517052327293327 -1.156304356091463 9.000000000000000
-1.278433191480391 -5.371318774932450 -1.226735176384627 46.000000000000000
-1.290622576616430 -5.353470094580223 -1.324970683133471 44.000000000000000
-1.304513438898782 -5.341444689864281 -1.424644977828916 43.000000000000000
-1.318439167177849 -5.331640905398604 -1.524901117558685 40.000000000000000
-1.332135014176548 -5.319912635642805 -1.625529407034176 41.000000000000000
-1.343866136349924 -5.298971473245772 -1.723586125872290 39.000000000000000
-1.358513512012663 -5.291062686658373 -1.826662717507116 38.000000000000000
-1.373013153751363 -5.281157568826191 -1.930065701694008 31.000000000000000
-1.386172617753836 -5.265848686591003 -2.031922017134832 31.000000000000000
-1.400034819009754 -5.252166279772013 -2.135474625273298 28.000000000000000
-1.414565748594371 -5.240263758065773 -2.240317720504400 25.000000000000000
-1.428955417247017 -5.226205110427965 -2.345651841014992 26.000000000000000
-1.445781645903232 -5.220785835626461 -2.455975303396082 12.000000000000000
-1.459844264220373 -5.202541818178251 -2.561798851262413 25.000000000000000
-1.475771719856696 -5.192615642581447 -2.673465282978196 23.000000000000000
-1.489190040086879 -5.170047290750261 -2.779938854707405 23.000000000000000
-1.504554129456804 -5.155700354557919 -2.892243199585027 21.000000000000000
-1.520995906714431 -5.145726780392267 -3.009181176551487 21.000000000000000
-1.477864589627635 -4.938144238601152 -3.007934795419440 3.000000000000000
-1.481581696330342 -4.882723848587845 -3.095310565279418 3.000000000000000
-1.333400882938468 -4.221771758379130 -3.007089839950132 3.000000000000000
-1.315733715967772 -4.107466979285344 -3.038706271219080 20.000000000000000
-1.296816954752250 -5.517098104952278 -1.050519055609696 8.000000000000000
-1.318557019858134 -5.536482766420994 -1.158287512885369 6.000000000000000
-1.295183388888571 -5.367932879600275 -1.223982266723424 45.000000000000000
-1.309309678887415 -5.357623393935869 -1.324070894447434 43.000000000000000
-1.322392968379778 -5.341778635620235 -1.422861147551274 41.000000000000000
-1.336440840598352 -5.331932827283075 -1.523165849447091 40.000000000000000
-1.351197350199560 -5.323879834696436 -1.624977915704190 40.000000000000000
-1.363022320992150 -5.302877721781861 -1.723153510371843 39.000000000000000
-1.376850366331850 -5.291226591853453 -1.825075401838167 37.000000000000000
-1.391475247785640 -5.281273839370672 -1.928524635149588 30.000000000000000
-1.404742332650090 -5.265919840856787 -2.030429316310127 31.000000000000000
-1.418718893582827 -5.252189494687004 -2.134028634505779 28.000000000000000
-1.433370741360134 -5.240236411932926 -2.238916404170784 25.000000000000000
-1.448856136937837 -5.229664868168124 -2.345882618782459 26.000000000000000
-1.463863954425178 -5.217140555946242 -2.453008508431152 15.000000000000000
-1.478026489020754 -5.198875190818144 -2.558815047643851 24.000000000000000
-1.494085425226375 -5.188923411280602 -2.670460367425474 22.000000000000000
-1.510579814215165 -5.176572763492683 -2.782421076895336 22.000000000000000
-1.524075381300212 -5.155343135298784 -2.891097955698201 21.000000000000000
-1.540658362754052 -5.145308353361417 -3.008074094517160 22.000000000000000
-1.497949739082283 -4.941118262345955 -3.008998653488334 3.000000000000000
-1.500636460234622 -4.882358010707688 -3.094423123862181 3.000000000000000
-1.380744777866594 -4.316276382392810 -3.074065394423509 13.000000000000000
-1.322451950352644 -4.076282847601474 -3.015400302672683 56.000000000000000
-1.324498913762862 -4.027420459611649 -3.093071461984429 32.000000000000000
-1.318281346779612 -5.532761775971658 -1.051350284671988 7.000000000000000
-1.334750936938320 -5.529161967511857 -1.154653139848803 23.000000000000000
-1.312847924983398 -5.368293578316442 -1.222069712771424 45.000000000000000
-1.326160310171900 -5.354167720343287 -1.321276221748781 43.000000000000000
-1.340282724528008 -5.342059876230620 -1.421049786988013 41.000000000000000
-1.355401892123253 -5.335908334552978 -1.522469032879411 40.000000000000000
-1.368382742286218 -5.320358077091921 -1.622129033750399 39.000000000000000
-1.383174646640723 -5.310418346493184 -1.723887723176577 38.000000000000000
-1.395197384768886 -5.291336523591844 -1.823459912264877 37.000000000000000
-1.408974413938838 -5.277690976131178 -1.925625368894283 28.000000000000000
-1.423322131269773 -5.265936379787418 -2.028908118833639 30.000000000000000
-1.438396183488736 -5.255750227151170 -2.134012645024735 29.000000000000000
-1.452185701758008 -5.240153803787890 -2.237486268171698 25.000000000000000
-1.467798617169969 -5.229528223553547 -2.344495207606707 26.000000000000000
-1.481931757577220 -5.213444266135587 -2.450016561124042 15.000000000000000
-1.498195721545490 -5.202107314537330 -2.559225091307915 24.000000000000000
-1.513388677869081 -5.188622531342184 -2.669201179556518 22.000000000000000
-1.529003951518753 -5.172801740471060 -2.779369185628207 23.000000000000000
-1.544616916514844 -5.158304550112341 -2.891815476393074 21.000000000000000
-1.560330097598091 -5.144832322526899 -3.006937039515793 21.000000000000000
-1.517054080644136 -4.940726552354571 -3.008017295704847 3.000000000000000
-1.521735335821160 -4.888471702773426 -3.097647813889878 3.000000000000000
-1.341199762539079 -4.082408793981042 -3.019706216801790 53.000000000000000
-1.343220950013488 -4.033428066501354 -3.097549920792884 40.000000000000000
-1.335232208035384 -5.529234288090834 -1.048512822060661 25.000000000000000
-1.349975699851688 -5.517989650780284 -1.150205122441917 10.000000000000000
-1.331462114977906 -5.372393520875372 -1.220991602442412 42.000000000000000
-1.344891430687418 -5.358211282801904 -1.320317722564504 43.000000000000000
-1.360091411285137 -5.349796831812276 -1.421205548567742 43.000000000000000
-1.373435757971923 -5.336091612858698 -1.520676335681974 39.000000000000000
-1.386521712462518 -5.320500675507019 -1.620387022534853 39.000000000000000
-1.400463366066846 -5.306823999820910 -1.720995466359375 37.000000000000000
-1.415513554790747 -5.298726292121836 -1.824341266698869 36.000000000000000
-1.428429596020012 -5.281343354789668 -1.925357436434365 27.000000000000000
-1.441911810484555 -5.265898236456299 -2.027358402964702 31.000000000000000
-1.458107527084580 -5.259250933517538 -2.133963930752860 28.000000000000000
-1.472010431458571 -5.243578080261885 -2.237547363939864 24.000000000000000
-1.486750778267541 -5.229335899385454 -2.343078781159395 25.000000000000000
-1.502002341566067 -5.216703992591555 -2.450290680635541 17.000000000000000
-1.517385813407582 -5.201805597710005 -2.557894215346341 24.000000000000000
-1.532701339573207 -5.188264984897887 -2.667912489223181 22.000000000000000
-1.549453205462195 -5.175793476298234 -2.779951915913577 23.000000000000000
-1.565191900486094 -5.161203643805637 -2.892499137738880 21.000000000000000
-1.581036212970321 -5.147636908855421 -3.007720523563631 21.000000000000000
-1.534114231824751 -4.933674139965933 -3.002986680680446 3.000000000000000
-1.539804179918973 -4.884723878692645 -3.094629495825620 3.000000000000000
-1.358973187007000 -4.085368882883707 -3.021680487371484 52.000000000000000
-1.360968455094922 -4.036311913331627 -3.099641108666247 60.000000000000000
-1.351233973054001 -5.521837631889124 -1.044928666042717 9.000000000000000
-1.367026149725710 -5.514390360247597 -1.147324915084860 16.000000000000000
-1.348206860984519 -5.368858484451683 -1.218162893017783 41.000000000000000
-1.362697146050914 -5.358426439103873 -1.318400009427066 44.000000000000000
-1.378024845020696 -5.349967436565876 -1.419335039442917 41.000000000000000
-1.391479435722211 -5.336221679350506 -1.518855874924234 40.000000000000000
-1.404670488144598 -5.320589770473158 -1.618617099277035 41.000000000000000
-1.417737832653839 -5.303180872755712 -1.718079179985589 38.000000000000000
-1.432912745401504 -5.295058599805541 -1.821404811866739 37.000000000000000
-1.445924256588927 -5.277656703110321 -1.922405464079431 25.000000000000000
-1.460511166829720 -5.265805344525778 -2.025780147283867 31.000000000000000
-1.476845291991276 -5.259104061596307 -2.132427830625087 27.000000000000000
-1.490856826210737 -5.243382197150888 -2.236057481001323 25.000000000000000
-1.505712413243045 -5.229087829693777 -2.341633318424181 26.000000000000000
-1.521085723333520 -5.216401624612583 -2.448887974777562 25.000000000000000
-1.537610275327102 -5.204917428223283 -2.558239474049691 23.000000000000000
-1.553051710962224 -5.191288646142756 -2.668361402716396 23.000000000000000
-1.568903625508875 -5.175318238735004 -2.778672802199266 22.000000000000000
-1.584764973109416 -5.160669465564918 -2.891260390762378 21.000000000000000
-1.601775387597970 -5.150378665154567 -3.008469912298616 20.000000000000000
-1.555291085715387 -4.939774912131289 -3.005966975229863 3.000000000000000
-1.559940856797289 -4.887450374702696 -3.095719198847501 3.000000000000000
-1.376781515303627 -4.088274610159214 -3.023624872738972 51.000000000000000
-1.365304552151361 -5.506760524158814 -1.039882690230449 16.000000000000000
-1.388838273846353 -5.529758633300147 -1.148370021614104 4.000000000000000
-1.366864130630828 -5.372848923794259 -1.217026248886071 43.000000000000000
-1.380512493311575 -5.358588982645292 -1.316454849542189 42.000000000000000
-1.394989642065631 -5.346335887041925 -1.416443603345093 40.000000000000000
-1.408547728667189 -5.332569398914448 -1.515947526079874 40.000000000000000
-1.423820388360113 -5.324333049099732 -1.617945945930952 41.000000000000000
-1.436993700493710 -5.306859639642176 -1.717524343314613 38.000000000000000
-1.451301080697083 -5.295003639497148 -1.819702621550959 37.000000000000000
-1.465422808954726 -5.281195059258833 -1.922076673042816 24.000000000000000
-1.480134482100691 -5.269269200414616 -2.025561652593777 30.000000000000000
-1.495592455684705 -5.258901992948371 -2.130862978950695 27.000000000000000
-1.511761017903142 -5.250244972491748 -2.237570636555096 24.000000000000000
-1.524683314776038 -5.228783949108696 -2.340158798711495 27.000000000000000
-1.540178286019301 -5.216043111996121 -2.447456046811152 25.000000000000000
-1.556830872929075 -5.204500261544415 -2.556847797714797 24.000000000000000
-1.573435311701642 -5.194250333377993 -2.668776647472203 21.000000000000000
-1.589407201178372 -5.178188078561778 -2.779189984848645 22.000000000000000
-1.604346796170038 -5.160077805101261 -2.889991765199392 20.000000000000000
-1.620448350601694 -5.146391115498452 -3.005292270204489 20.000000000000000
-1.575474349322355 -4.942512057842916 -3.006903911451892 2.000000000000000
-1.576950501199575 -4.880335402683135 -3.090582060726434 3.000000000000000
-1.393567198105830 -4.088024118501377 -3.023245486379580 50.000000000000000
-1.388875725074246 -5.529813891717716 -1.042016575331344 4.000000000000000
-1.405918795317258 -5.526050401747359 -1.145432363049657 21.000000000000000
-1.383604318236223 -5.369214299950957 -1.214146981118937 43.000000000000000
-1.398337276248568 -5.358698848632231 -1.314482221835403 40.000000000000000
-1.413920365721691 -5.350149669292831 -1.415511114602511 38.000000000000000
-1.428592357601302 -5.340048396835658 -1.516189630374800 40.000000000000000
-1.442000137867373 -5.324312346005000 -1.616118078782989 39.000000000000000
-1.455273040350151 -5.306796575622546 -1.715746625522209 39.000000000000000
-1.470714451332428 -5.298553629510097 -1.819228528208408 35.000000000000000
-1.485976061389896 -5.288308220511458 -1.923037001684344 22.000000000000000
-1.498764646511425 -5.269064000414051 -2.023924181857649 29.000000000000000
-1.515380385442757 -5.262226845560754 -2.130719811067399 27.000000000000000
-1.529613753689470 -5.246378338993170 -2.234504886695771 23.000000000000000
-1.543663275215380 -5.228424192861959 -2.338655201659088 27.000000000000000
-1.561370008227984 -5.222619849138695 -2.449273690053572 24.000000000000000
-1.576060337286133 -5.204026533758861 -2.555426705888325 24.000000000000000
-1.592799157647141 -5.193717152111671 -2.667395168935340 21.000000000000000
-1.607830854435510 -5.174196253809673 -2.776025408851136 19.000000000000000
-1.626055795655545 -5.166159751751633 -2.892461921753944 19.000000000000000
-1.643351935744177 -5.155673023624627 -3.009866124723019 20.000000000000000
-1.596753718554233 -4.948482331434341 -3.009811319296507 2.000000000000000
-1.599248083290366 -4.889462020566821 -3.095736215753323 3.000000000000000
-1.411432757029006 -4.090823192742953 -3.025131927387937 54.000000000000000
-1.406774878230150 -5.529901317990753 -1.039796064266776 27.000000000000000
-1.422006013063302 -5.518495962949673 -1.141685248095976 7.000000000000000
-1.402303847624530 -5.373094844279696 -1.212951653328518 42.000000000000000
-1.416171298314031 -5.358755972841081 -1.312482105543377 39.000000000000000
-1.430880040492219 -5.346417178415296 -1.412568463497189 39.000000000000000
-1.445667355779258 -5.336291954781080 -1.513227699248506 39.000000000000000
-1.459173653085182 -5.320535380470603 -1.613139645319827 37.000000000000000
-1.473561560578591 -5.306679502661023 -1.713940775879536 40.000000000000000
-1.490160989153075 -5.302044003017821 -1.818721973383806 35.000000000000000
-1.504519911523005 -5.288092291974323 -1.921321354535091 19.000000000000000
-1.517403865342798 -5.268803822296207 -2.022258092232447 30.000000000000000
-1.534157801934459 -5.261911537624923 -2.129095302933468 27.000000000000000
-1.548499634341379 -5.246013124025157 -2.232926148577338 24.000000000000000
-1.563705086639828 -5.231531413565008 -2.338697387628260 26.000000000000000
-1.580504505825809 -5.222143540375320 -2.447779064944512 24.000000000000000
-1.595298458013785 -5.203496181162760 -2.553976178918549 23.000000000000000
-1.612171548198969 -5.193126978424567 -2.665984074434181 18.000000000000000
-1.627307238331350 -5.173549379545988 -2.774657090430044 19.000000000000000
-1.646750055451184 -5.168810549286059 -2.893011538252252 19.000000000000000
-1.664188817824095 -5.158225295586047 -3.010512809905562 20.000000000000000
-1.615939698165649 -4.947801780845042 -3.008677521662789 2.000000000000000
-1.619471571374504 -4.892006949879833 -3.096727923443904 3.000000000000000
-1.426089015152565 -4.084277944153373 -3.020119169132813 60.000000000000000
-1.421737105182486 -5.518502391382939 -1.035402800869354 7.000000000000000
-1.439045369573033 -5.514693973331590 -1.138702245896906 21.000000000000000
-1.420037355351721 -5.373139088871651 -1.210873338151110 42.000000000000000
-1.434014362635238 -5.358760291619857 -1.310454480214449 40.000000000000000
-1.448838889261512 -5.346378160860412 -1.410589392430811 38.000000000000000
-1.464769039863717 -5.339929729126776 -1.512349876134743 38.000000000000000
-1.479414396219625 -5.327809545813823 -1.613498834146845 38.000000000000000
-1.492892919089179 -5.310185770715546 -1.713293265212799 39.000000000000000
-1.507561065747343 -5.298166778055197 -1.815678502641628 34.000000000000000
-1.522027295680786 -5.284192330080360 -1.918259713887182 28.000000000000000
-1.537102584805146 -5.272092219493446 -2.021945417893865 29.000000000000000
-1.553999695642933 -5.265117651834943 -2.128888221179723 26.000000000000000
-1.568454707452684 -5.249141302499325 -2.232828120806707 24.000000000000000
-1.581649540568581 -5.227536797326230 -2.335560695725851 26.000000000000000
-1.597508969722628 -5.214630063638781 -2.442984730007608 23.000000000000000
-1.616692025765366 -5.209827902818391 -2.555890474343845 20.000000000000000
-1.632629203559553 -5.195907128883917 -2.666302119358907 18.000000000000000
-1.647872423401928 -5.176239422534396 -2.775078722629729 19.000000000000000
-1.665309592590045 -5.164677764666555 -2.889766694386667 19.000000000000000
-1.681800576977984 -5.150738469997247 -3.005304648944421 20.000000000000000
-1.635134112071355 -4.947064755509923 -3.007514379073216 2.000000000000000
-1.637548499263314 -4.887985874136906 -3.093569622103004 3.000000000000000
-1.446173359968807 -4.093162817462998 -3.026526848163569 50.000000000000000
-1.444759125676548 -4.034654365439676 -3.097931442142145 5.000000000000000
-1.438624870170009 -5.514683202716910 -1.032420290676377 23.000000000000000
-1.459076103028064 -5.522222090403281 -1.138040469330707 4.000000000000000
-1.438790087538568 -5.376906689926535 -1.209617101327538 42.000000000000000
-1.453902550098097 -5.366227466632654 -1.310234387877047 38.000000000000000
-1.466806573341860 -5.346285950016086 -1.408582626991298 38.000000000000000
-1.481838051138137 -5.336071558637264 -1.509336381096540 36.000000000000000
-1.496593761615620 -5.323927585932874 -1.610466445610140 38.000000000000000
-1.512256977757674 -5.313632496996315 -1.712613359777370 37.000000000000000
-1.525997569750869 -5.297891637429996 -1.813860969083287 34.000000000000000
-1.542691416994230 -5.291122570878902 -1.919119884704491 28.000000000000000
-1.556834016985514 -5.275320078689562 -2.021599839466631 29.000000000000000
-1.571738741040118 -5.261114586293243 -2.125759779421488 27.000000000000000
-1.588442410086196 -5.252208252177337 -2.232696841400515 24.000000000000000
-1.602809742717289 -5.234044036946375 -2.337111026022645 25.000000000000000
-1.618798888554325 -5.221021645645370 -2.444701849739105 19.000000000000000
-1.634885406702469 -5.205722004497229 -2.552681750403808 20.000000000000000
-1.652030126130523 -5.195200057142280 -2.664829605927181 18.000000000000000
-1.667377125668912 -5.175475084990978 -2.773648709810543 19.000000000000000
-1.686043953628281 -5.167207611090594 -2.890252115356193 18.000000000000000
-1.702665207127761 -5.153171754698322 -3.005888896652036 19.000000000000000
-1.653237522966856 -4.942984634189487 -3.004324316517947 2.000000000000000
-1.657812672034068 -4.890412659680980 -3.094498531664744 3.000000000000000
-1.463024166215976 -4.092708392691292 -3.026039375398528 52.000000000000000
-1.462652776138065 -4.037223536606271 -3.099853056505737 36.000000000000000
-1.460523516972194 -5.529845401538842 -1.032968969258464 3.000000000000000
-1.479161945130601 -5.529686050343632 -1.137342571397244 26.000000000000000
-1.456552831236978 -5.376843055454624 -1.207481928156659 41.000000000000000
-1.469726828942448 -5.358610261145033 -1.306316622200738 39.000000000000000
-1.484782894036345 -5.346140483257690 -1.406548147363000 38.000000000000000
-1.500980948575070 -5.339596791325317 -1.508398587271637 36.000000000000000
-1.516911533502900 -5.331080456013333 -1.610759004643018 37.000000000000000
-1.529537959107889 -5.309675567754311 -1.709536485963667 38.000000000000000
-1.545506266243638 -5.301210394890568 -1.813263006324742 33.000000000000000
-1.561273304334154 -5.290739365306913 -1.917316519921872 27.000000000000000
-1.575523215422346 -5.274889084409958 -2.019843495134686 29.000000000000000
-1.592701445345440 -5.267775563615365 -2.126932701655455 27.000000000000000
-1.607377901714090 -5.251670171308538 -2.231026824775839 21.000000000000000
-1.622937200357966 -5.236969370653912 -2.337055124409139 20.000000000000000
-1.639051783431324 -5.223860832050535 -2.444750142366065 18.000000000000000
-1.655257952046543 -5.208472535153478 -2.552833516455505 19.000000000000000
-1.671438945665224 -5.194435772313724 -2.663327403497559 19.000000000000000
-1.686889619408720 -5.174653252064049 -2.772188870339475 19.000000000000000
-1.704594882805242 -5.162964576574092 -2.886951517874051 19.000000000000000
-1.722451622441140 -5.152221594791425 -3.004502795224994 19.000000000000000
-1.673547401534560 -4.945421031984669 -3.005099983564709 2.000000000000000
-1.676995319602756 -4.889530786103420 -3.093339843886751 3.000000000000000
-1.481001709846823 -4.095292547294583 -3.027809255469083 52.000000000000000
-1.478456129649447 -5.529720494208665 -1.030638020175196 26.000000000000000
-1.495200574066606 -5.521936249184606 -1.133498700154495 9.000000000000000
-1.474324009419773 -5.376726702551008 -1.205319327532485 41.000000000000000
-1.487595835577934 -5.358455787457109 -1.304206350175693 41.000000000000000
-1.502767652328899 -5.345941698539447 -1.404485934045285 38.000000000000000
-1.518043215035002 -5.335636775977522 -1.505333515245835 36.000000000000000
-1.535159073993697 -5.330784930050843 -1.608786700304814 36.000000000000000
-1.548942835113421 -5.313008259177867 -1.708795871793517 37.000000000000000
-1.562895954407396 -5.297177612313445 -1.810140762289555 32.000000000000000
-1.578782091877468 -5.286680143373085 -1.914173494757397 28.000000000000000
-1.594220625119743 -5.274402791932737 -2.018058420089708 28.000000000000000
-1.611536763628894 -5.267232607542847 -2.125188442823338 25.000000000000000
-1.625224814133211 -5.247535266202235 -2.227824484444299 18.000000000000000
-1.640894212920484 -5.232808956729365 -2.333833028384209 19.000000000000000
-1.658231206945539 -5.223155736884770 -2.443135979138217 19.000000000000000
-1.673442995843421 -5.204258369722451 -2.549570034503152 19.000000000000000
-1.690855449098599 -5.193614213471662 -2.661795493999997 18.000000000000000
-1.708643211110638 -5.180545818433611 -2.774325755969467 20.000000000000000
-1.726488084348288 -5.168725053849185 -2.889246305235178 19.000000000000000
-1.775901076791697 -5.250721435401299 -3.061098458603941 20.000000000000000
-1.695012392981811 -4.951076273670686 -3.007835221539450 2.000000000000000
-1.697311289398036 -4.891836268636317 -3.094203662937573 3.000000000000000
-1.497883895634190 -4.094735557023601 -3.027267506059938 54.000000000000000
-1.495368160153396 -5.525741979602159 -1.027572693517040 8.000000000000000
-1.511200304067011 -5.514143764939416 -1.129635419313475 27.000000000000000
-1.492103424944766 -5.376557570059791 -1.203129280294036 40.000000000000000
-1.506526608883549 -5.361997908359969 -1.302979665025186 40.000000000000000
-1.522883134090768 -5.353150371149936 -1.404353254619074 38.000000000000000
-1.539363002585000 -5.346469583358340 -1.506426413900321 37.000000000000000
-1.552339756028850 -5.326746407812104 -1.605674309663433 35.000000000000000
-1.566216446339468 -5.308948184568419 -1.705666795357007 36.000000000000000
-1.583532609478399 -5.304024351707294 -1.810725310811817 32.000000000000000
-1.597368308016899 -5.286189685275223 -1.912315115202796 28.000000000000000
-1.614024763106356 -5.277453688221808 -2.017618059186007 25.000000000000000
-1.629276157068082 -5.263068145920027 -2.121977590694914 18.000000000000000
-1.645272867284142 -5.250426016660819 -2.227599568088892 16.000000000000000
-1.661061541396841 -5.235616093796794 -2.333714351429571 19.000000000000000
-1.678535843818878 -5.225873232178645 -2.443118986503515 19.000000000000000
-1.694976796082268 -5.210337672611614 -2.551346898817735 19.000000000000000
-1.711404606882627 -5.196151593546627 -2.661984013555258 18.000000000000000
-1.729323528578169 -5.182986309126650 -2.774612955514995 19.000000000000000
-1.784650216299047 -5.281588625140001 -2.951391061898696 18.000000000000000
-1.809669009718031 -5.289339452893880 -3.082765353919503 18.000000000000000
-1.713127174450844 -4.946828886367733 -3.004559077993947 2.000000000000000
-1.718796323769072 -4.897320613919018 -3.097083467051182 3.000000000000000
-1.515916183282052 -4.097211454760864 -3.028978775138568 49.000000000000000
-1.509144403629940 -5.510322898420182 -1.022370150258032 28.000000000000000
-1.531356496395324 -5.521435957982496 -1.128845535423582 4.000000000000000
-1.509890880356720 -5.376335597400161 -1.200911767593044 40.000000000000000
-1.525488976257030 -5.365481305392026 -1.301721070278481 39.000000000000000
-1.539834739628852 -5.349111533798573 -1.401254714038534 37.000000000000000
-1.557521580392546 -5.346109392394000 -1.504348660107808 35.000000000000000
-1.571678459914402 -5.330031475998969 -1.604757702427798 36.000000000000000
-1.585661284827911 -5.312166459758280 -1.704865330053104 35.000000000000000
-1.602025889601430 -5.303524911846774 -1.808789804943464 32.000000000000000
-1.617067691325444 -5.289259487619588 -1.911734854601334 25.000000000000000
-1.632749966516757 -5.276853763439154 -2.015773277458941 20.000000000000000
-1.650346807619923 -5.269542319927194 -2.123048551747006 18.000000000000000
-1.663111228347415 -5.246184656183113 -2.224343407698915 7.000000000000000
-1.680135161676317 -5.234854864459194 -2.332000082878817 19.000000000000000
-1.697742450235393 -5.225051843421850 -2.441443795425697 18.000000000000000
-1.714298530014923 -5.209457679852218 -2.549712774376249 19.000000000000000
-1.733122311928162 -5.202039267921691 -2.663886353975624 18.000000000000000
-1.788823292312624 -5.300293159907248 -2.836368743291370 18.000000000000000
-1.811613302596301 -5.300503899086924 -2.961015308575833 18.000000000000000
-1.831126938011463 -5.291405571416407 -3.083125883851026 19.000000000000000
-1.734667126774798 -4.952356452386701 -3.007224555597848 2.000000000000000
-1.738037611399441 -4.896260323932220 -3.095830115114212 3.000000000000000
-1.531676452095089 -4.093471392026753 -3.026105617581110 53.000000000000000
-1.528093659091236 -5.513846921529085 -1.020669336753776 3.000000000000000
-1.553687902100610 -5.536221207697412 -1.129561260980394 15.000000000000000
-1.528755237496167 -5.379822838440675 -1.199505585989558 38.000000000000000
-1.544482706035534 -5.368905818637776 -1.300430498471404 38.000000000000000
-1.558940272955787 -5.352474336828565 -1.400081318691220 36.000000000000000
-1.573504033762123 -5.338286118197662 -1.500160783380394 34.000000000000000
-1.589949900451782 -5.329573426580188 -1.602700971717333 35.000000000000000
-1.606243156855047 -5.318985205916575 -1.705204767849583 33.000000000000000
-1.620526857541388 -5.302970598644004 -1.806825817256407 23.000000000000000
-1.636798645031502 -5.292268374793973 -1.911121567242284 21.000000000000000
-1.651482749797061 -5.276198323914123 -2.013899693095100 20.000000000000000
-1.666961561022178 -5.261709029997289 -2.118348705411717 18.000000000000000
-1.684331119662724 -5.252489739218833 -2.225552564810949 5.000000000000000
-1.701490854865558 -5.241043904399968 -2.333376022624904 19.000000000000000
-1.718097895096461 -5.227647134556910 -2.441361312756480 18.000000000000000
-1.738210689710258 -5.222290579229484 -2.554785451709782 19.000000000000000
-1.792820188445712 -5.320404899431932 -2.723359593957834 18.000000000000000
-1.814585769902063 -5.316017692443532 -2.843738802579500 19.000000000000000
-1.832948374657329 -5.302608212992707 -2.961246763669544 17.000000000000000
-1.852615042822295 -5.293406010037063 -3.083451039989456 18.000000000000000
-1.753943667584563 -4.951270644154355 -3.005878344057744 2.000000000000000
-1.756124558418493 -4.891907797391003 -3.092502002771310 3.000000000000000
-1.546257745016355 -4.086609557070436 -3.020935834147676 46.000000000000000
-1.553453122759178 -5.540063830688893 -1.023138381296723 12.000000000000000
-1.569686646992355 -5.528273029022682 -1.125618561873549 15.000000000000000
-1.546569881090364 -5.379492145906050 -1.197230911327993 38.000000000000000
-1.561329978643260 -5.364789016884164 -1.297298540085845 37.000000000000000
-1.576980366864635 -5.352055909009544 -1.397903598020798 36.000000000000000
-1.593861877843668 -5.345227124182148 -1.500109097787262 34.000000000000000
-1.610450212897225 -5.336421663936966 -1.602826857911825 35.000000000000000
-1.622410699324612 -5.311106613013630 -1.700821586151798 25.000000000000000
-1.639035308092404 -5.302361352315515 -1.804833329783453 20.000000000000000
-1.655431712456061 -5.291606631378499 -1.909172884823658 20.000000000000000
-1.672492230055954 -5.282655091658774 -2.014730980298383 20.000000000000000
-1.688094996705186 -5.268059863137434 -2.119352863611751 18.000000000000000
-1.702172134217053 -5.248138893214227 -2.222240352218254 13.000000000000000
-1.720602983681756 -5.240163811701922 -2.331598721708996 19.000000000000000
-1.743098823003506 -5.244062029699700 -2.447724641765419 17.000000000000000
-1.795803127935706 -5.334790679111737 -2.608584968092638 19.000000000000000
-1.816205556310581 -5.329465082326594 -2.726854472370714 18.000000000000000
-1.834650323595257 -5.314781528042499 -2.842033690741553 19.000000000000000
-1.854313548196433 -5.304647092171249 -2.961442974715917 18.000000000000000
-1.874133067482558 -5.295340610954930 -3.083740757479444 18.000000000000000
-1.774398350740208 -4.953397405628819 -3.006487092072758 3.000000000000000
-1.777714735900187 -4.897201618453235 -3.095278117711286 3.000000000000000
-1.565505333433329 -4.092006556124282 -3.024839069376698 5.000000000000000
-1.568233246507393 -5.528296262514613 -1.018568072548835 15.000000000000000
-1.584562009915873 -5.516509132544448 -1.120889926480317 30.000000000000000
-1.565484411682796 -5.382864762486805 -1.195763147766331 37.000000000000000
-1.580362260644664 -5.368101093655118 -1.295948214022771 36.000000000000000
-1.596136304100130 -5.355302755368978 -1.396667926556279 37.000000000000000
-1.612043193470966 -5.344704928119315 -1.497947253317366 33.000000000000000
-1.626515262112260 -5.328494384067633 -1.598502956229856 22.000000000000000
-1.643055003233467 -5.317804469570257 -1.701095494017919 21.000000000000000
-1.658686344667878 -5.305328413070047 -1.804047127844496 19.000000000000000
-1.674071996278153 -5.290889549925419 -1.907195512203006 19.000000000000000
-1.690116844991618 -5.278301599919629 -2.011430652685166 20.000000000000000
-1.706979808520806 -5.267234642614494 -2.117461487948255 19.000000000000000
-1.724622935645432 -5.257843204200573 -2.224872259229185 17.000000000000000
-1.751335651746660 -5.274201872942822 -2.345344758957101 19.000000000000000
-1.797366761387905 -5.347080978531514 -2.494478248869777 18.000000000000000
-1.816759598293570 -5.337065974675558 -2.608458422894378 19.000000000000000
-1.838495855243522 -5.335044002561388 -2.728564179378258 17.000000000000000
-1.858251448681428 -5.323600559373837 -2.845704594245149 18.000000000000000
-1.875708567147738 -5.306620379041022 -2.961603876934774 17.000000000000000
-1.796066842589492 -4.958727828529093 -3.009044070717768 3.000000000000000
-1.796988678832959 -4.895967664224538 -3.093934116786246 3.000000000000000
-1.583620936809663 -4.094270199805062 -3.026436891707194 49.000000000000000
-1.581864302782640 -5.512706272799259 -1.013287164342710 31.000000000000000
-1.604851737247693 -5.523560490121825 -1.119968934130861 4.000000000000000
-1.583325405097594 -5.382424982532882 -1.193431174797456 33.000000000000000
-1.597200714519316 -5.363883287832604 -1.292765234700046 36.000000000000000
-1.613082599577676 -5.351057936677945 -1.393464561894455 36.000000000000000
-1.632486499450395 -5.351520215032672 -1.497826163881799 22.000000000000000
-1.644808776482550 -5.327873273197072 -1.596361636208502 21.000000000000000
-1.661471687371051 -5.317131995470649 -1.698998285698576 21.000000000000000
-1.677221044676650 -5.304606145722262 -1.801995340188028 19.000000000000000
-1.695025446513184 -5.297324315892054 -1.907785058105750 20.000000000000000
-1.710041631985551 -5.281054223355457 -2.010830650963846 20.000000000000000
-1.728199026791539 -5.273455646604603 -2.118394124588436 19.000000000000000
-1.757670367697357 -5.299183758873529 -2.240870895033816 17.000000000000000
-1.797568216596210 -5.353551607413151 -2.379205265093197 19.000000000000000
-1.819387903557618 -5.352853241278329 -2.495834496460913 18.000000000000000
-1.837746124905390 -5.339276689177232 -2.608297072191709 19.000000000000000
-1.858469543292667 -5.333748665794001 -2.726756337994702 18.000000000000000
-1.878363757441808 -5.322236731856808 -2.843931392421986 18.000000000000000
-1.942416504223657 -5.435239010275165 -3.032423952105409 6.000000000000000
-1.817789612271371 -4.963989167280817 -3.011562463678445 3.000000000000000
-1.817466367380891 -4.897903205261084 -3.094599197849781 3.000000000000000
-1.601768682616410 -4.096477592156941 -3.028004033079442 71.000000000000000
-1.601997570822215 -5.519785763513829 -1.012158538960072 4.000000000000000
-1.628515850236064 -5.541848340109070 -1.121297953605666 17.000000000000000
-1.604520824624166 -5.393183427974565 -1.193561659726007 31.000000000000000
-1.617394675064003 -5.370814886390664 -1.292253040700249 34.000000000000000
-1.632276288886429 -5.354191307196221 -1.392168654539950 23.000000000000000
-1.648427146188482 -5.343498119471647 -1.493539350305803 19.000000000000000
-1.664255422956155 -5.330869089167999 -1.595290770146363 19.000000000000000
-1.681048254488770 -5.320053577352620 -1.698037308240856 21.000000000000000
-1.696921697767409 -5.307454046019224 -1.801145274829419 19.000000000000000
-1.713703368777496 -5.296490350009286 -1.905745716537014 21.000000000000000
-1.728826524496842 -5.280170092247107 -2.008837137533889 19.000000000000000
-1.769459958382738 -5.339926528670255 -2.143500903681593 29.000000000000000
-1.801637126778086 -5.372078452767467 -2.270174610184490 17.000000000000000
-1.819466167804351 -5.359384290019240 -2.380366126483553 18.000000000000000
-1.839083782277358 -5.351631890837512 -2.493925208729269 18.000000000000000
-1.858762454213577 -5.341422665260077 -2.608100851165818 19.000000000000000
-1.880843367337034 -5.339191377735772 -2.728391405105999 17.000000000000000
-1.941710782841217 -5.441970424988519 -2.906843843302977 5.000000000000000
-1.993212207927545 -5.516920937090279 -3.077022012931254 8.000000000000000
-1.838359312083729 -4.965920545160955 -3.012064438026410 3.000000000000000
-1.835555757638652 -4.893328534426493 -3.091157536387794 3.000000000000000
-1.618736717549546 -4.095563030471781 -3.027274500716731 72.000000000000000
-1.626621829522380 -5.541921088776482 -1.013759374553827 14.000000000000000
-1.644471662827112 -5.533701388881367 -1.117256411416404 15.000000000000000
-1.625793010153912 -5.403870663137440 -1.193651098192936 28.000000000000000
-1.635370931744870 -5.370222295513263 -1.289912559973033 23.000000000000000
-1.652643977947772 -5.360974806608811 -1.391803508063765 22.000000000000000
-1.666629377431861 -5.342813391620769 -1.491293257746061 19.000000000000000
-1.682574453446360 -5.330135948351160 -1.593090700714925 19.000000000000000
-1.698325552186890 -5.315622545541418 -1.694718640990557 22.000000000000000
-1.715481776153764 -5.306618391303140 -1.799034053254024 19.000000000000000
-1.734741649773411 -5.302795914848431 -1.906264119687565 19.000000000000000
-1.773631190332018 -5.357811319424020 -2.036686099067129 21.000000000000000
-1.799304388575063 -5.370774281049002 -2.154271881466471 129.000000000000000
-1.821067906680657 -5.370924217392901 -2.268159767362119 17.000000000000000
-1.840220564392723 -5.361658378446952 -2.379939433518365 18.000000000000000
-1.861188478570210 -5.357269194098246 -2.495207452137687 17.000000000000000
-1.879808331893216 -5.343503746325394 -2.607869695431755 19.000000000000000
-1.944383097542847 -5.460010620697091 -2.788957223025240 6.000000000000000
-1.991371054501154 -5.521074979655890 -2.948015670296318 7.000000000000000
-2.011789508608428 -5.508521413537385 -3.071366928527615 7.000000000000000
-1.858958872441640 -4.967788424192324 -3.012532171285686 3.000000000000000
-1.856069565333241 -4.895143735713583 -3.091758977564024 3.000000000000000
-1.638159704642274 -4.100722977477146 -3.031045998344023 69.000000000000000
-1.643543140221713 -5.537525689490952 -1.010480670007055 17.000000000000000
-1.659256990579966 -5.521750806683834 -1.112437983933461 25.000000000000000
-1.650558963699225 -5.425719709271636 -1.196175883293695 27.000000000000000
-1.654501162604850 -5.373302332720501 -1.288437792103138 21.000000000000000
-1.671909766646356 -5.363985196863193 -1.390440412252554 21.000000000000000
-1.687163692728645 -5.349447835823153 -1.491074285790358 19.000000000000000
-1.700900014280386 -5.329348189335231 -1.590862350503739 20.000000000000000
-1.717938992359702 -5.318428214612774 -1.693696237387602 21.000000000000000
-1.736413969495138 -5.312965819487673 -1.799345638696973 19.000000000000000
-1.779609531874776 -5.380922925827021 -1.932563680805785 19.000000000000000
-1.805828573073196 -5.396004080604793 -2.049494358803863 18.000000000000000
-1.816174036879787 -5.362547715407233 -2.149355686652264 44.000000000000000
-1.842913469057735 -5.376740679297557 -2.269081226653737 17.000000000000000
-1.862213731132868 -5.367353496140472 -2.381024247471842 18.000000000000000
-1.882133011966114 -5.359380198246565 -2.494841721614816 17.000000000000000
-1.943504209197109 -5.465374480045111 -2.666069988148239 6.000000000000000
-1.988029265919782 -5.522876112806520 -2.819879976246790 7.000000000000000
-2.010991526517183 -5.515987207600290 -2.944218437186010 8.000000000000000
-2.029095720648771 -5.496746841743382 -3.063835621280786 7.000000000000000
-1.883280750610389 -4.979356091337720 -3.018884981253560 3.000000000000000
-1.876612987517296 -4.896895552493134 -3.092326251069636 3.000000000000000
-1.657637729972384 -4.105820127920262 -3.034782073450557 67.000000000000000
-1.655916858339510 -5.517985387008098 -1.004430498855996 31.000000000000000
-1.678546288784151 -5.524797699005505 -1.110627183834625 4.000000000000000
-1.674320137674749 -5.443737092331303 -1.197822418454899 30.000000000000000
-1.673661159800223 -5.376322518432996 -1.286930650799197 21.000000000000000
-1.688871063102545 -5.359527575576021 -1.387127499134488 21.000000000000000
-1.705402371900735 -5.348648289302695 -1.488767351621705 19.000000000000000
-1.721595105969137 -5.335830162484680 -1.590789353818359 20.000000000000000
-1.737582368729656 -5.321172686475666 -1.692640763004711 21.000000000000000
-1.783683141777643 -5.398799089897519 -1.826534104981334 19.000000000000000
-1.805795586513459 -5.401395350797476 -1.938114177264056 19.000000000000000
-1.825025028969365 -5.394849127912716 -2.047337424728706 19.000000000000000
-1.839059197980843 -5.371970580197596 -2.151505833553226 16.000000000000000
-1.862379379159788 -5.375464687892372 -2.267002081450864 18.000000000000000
-1.883038892447714 -5.369495767277585 -2.380525936577333 18.000000000000000
-1.944771627993199 -5.478804644161007 -2.549052174058518 7.000000000000000
-1.985931000426334 -5.525377492205753 -2.694045587990618 6.000000000000000
-2.008705093117557 -5.521165326986381 -2.817817112760685 8.000000000000000
-2.029355613002967 -5.507487815237175 -2.938603369117274 8.000000000000000
-2.058728865911480 -5.518150807947387 -3.074798061241166 4.000000000000000
-1.906460591248451 -4.987589872885142 -3.023218694357090 4.000000000000000
-1.897185774325150 -4.898583829284655 -3.092859292817760 3.000000000000000
-1.675923564895513 -4.107797825238124 -3.036223514762519 68.000000000000000
-1.675046159451956 -5.521049070144636 -1.002483680046867 5.000000000000000
-1.702478328664256 -5.542805375402759 -1.111796793858853 14.000000000000000
-1.698203610245941 -5.461669747215853 -1.199418221678649 30.000000000000000
-1.692850686014362 -5.379282698234569 -1.285391071750118 21.000000000000000
-1.706993959656270 -5.358722796488559 -1.384747490371741 22.000000000000000
-1.723647185028051 -5.347794273079337 -1.486432236721446 20.000000000000000
-1.739956679132164 -5.334926736286047 -1.588499755493744 20.000000000000000
-1.787263216244755 -5.414768643502964 -1.720437948080522 20.000000000000000
-1.808602471616778 -5.415780254888658 -1.830381744451092 20.000000000000000
-1.826067048681933 -5.403832398387769 -1.937175919696701 19.000000000000000
-1.844226973032535 -5.393637023376199 -2.045150980246884 18.000000000000000
-1.863244654946075 -5.384852878322723 -2.155027339648936 16.000000000000000
-1.883078940332329 -5.377638716867571 -2.266371446900039 16.000000000000000
-1.945818181732382 -5.489859372287511 -2.432402038345362 8.000000000000000
-1.979790916993025 -5.518618634259593 -2.566179318480043 5.000000000000000
-2.005201234025777 -5.520262009423591 -2.690255630674547 9.000000000000000
-2.025649962396420 -5.509234870648989 -2.810540405307955 8.000000000000000
-2.052670259971829 -5.512351410424715 -2.940119509784564 4.000000000000000
-2.081024425959705 -5.519534302050014 -3.074602808014777 8.000000000000000
-1.929717059564471 -4.995746978400776 -3.027508579314906 4.000000000000000
-1.917787675132023 -4.900208411357069 -3.093358039150518 3.000000000000000
-1.692981679966230 -4.106665154508867 -3.035377133082704 68.000000000000000
-1.698826821344269 -5.539125221367760 -1.003234375950554 10.000000000000000
-1.717211583892578 -5.530710225887266 -1.106907752891433 11.000000000000000
-1.717513133588975 -5.464576384906564 -1.197688427543192 31.000000000000000
-1.710887134736912 -5.378465741407622 -1.282932375730022 21.000000000000000
-1.726313382241149 -5.361561463619797 -1.383293453364933 21.000000000000000
-1.745491939850052 -5.357917821120283 -1.487130966001378 20.000000000000000
-1.786042755233554 -5.418054321861415 -1.611186718489381 19.000000000000000
-1.809685016435825 -5.424577613950457 -1.721563780844394 20.000000000000000
-1.828772112269008 -5.418234303366561 -1.829301942055772 19.000000000000000
-1.847591970627125 -5.409791285974537 -1.937487587642343 18.000000000000000
-1.865894170387051 -5.399486350552525 -2.045631954950007 19.000000000000000
-1.885059870503036 -5.390587189203546 -2.155675077606478 17.000000000000000
-1.945976404150699 -5.498908953224113 -2.315891223404155 10.000000000000000
-1.978311192096564 -5.523045713754304 -2.445605624585795 4.000000000000000
-2.002607760094039 -5.523836548218581 -2.567203916282412 10.000000000000000
-2.021944613779960 -5.508262228718190 -2.683112222491398 10.000000000000000
-2.048811898887886 -5.514176940404409 -2.811871702778718 4.000000000000000
-2.077296776873619 -5.520490312644519 -2.943380506966179 10.000000000000000
-2.098294184435541 -5.507585766877970 -3.066984925956957 7.000000000000000
-1.959382676046709 -5.020052172418917 -3.041585066211389 4.000000000000000
-1.937149840102439 -4.898561180631601 -3.091797673943141 3.000000000000000
-1.712588014480905 -4.111581805571865 -3.039013219574202 73.000000000000000
-1.715724951795801 -5.534526309216860 -0.999853200410793 14.000000000000000
-1.731880903742951 -5.518579418140158 -1.102004419651000 27.000000000000000
-1.736851410057447 -5.467422453747595 -1.195925955750644 31.000000000000000
-1.727735336530693 -5.373881000304391 -1.279561487960096 21.000000000000000
-1.744459690968107 -5.360645085646293 -1.380855043921588 22.000000000000000
-1.791607325662545 -5.441451126607403 -1.508154112607635 18.000000000000000
-1.810770938215597 -5.435231129610469 -1.614210388092925 19.000000000000000
-1.829735070202345 -5.427050994131291 -1.720345046777005 21.000000000000000
-1.847740417927274 -5.417018842128180 -1.826971869511463 19.000000000000000
-1.865460734316879 -5.404935008333182 -1.933915666314411 19.000000000000000
-1.886372023048482 -5.401709431870583 -2.044727806897620 18.000000000000000
