# This PCD file was generated using the MATLAB® pcwrite function
# from Computer Vision Toolbox®.
# .PCD v.7 - Point Cloud Data file format
VERSION .7
FIELDS x y z intensity
SIZE 8 8 8 8
TYPE F F F F
COUNT 1 1 1 1
WIDTH 640
HEIGHT 1
VIEWPOINT 0 0 0 1 0 0 0
POINTS 640
DATA ascii
8.573400215591199 -4.210619374993472 -1.906592043996396 1.000000000000000
9.231918919343995 -4.455727824423204 -2.217274593125360 11.000000000000000
9.362822978639198 -4.439687214496711 -2.415848361983897 17.000000000000000
9.575311865273493 -4.459403914183897 -2.641148124000992 51.000000000000000
8.525966222581477 -3.899219453610236 -2.504316997503961 6.000000000000000
8.312253191666992 -3.730326259400818 -2.590346864040918 23.000000000000000
7.559450096264038 -4.264619683572298 -0.598108014142377 25.000000000000000
7.668783575093562 -4.259063027423684 -0.748703283556180 28.000000000000000
7.671650830377890 -4.193370689038559 -0.889021822608715 22.000000000000000
7.773515756241332 -4.181172342199393 -1.042494427944152 19.000000000000000
7.887047209459102 -4.174292279421969 -1.200744053377549 24.000000000000000
8.002327571849690 -4.165731646815798 -1.362647892719025 22.000000000000000
8.122262717530782 -4.158035992056661 -1.529408067250484 21.000000000000000
8.243383222406537 -4.149326596120042 -1.699758173175608 10.000000000000000
8.509665400756877 -4.210531235366997 -1.907059905498543 1.000000000000000
8.565991818411792 -4.165652333606124 -2.072348619905458 18.000000000000000
9.287190989131908 -4.437694650107641 -2.412909804321973 18.000000000000000
9.576597207682296 -4.494828004414020 -2.658904122481119 52.000000000000000
8.500932828104132 -3.918597584217812 -2.512687410925567 35.000000000000000
8.249035600834164 -3.731780097924664 -2.586171873040134 26.000000000000000
8.320084751647542 -3.693825762404115 -2.758620119262837 31.000000000000000
7.508478135618576 -4.264150228676505 -0.605074304706369 26.000000000000000
7.620995535261448 -4.261151522662423 -0.755454004183420 28.000000000000000
7.623769843335291 -4.195754606503010 -0.895142814225846 21.000000000000000
7.728876513909657 -4.186027761571367 -1.048591155832205 24.000000000000000
7.838654903387367 -4.177872835499941 -1.205887173823849 23.000000000000000
7.946678652955248 -4.166270533984152 -1.366112815370975 17.000000000000000
8.069862751389298 -4.161088657418358 -1.532944995374530 21.000000000000000
8.190739529345992 -4.153065293611337 -1.702772629980284 21.000000000000000
8.316183760197926 -4.145408486306033 -1.878051156992854 12.000000000000000
8.446086311089804 -4.138341222477645 -2.058188998115486 19.000000000000000
9.204655566081627 -4.431942854176050 -2.407948181984059 20.000000000000000
9.577728180398353 -4.530308397923839 -2.676679420869069 52.000000000000000
8.517880537694403 -3.957403856267674 -2.533505449760198 5.000000000000000
8.199897402361286 -3.739298058354008 -2.586253781348339 8.000000000000000
8.267368358186799 -3.700327865357284 -2.757030670651329 32.000000000000000
7.464490534210395 -4.267392914247064 -0.612485738705277 27.000000000000000
7.569779315297270 -4.261055320932576 -0.761740552714499 27.000000000000000
7.572453322107958 -4.195979449765077 -0.900734778747513 22.000000000000000
7.680782518895549 -4.188769594780356 -1.054103021185377 23.000000000000000
7.786813583870571 -4.179346320061381 -1.210371243477862 24.000000000000000
7.887599355799820 -4.164689904831658 -1.368835417053313 13.000000000000000
8.014016088965775 -4.162069098369066 -1.535684520400919 21.000000000000000
8.131144073794060 -4.152971241015649 -1.704191867866022 21.000000000000000
8.259847400554138 -4.147836898649895 -1.879626021781323 20.000000000000000
8.382505951516293 -4.138062321489469 -2.057478601653751 19.000000000000000
8.561966281041229 -4.153938230935011 -2.255200783941316 23.000000000000000
9.578704426539892 -4.565844586218192 -2.694473737761631 52.000000000000000
8.503168287117653 -3.981615847670883 -2.544965289062444 2.000000000000000
8.227627242940398 -3.781893961883762 -2.610594570647101 36.000000000000000
8.214702835205703 -3.706572934740167 -2.755313123533336 32.000000000000000
7.417079265669855 -4.268436521772528 -0.619503693587655 26.000000000000000
7.522086788146721 -4.262674157480362 -0.768257364909462 27.000000000000000
7.521194392751633 -4.195954211567654 -0.906202604757390 22.000000000000000
7.625772359363256 -4.187457403898042 -1.058533142471601 22.000000000000000
7.728056674238106 -4.176799484462467 -1.213635079567959 24.000000000000000
7.839070113352788 -4.168384180084488 -1.373247641600188 23.000000000000000
7.951248636101127 -4.159120584645104 -1.536937568439694 22.000000000000000
8.078617390486608 -4.156179065002631 -1.706942482265055 22.000000000000000
8.200078277690357 -4.148220214159593 -1.880262028172798 21.000000000000000
8.326006451672283 -4.140945015147576 -2.058340824119254 21.000000000000000
8.459708050025263 -4.135503484115324 -2.243513013380524 21.000000000000000
9.579525591347403 -4.601436059267997 -2.712286791102366 51.000000000000000
9.584321477894633 -4.522983314251355 -2.886461457801140 46.000000000000000
8.439894545803460 -3.910293842314123 -2.694000393926709 24.000000000000000
8.169050732965850 -3.715727633129441 -2.755816082148517 45.000000000000000
7.369715189497183 -4.269251815158900 -0.626407985626708 26.000000000000000
7.470980389402857 -4.262089353531955 -0.774301209909607 25.000000000000000
7.469994303793198 -4.195679208916537 -0.911546530443007 22.000000000000000
7.577781273110438 -4.189716691573965 -1.063804973311965 23.000000000000000
7.679820580692059 -4.179642753112766 -1.218411385670124 24.000000000000000
7.790585239197590 -4.171845111902061 -1.377543463232848 23.000000000000000
7.902522875851027 -4.163207763123319 -1.540756086381272 22.000000000000000
8.022655500293233 -4.157323524054374 -1.708822939908884 22.000000000000000
8.143877543941185 -4.150086813008969 -1.881558394995902 22.000000000000000
8.269571257849760 -4.143551063285301 -2.059065758370134 21.000000000000000
8.406526211974207 -4.140596428709824 -2.244610046744433 21.000000000000000
9.580191322190561 -4.637082305516886 -2.730118298185417 51.000000000000000
9.581457022884450 -4.556860579366212 -2.903567285054099 31.000000000000000
8.365925314450857 -3.906688890250749 -2.686360278857196 24.000000000000000
8.168596357399345 -3.745375857353225 -2.771535537754794 49.000000000000000
8.292469076092644 -3.730777321966353 -2.964178334032682 6.000000000000000
7.325845276705302 -4.271848403953898 -0.633496799842848 26.000000000000000
7.430296773693493 -4.267207316424293 -0.781311444620550 21.000000000000000
7.422316203087576 -4.197112371787977 -0.917194592203825 22.000000000000000
7.522900643576925 -4.187883362803633 -1.067976987777551 23.000000000000000
7.624683603907203 -4.178446716047675 -1.221958666019056 23.000000000000000
7.735189786412126 -4.171321779105027 -1.380481649044862 18.000000000000000
7.853841689983058 -4.167060909123776 -1.544457862272899 19.000000000000000
7.970245059502192 -4.160011696530629 -1.711315393552344 23.000000000000000
8.084259077811286 -4.149889257666656 -1.881907094393523 23.000000000000000
8.209717150732127 -4.144121854151254 -2.058779823808445 21.000000000000000
8.342946019534939 -4.140245922475837 -2.242769586147521 22.000000000000000
9.580701268575099 -4.672782811887828 -2.747967975659306 51.000000000000000
9.620185083041312 -4.610775589554086 -2.933408159598925 0.000000000000000
8.285134288558066 -3.899437619843495 -2.676291476933840 25.000000000000000
8.168012129870558 -3.775064954510331 -2.787267915991451 48.000000000000000
8.305473191498649 -3.766995006335131 -2.985310651765313 7.000000000000000
7.275133156519242 -4.270198557741653 -0.639876419612011 28.000000000000000
7.379292877228025 -4.266154537444567 -0.787122668160990 21.000000000000000
7.374687241138027 -4.198315892768612 -0.922728432380021 12.000000000000000
7.475017337841320 -4.189661320144464 -1.073009702405802 22.000000000000000
7.580021326177891 -4.182719956894406 -1.227056012122342 23.000000000000000
7.679865588905077 -4.170526380333709 -1.383285309432685 3.000000000000000
7.791305605554863 -4.163252544288227 -1.545286126685594 20.000000000000000
7.910936942723793 -4.158789386145565 -1.712176255509617 23.000000000000000
8.028199614607940 -4.151195534284891 -1.882926069749443 22.000000000000000
8.153420886260724 -4.146165799535045 -2.059226314481549 20.000000000000000
8.286410906120059 -4.143056252696216 -2.242655386351045 22.000000000000000
9.581055082149661 -4.708537063789835 -2.765835539530785 52.000000000000000
8.249059284642183 -3.984165865199252 -2.530900882500075 0.000000000000000
8.214898805446399 -3.896705664937446 -2.669400415284261 22.000000000000000
8.201919645443681 -3.820923342923778 -2.814895191154585 35.000000000000000
7.128795618272889 -4.275860491418710 -0.502865877563576 28.000000000000000
7.227917466672054 -4.270330566456453 -0.646440985832974 28.000000000000000
7.331793263428519 -4.266856875145301 -0.793183427316437 21.000000000000000
7.413350421130558 -4.248716725728469 -0.939072796985689 1.000000000000000
7.423727485582280 -4.189258522845228 -1.077426214911648 22.000000000000000
7.525011429604087 -4.181011704096369 -1.230349590375447 23.000000000000000
7.631545473658346 -4.173249707587182 -1.387214677549333 3.000000000000000
7.742741804365235 -4.166599161425246 -1.548736510496667 18.000000000000000
7.858654151709903 -4.160949398412137 -1.714406902595294 23.000000000000000
7.975682011766446 -4.154035608184603 -1.884629569204390 23.000000000000000
8.093720887453207 -4.146155488782885 -2.058653166232529 21.000000000000000
8.223000814734625 -4.142093260618879 -2.240512669281150 22.000000000000000
9.584721371244386 -4.746062265814385 -2.784728569290718 51.000000000000000
8.182856547198098 -3.911820559790183 -2.674781231424362 40.000000000000000
8.366899204072771 -3.928683702986703 -2.887957421911392 19.000000000000000
8.427528850911088 -3.884305344044362 -3.062827690434058 10.000000000000000
7.088753861266551 -4.279340448694416 -0.510323445029166 43.000000000000000
7.184181070377849 -4.272273678567909 -0.653204381063380 29.000000000000000
7.291216746833786 -4.271356573042429 -0.799884602063190 15.000000000000000
7.393217146321913 -4.265598603154594 -0.948025729659920 1.000000000000000
7.369050775673124 -4.186646054181595 -1.081212968178334 22.000000000000000
7.473531416221036 -4.180966147822709 -1.234080322149943 23.000000000000000
7.576355442430144 -4.171930870253330 -1.389759340240764 2.000000000000000
7.683837948918670 -4.164082957795499 -1.549975320885594 4.000000000000000
7.802966048214923 -4.161007989940994 -1.715749794711445 24.000000000000000
7.919756966029683 -4.154802761711638 -1.885381555626776 24.000000000000000
8.041035157576143 -4.149427398018702 -2.059710140577096 22.000000000000000
8.170078799935560 -4.146089742147453 -2.241065874289102 23.000000000000000
9.584755628951937 -4.781932314996759 -2.802635700205055 50.000000000000000
8.150795813130213 -3.926797494942144 -2.680090492198929 25.000000000000000
8.400058336880299 -3.975390271416267 -2.915971900916856 16.000000000000000
8.422596446296247 -3.913154024252729 -3.077945854837691 14.000000000000000
7.134035542547672 -4.334455867731208 -0.523951532450324 22.000000000000000
7.140485217389237 -4.274009128765956 -0.659864249274847 28.000000000000000
7.250667725733292 -4.275666761190341 -0.806490718025764 8.000000000000000
7.352412551108104 -4.270427537321041 -0.954261141825525 0.000000000000000
7.324781957833127 -4.189674130692518 -1.086399534613377 23.000000000000000
7.425563942984270 -4.182612902660786 -1.238262264283067 23.000000000000000
7.528147228368590 -4.174170586414641 -1.393448679900769 3.000000000000000
7.635390452492956 -4.166934208427411 -1.553179944699531 3.000000000000000
7.754268609464355 -4.164508573798695 -1.718490812030396 23.000000000000000
7.867363971089515 -4.157124094073167 -1.886827870495603 24.000000000000000
7.984948439333643 -4.150645793515728 -2.059748022927416 22.000000000000000
8.103380032703214 -4.142757682644588 -2.237671742788940 22.000000000000000
9.581176274786825 -4.816117124203402 -2.819542700052047 27.000000000000000
8.139410678507968 -3.951683142924001 -2.692172755326221 17.000000000000000
8.095502752641607 -3.861372755775184 -2.826278758885850 19.000000000000000
8.420980191649923 -3.943630490660656 -3.094328871495601 15.000000000000000
7.131360136854293 -4.360707846827225 -0.534140124971883 11.000000000000000
7.096830935238216 -4.275537161911106 -0.666420778309733 38.000000000000000
7.199876267710204 -4.273691069775069 -0.811843808739214 2.000000000000000
7.301342373477595 -4.269047727092139 -0.959049033715192 0.000000000000000
7.280553737744954 -4.192492075944135 -1.091481316813806 22.000000000000000
7.377648788929853 -4.184029071394251 -1.242329697354782 23.000000000000000
7.469649513675152 -4.170405208759341 -1.395091587533059 7.000000000000000
7.583543356660234 -4.167656819336901 -1.555561247231694 2.000000000000000
7.698716041725446 -4.164041117734675 -1.719573458359440 26.000000000000000
7.815032074160019 -4.159191475498980 -1.888148286016419 23.000000000000000
7.932387680777864 -4.153397940214606 -2.060547313716593 22.000000000000000
8.050599452076483 -4.146203275173793 -2.237952381790983 23.000000000000000
7.875791393843905 -3.921591970581762 -2.476414007576875 1.000000000000000
7.997114457726408 -3.912546690490287 -2.660714705630195 10.000000000000000
8.032523711065734 -3.861322827919443 -2.820257585710035 37.000000000000000
7.101382931489783 -4.370246396356170 -0.542257222618083 4.000000000000000
7.104354237262261 -4.307864730533400 -0.677752414175069 32.000000000000000
7.159403769031506 -4.277593953826324 -0.818246685398681 1.000000000000000
7.253763199821192 -4.269435618810452 -0.964169558611152 0.000000000000000
7.212348865735068 -4.181176144157668 -1.092819239607759 3.000000000000000
7.326350723511318 -4.183252823370652 -1.245698555777707 24.000000000000000
7.428445760759334 -4.176021348939447 -1.399834016109997 22.000000000000000
7.524872908074309 -4.164315959554484 -1.556393364907824 18.000000000000000
7.646685520204288 -4.165178452100727 -1.721297480755096 24.000000000000000
7.759315484659478 -4.159157548886639 -1.888504088706964 24.000000000000000
7.876441163811434 -4.154077647928252 -2.060318783101210 22.000000000000000
7.990987237673250 -4.145818096387404 -2.236177828127712 24.000000000000000
7.840621527043695 -3.933644176795281 -2.480434147487811 25.000000000000000
7.910187923614845 -3.899749806423182 -2.647289644221091 11.000000000000000
8.041688515260933 -3.895861902318969 -2.839521414178803 16.000000000000000
7.098544289337553 -4.396467346111986 -0.552419991387212 2.000000000000000
7.196802067206819 -4.392189673622536 -0.697359216165694 28.000000000000000
7.112139463212896 -4.277205135102458 -0.823764825701449 1.000000000000000
7.206238852136161 -4.269595052147060 -0.969176813922355 0.000000000000000
7.226471926021656 -4.217486653224645 -1.106575723704808 2.000000000000000
7.278549970558784 -4.184199017911823 -1.249533074626056 23.000000000000000
7.380401836276104 -4.177557509564486 -1.403174254814303 22.000000000000000
7.490356185556571 -4.174093969957179 -1.562101066980457 15.000000000000000
7.591280024632319 -4.164176619244250 -1.722116335024396 23.000000000000000
7.707115943802534 -4.160708275787707 -1.889568858913710 24.000000000000000
7.820569936808242 -4.154483678780283 -2.059955151511645 22.000000000000000
7.941780425126518 -4.150531502823165 -2.237165153302219 24.000000000000000
7.826054694929562 -3.955954984904096 -2.490932369492072 30.000000000000000
7.610801220677507 -3.780863009033740 -2.562060827976983 20.000000000000000
7.756189099130739 -3.786719863271265 -2.754248234206991 23.000000000000000
7.098986033588005 -4.424821608742639 -0.562856132352363 2.000000000000000
7.190293750138897 -4.416571136875458 -0.707530338312176 31.000000000000000
7.092170012563686 -4.293077349357603 -0.832367337973526 2.000000000000000
7.165594839697198 -4.273596422574736 -0.974999595005711 0.000000000000000
7.209656383272234 -4.235839874664902 -1.115621526926029 3.000000000000000
7.230804997289284 -4.184915542187735 -1.253253763581754 6.000000000000000
7.328984922528024 -4.176909352558013 -1.405742602993267 23.000000000000000
7.435255749456362 -4.172166240210066 -1.563401677185838 23.000000000000000
7.546252957928325 -4.168592918692473 -1.725156043140722 24.000000000000000
7.654981314941833 -4.162006091210167 -1.890508493665357 23.000000000000000
7.764775362858673 -4.154616426519095 -2.059456703317808 22.000000000000000
7.882324284330519 -4.149587966588159 -2.235115116543239 24.000000000000000
7.835403550489564 -3.990445991296904 -2.509089076042934 2.000000000000000
7.668437526448829 -3.838532306900794 -2.596600784069477 29.000000000000000
7.697209302730450 -3.786980680782200 -2.748783416957792 16.000000000000000
7.099308480644446 -4.453216758737361 -0.573305848871749 1.000000000000000
7.156569136405596 -4.424188884373536 -0.714987350400335 25.000000000000000
7.095945824651045 -4.323370069630555 -0.843758315301305 1.000000000000000
7.124982459250148 -4.277408363472194 -0.980727611253925 2.000000000000000
7.206431671230884 -4.262210303000139 -1.126769675168759 3.000000000000000
7.241210656939929 -4.219252297992886 -1.267025756526414 2.000000000000000
7.281058501550726 -4.177974807933068 -1.408849744036797 23.000000000000000
7.390510326290352 -4.175773429579257 -1.566747389279956 23.000000000000000
7.490986951386877 -4.167077673697687 -1.725721343531975 23.000000000000000
7.602912854043000 -4.163051345282918 -1.891323248513009 24.000000000000000
7.715914346402663 -4.158170799721585 -2.060654604566302 23.000000000000000
7.829811136317135 -4.151985341064675 -2.234877020596041 25.000000000000000
9.462765713699453 -4.855318351416593 -3.048613578994776 7.000000000000000
7.794066572723468 -3.931040790128411 -2.654584819948548 12.000000000000000
7.669024181467632 -3.802171251917067 -2.754201495018131 19.000000000000000
7.102885658449678 -4.483782460311795 -0.584046377944578 1.000000000000000
7.139769784774338 -4.442183004675011 -0.724083954662631 27.000000000000000
7.096196782729167 -4.351642788015631 -0.854763280853691 1.000000000000000
7.121796320942583 -4.303627697637571 -0.991567346747285 1.000000000000000
7.165635227843707 -4.266297561050608 -1.132003931997998 0.000000000000000
7.224168902747646 -4.237681457586659 -1.276018623923673 3.000000000000000
7.229774268524032 -4.176837233689118 -1.411176370782913 7.000000000000000
7.332135420631106 -4.171390176321457 -1.567065464623464 24.000000000000000
7.439222600986263 -4.167207662991415 -1.726947418562825 23.000000000000000
7.550911815023196 -4.163844392742423 -1.892013381234544 24.000000000000000
7.667106767741046 -4.161491591646972 -2.061736536202187 22.000000000000000
7.773943138741696 -4.152302091364075 -2.233530706675968 23.000000000000000
9.290047387108880 -4.881786250287911 -2.839641975984185 4.000000000000000
9.356025590538708 -4.836361423396785 -3.032489625945036 7.000000000000000
7.745154220905025 -3.935919724697853 -2.653333378060781 18.000000000000000
7.576120032000013 -3.784924296382526 -2.736193218941482 24.000000000000000
7.106330284817660 -4.514407183768422 -0.594808929172562 1.000000000000000
7.143177989789236 -4.472810973388922 -0.735234794145561 23.000000000000000
7.096327407546394 -4.379956109657389 -0.865781613561293 1.000000000000000
7.125288178624508 -4.333996183366397 -1.003367058518135 1.000000000000000
7.141868048241053 -4.280381442300304 -1.139855907527213 3.000000000000000
7.210473760814360 -4.258065241750375 -1.285586458238000 1.000000000000000
7.212647662775555 -4.195277100117199 -1.420091456875419 2.000000000000000
7.287504003601590 -4.174535706786936 -1.570182483105600 23.000000000000000
7.390941748588953 -4.169012350257479 -1.728848198184403 23.000000000000000
7.498979449731431 -4.164385592925472 -1.892579151829705 25.000000000000000
7.614939010305419 -4.162712419573945 -2.061778160048632 21.000000000000000
7.728395526019376 -4.157855460718247 -2.235011534909634 20.000000000000000
9.279134960936995 -4.911815446284266 -2.854141446803241 2.000000000000000
9.321101355886075 -4.854122006635949 -3.039435647943761 7.000000000000000
7.730334862056540 -3.957992982490189 -2.663694890754513 19.000000000000000
7.680551760054194 -3.866418000729543 -2.789540554421633 34.000000000000000
7.099557401732545 -4.538643540057194 -0.604734252214745 1.000000000000000
7.176791311364584 -4.522616285892338 -0.749576149369219 25.000000000000000
7.099716643474210 -4.410408826719745 -0.877230621654226 1.000000000000000
7.128646021539407 -4.364424063996014 -1.015188893360694 1.000000000000000
7.145212190930323 -4.310746548408866 -1.152034262494717 1.000000000000000
7.172922934765252 -4.264272123892333 -1.290850814507017 2.000000000000000
7.209071860876366 -4.221630016094282 -1.431676957952595 4.000000000000000
7.242918301983893 -4.177470205070946 -1.573194570462039 7.000000000000000
7.376791679377162 -4.189938859205700 -1.738665256796113 8.000000000000000
7.453933591002527 -4.168487369541955 -1.894753564686804 23.000000000000000
7.559431879241221 -4.161804522281259 -2.060766066643851 21.000000000000000
7.781693857155500 -4.216734492194067 -2.265146117990882 2.000000000000000
7.729028627440339 -3.987036671750326 -2.678741319038813 20.000000000000000
7.621637675068351 -3.865967507901616 -2.783716648264981 20.000000000000000
7.106110239478666 -4.571515063469249 -0.615817577574873 1.000000000000000
7.200060966366744 -4.566249038246855 -0.762949409405151 30.000000000000000
7.099599334647366 -4.438811649087331 -0.888279478205635 1.000000000000000
7.121729388802803 -4.388662193414937 -1.025572359588959 1.000000000000000
7.151807804095389 -4.343227208847638 -1.164786051429983 1.000000000000000
7.165915290279234 -4.288574351789660 -1.301572926006907 1.000000000000000
7.201990720767838 -4.246001743932059 -1.442586166750481 2.000000000000000
7.208575360026295 -4.186114894155619 -1.578334366270421 2.000000000000000
7.416980807641192 -4.241946686602479 -1.761380142701872 2.000000000000000
7.483770295304801 -4.214521897832305 -1.915982082328917 2.000000000000000
7.572040725467655 -4.198346288663863 -2.078293456738393 3.000000000000000
7.746240773032057 -4.227707867362922 -2.269533889249805 1.000000000000000
7.727593421787159 -4.016117876842310 -2.693799010108113 7.000000000000000
7.596672389182992 -3.882527401336338 -2.790183791311478 27.000000000000000
7.109167985713038 -4.602295303181880 -0.626635853764255 1.000000000000000
7.199611980209476 -4.595050377112293 -0.773870380764349 29.000000000000000
7.106093315732071 -4.471490216784274 -0.900193884288567 1.000000000000000
7.131584713983306 -4.423363763550102 -1.038406703845614 1.000000000000000
7.151495708676554 -4.371653606182416 -1.176456491474777 1.000000000000000
7.165580918954354 -4.316956230503365 -1.313530737301350 2.000000000000000
7.191423819498232 -4.268363141302943 -1.452805404147401 2.000000000000000
7.221729720559493 -4.222372494765414 -1.593877774058034 2.000000000000000
7.378821582403575 -4.249269060251040 -1.765536889631155 1.000000000000000
7.479410986530241 -4.241515212109205 -1.928549714167850 1.000000000000000
7.577679437103561 -4.231211931470768 -2.093992344655841 1.000000000000000
7.693821514541574 -4.229197169551863 -2.268837985276104 1.000000000000000
7.736181459954007 -4.050551853247239 -2.712427345168763 3.000000000000000
7.544641990298118 -3.885070831943343 -2.786615486394471 27.000000000000000
7.112091819579507 -4.633132781610381 -0.637475158604255 1.000000000000000
7.205743892324848 -4.628195231606489 -0.785534121701989 26.000000000000000
7.109080035707423 -4.502117973597452 -0.911707627321893 1.000000000000000
7.127811031992124 -4.449753746576144 -1.049297616047491 1.000000000000000
7.154434363399911 -4.402194635118658 -1.188699850397493 1.000000000000000
7.171880165621266 -4.349474779683426 -1.326750930229969 1.000000000000000
7.187538047240169 -4.294748345222286 -1.464388428896310 1.000000000000000
7.217780289779795 -4.248781793875609 -1.605703881946309 3.000000000000000
7.323745178541029 -4.246597204318840 -1.765523362651546 1.000000000000000
7.430888468736905 -4.243372730123638 -1.929680916223186 1.000000000000000
7.525561769221064 -4.231762872784439 -2.093695070004586 1.000000000000000
7.651634098564172 -4.236059373993720 -2.271033377493598 1.000000000000000
7.462334664058101 -3.871616794359024 -2.771650908616383 25.000000000000000
7.943299426541576 -4.051214439926667 -3.099234709090929 8.000000000000000
7.106508090016501 -4.722954173261548 -0.509461130805246 1.000000000000000
7.164915716954613 -4.696826105711890 -0.652894556295307 3.000000000000000
7.205037310058936 -4.657091431886458 -0.796487762434810 20.000000000000000
7.111931870625885 -4.532803158289794 -0.923242436077253 1.000000000000000
7.130649002683549 -4.480386166179131 -1.061192066705541 1.000000000000000
7.160603665785414 -4.434878418957678 -1.201529254992946 1.000000000000000
7.167915229985832 -4.375895424431661 -1.338113033407553 1.000000000000000
7.197045015423065 -4.329275690598304 -1.478749147343315 1.000000000000000
7.227235416014595 -4.283220450069113 -1.620563734511572 1.000000000000000
7.282279828119009 -4.251551502060334 -1.768662299677214 1.000000000000000
7.385807945031878 -4.246943341031902 -1.931582060687244 1.000000000000000
7.480280136783414 -4.235892251576458 -2.095168229111458 0.000000000000000
7.612858592245548 -4.244611854446927 -2.274141213636856 1.000000000000000
7.440796862351641 -3.889401839100053 -2.779106220932023 25.000000000000000
7.880493238712202 -4.049748888984047 -3.091410074833775 7.000000000000000
7.105826958760408 -4.751755474279658 -0.519749117177774 0.000000000000000
7.194104790400308 -4.745484863903223 -0.666307489980955 17.000000000000000
7.187516174425984 -4.675167661721824 -0.805582135573610 14.000000000000000
7.071144031648535 -4.535640281243375 -0.929081978537848 3.000000000000000
7.133351266273733 -4.511075730391986 -1.073107388204610 1.000000000000000
7.159903678594251 -4.463449374892197 -1.213249764486668 1.000000000000000
7.177299836623165 -4.410606541772770 -1.352013679250434 1.000000000000000
7.192912051429668 -4.355738044516701 -1.490356436543837 1.000000000000000
7.223037840176678 -4.309706819134624 -1.632414007683200 1.000000000000000
7.261094669368783 -4.268214060639218 -1.776658924787176 1.000000000000000
7.347525493332009 -4.254210307960749 -1.935155750960820 1.000000000000000
7.451920369342173 -4.249431739755794 -2.101294053229877 1.000000000000000
7.638203541810679 -4.288983343185182 -2.296433002669757 0.000000000000000
7.424519011999515 -3.974339876957449 -2.648532420583821 0.000000000000000
7.425929550509533 -3.910646123775397 -2.789041628493509 32.000000000000000
7.536195087456654 -3.902161800637634 -2.972366209846742 13.000000000000000
7.108336801730711 -4.782822434499640 -0.530295646981680 1.000000000000000
7.199795654303619 -4.778911554482425 -0.677621495161614 29.000000000000000
7.143284221303798 -4.675740227090779 -0.811615587847631 13.000000000000000
7.067131660074786 -4.562004610232777 -0.939712740886000 4.000000000000000
7.139264523599184 -4.543952284780023 -1.085552253795527 1.000000000000000
7.155727232134447 -4.489954136928394 -1.224408276503017 1.000000000000000
7.176446144478948 -4.439180710209905 -1.364037887118064 1.000000000000000
7.198755481831270 -4.388368321981861 -1.504074128302974 1.000000000000000
7.225459957346804 -4.340255073816897 -1.645800200201883 1.000000000000000
7.270171538507237 -4.302735963570370 -1.792083990352420 1.000000000000000
7.356421587693108 -4.288796160282570 -1.951149640511536 1.000000000000000
7.453855096081025 -4.280261938929271 -2.115964541475202 0.000000000000000
7.656577509189785 -4.329736288638482 -2.316769413777774 0.000000000000000
7.392814149997616 -3.986464377014261 -2.652407343224517 11.000000000000000
7.337247604147211 -3.892727572670196 -2.771101881997339 14.000000000000000
7.500942087632517 -3.913232702628296 -2.974475014698154 16.000000000000000
7.110711814711624 -4.813944506957905 -0.540862063792909 1.000000000000000
7.202021372461897 -4.810197250511496 -0.688646906457659 29.000000000000000
7.112402548900408 -4.684866794897839 -0.819078199232898 4.000000000000000
7.069676828046219 -4.592718325970921 -0.951243357546956 5.000000000000000
7.141687623643266 -4.574764171461907 -1.097512943800239 1.000000000000000
7.158133671346850 -4.520704316184923 -1.236725850282696 1.000000000000000
7.178820006644931 -4.469879121309163 -1.376716366242109 1.000000000000000
7.204447681024960 -4.421074146820061 -1.517821135606343 1.000000000000000
7.231102448163911 -4.372890929238856 -1.659977802604126 1.000000000000000
7.279082531099206 -4.337352485567178 -1.807547211386357 1.000000000000000
7.355066112117072 -4.317556449402042 -1.964487921218632 1.000000000000000
7.469094545414363 -4.318922563695688 -2.134497261760167 0.000000000000000
7.688181502442458 -4.378293930262754 -2.341262788694581 0.000000000000000
7.364454531382808 -4.000272973900383 -2.657421605518671 18.000000000000000
7.265516546543067 -3.883287115951419 -2.759292388819027 11.000000000000000
7.509101244770349 -3.946962840603798 -2.993810085940856 12.000000000000000
7.106353370105510 -4.840626682817429 -0.550936563304700 1.000000000000000
7.204110665435642 -4.841537452925439 -0.699691797920123 28.000000000000000
7.094791992218244 -4.702659809129544 -0.828022527926345 1.000000000000000
7.065433246888516 -4.619138411136578 -0.961888440789805 4.000000000000000
7.137306668317179 -4.601333482384241 -1.108458256446681 1.000000000000000
7.163742627633819 -4.553633283589118 -1.249646143358791 1.000000000000000
7.181056188017030 -4.500633509200100 -1.389414999345941 1.000000000000000
7.206639389608777 -4.451786318392351 -1.530885783954479 1.000000000000000
7.233240936779444 -4.403561280596595 -1.673408975274278 1.000000000000000
7.287827098321878 -4.372063041855873 -1.823048255807641 1.000000000000000
7.367002972436855 -4.354284538128067 -1.981446281160659 1.000000000000000
7.484138116481499 -4.357714667649430 -2.153085118796228 0.000000000000000
7.722872620757666 -4.429000722896180 -2.366882988264674 0.000000000000000
7.319358126492129 -4.004817294429606 -2.656307786080367 18.000000000000000
7.234004156993132 -3.895051134781022 -2.762604661193333 20.000000000000000
7.503762639658935 -3.973727607450245 -3.007839614980575 12.000000000000000
7.108471017675766 -4.871839086673049 -0.561533351127382 1.000000000000000
7.202760689195506 -4.870698453196697 -0.710430174054537 28.000000000000000
7.100307741392097 -4.735857953130525 -0.839675785823203 1.000000000000000
7.120835738500257 -4.684890184747389 -0.980766201576649 1.000000000000000
7.139469358968783 -4.632237567407136 -1.120450084317846 1.000000000000000
7.165867494866343 -4.584504177849368 -1.262008117762971 1.000000000000000
7.183154340577636 -4.531443401434193 -1.402133523969507 1.000000000000000
7.208692592284960 -4.482554044330841 -1.543970320177543 1.000000000000000
7.241930454275880 -4.438387323332575 -1.688419753352897 1.000000000000000
7.293057719302278 -4.404845546772830 -1.837743402110590 1.000000000000000
7.378758224543515 -4.391124843717593 -1.998450817662916 1.000000000000000
7.509028350876984 -4.402525901152958 -2.174636271978140 0.000000000000000
7.767322146303911 -4.485749648071268 -2.395707154550677 0.000000000000000
8.270593402903888 -4.703723102586306 -2.706277468782261 0.000000000000000
7.280986247057670 -4.012827662137983 -2.657524679873597 19.000000000000000
7.192494412017540 -3.901259015868100 -2.762009816094849 38.000000000000000
7.531560640536028 -4.018248921751011 -3.035270979793298 13.000000000000000
7.117024461628368 -4.907636768072650 -0.572678064225315 0.000000000000000
7.194695482552637 -4.895409446501791 -0.720518746763537 30.000000000000000
7.102368648290864 -4.766911010987334 -0.850961219505751 1.000000000000000
7.122877685243096 -4.715900841352346 -0.992417621567735 1.000000000000000
7.144814714290738 -4.665364395971788 -1.132987974893535 1.000000000000000
7.164528263354957 -4.613288261856396 -1.273798326504629 1.000000000000000
7.185114118340558 -4.562308324081904 -1.414871677020975 1.000000000000000
7.210606942546335 -4.513376849176253 -1.557074480370939 1.000000000000000
7.247115076856073 -4.471246799831548 -1.702683504883251 1.000000000000000
7.308154881628336 -4.443794891864653 -1.855010292469979 1.000000000000000
7.390331226809698 -4.428076718838090 -2.015501161033043 1.000000000000000
7.530339049143237 -4.445551969020004 -2.195294398410130 0.000000000000000
7.784730574607932 -4.527261149119248 -2.416371736393213 0.000000000000000
8.236863496156261 -4.717712646460416 -2.711761628741714 1.000000000000000
7.235978785917364 -4.016967174275867 -2.656209654854832 19.000000000000000
7.121102893127519 -3.890926223905872 -2.749765572846612 44.000000000000000
7.569060415716815 -4.068326711820497 -3.066825425275562 16.000000000000000
7.122135820578592 -4.941249629352833 -0.583590141839103 0.000000000000000
7.163510162410031 -4.904355631507918 -0.728259564128616 25.000000000000000
7.100994611397026 -4.795790581953691 -0.861865548072708 1.000000000000000
7.124782348430817 -4.746965679890932 -1.004088303599955 1.000000000000000
7.146695405355419 -4.696387012309449 -1.145023062511351 1.000000000000000
7.166383734584135 -4.644259138338337 -1.286194862627270 1.000000000000000
7.193583591027757 -4.597476856134826 -1.428949850834816 1.000000000000000
7.209053816236391 -4.542157230493224 -1.569473404707972 1.000000000000000
7.245483674115182 -4.500041781968612 -1.715397997161918 1.000000000000000
7.309723591014906 -4.474712582494075 -1.868922771820537 1.000000000000000
7.405055449201978 -4.467150837659497 -2.033512524633707 1.000000000000000
7.554757851953156 -4.490727092823637 -2.217002475445598 0.000000000000000
7.207639299920845 -4.030185587014038 -2.660923872729335 13.000000000000000
7.099639572326485 -3.907620316394434 -2.756668533929547 71.000000000000000
7.104190958641150 -4.958944447351604 -0.592618588336557 1.000000000000000
7.148734115850807 -4.924474806000378 -0.737626210175793 24.000000000000000
7.102788475235120 -4.826941905746454 -0.873184811260442 1.000000000000000
7.123250060368131 -4.775872152239494 -1.015307718343898 1.000000000000000
7.151744365361404 -4.729650103488662 -1.157612383784428 1.000000000000000
7.171413036691232 -4.677444486861988 -1.299210579351720 1.000000000000000
7.195251801637617 -4.628469194504251 -1.441735213746198 1.000000000000000
7.214017710023696 -4.575185786371038 -1.583340613908739 1.000000000000000
7.260347681691110 -4.539264060002338 -1.732088142830388 1.000000000000000
7.321130227574526 -4.511833836048329 -1.885423991250782 1.000000000000000
7.416255096667008 -4.504333361951263 -2.050657773879749 1.000000000000000
7.568954931183763 -4.530113831328201 -2.235842106437283 0.000000000000000
8.234080552880705 -4.710902269058863 -2.900640836099460 2.000000000000000
7.192548395002001 -4.050757900059011 -2.670502578291892 1.000000000000000
7.094686946405007 -3.933413933214590 -2.769992050982042 93.000000000000000
7.079659605456417 -4.971994690352665 -0.601059622644518 5.000000000000000
7.179744604029776 -4.976337374904483 -0.751769746687170 26.000000000000000
7.111014005224725 -4.862638355747443 -0.885340634282430 1.000000000000000
7.128178469073966 -4.809256012951192 -1.027486406198710 1.000000000000000
7.153341566229305 -4.760789282704149 -1.169689635136339 1.000000000000000
7.176289582845572 -4.710702044319189 -1.312253814164456 1.000000000000000
7.196780546864184 -4.659515095556713 -1.454539389138834 1.000000000000000
7.215513444472939 -4.606170960441744 -1.596502056313552 1.000000000000000
7.258428734551131 -4.568176103328330 -1.744844805254170 1.000000000000000
7.322395908028055 -4.542887049305114 -1.899387117822443 1.000000000000000
7.430590746529388 -4.543655709942002 -2.068772086795266 0.000000000000000
7.599552350191393 -4.579631916826314 -2.259670680228910 0.000000000000000
8.183608816326458 -4.715290113076379 -2.899825148326711 2.000000000000000
7.066496796097228 -3.946309720486119 -2.774238385709556 52.000000000000000
7.110498344567032 -5.024093076154423 -0.614236154949112 1.000000000000000
7.210493997019953 -5.028417586672540 -0.766008415738041 30.000000000000000
7.109241327582714 -4.891658584687427 -0.896292383680558 2.000000000000000
7.126383692212399 -4.838249922744096 -1.038734401296088 1.000000000000000
7.151507337987112 -4.789776112794277 -1.181241543471042 1.000000000000000
7.177714357114903 -4.741852116655867 -1.324715483201161 1.000000000000000
7.201472916993409 -4.692766724605071 -1.468035522134873 1.000000000000000
7.223483872958633 -4.641459717862216 -1.611157479754527 1.000000000000000
7.266314057382451 -4.603414090418047 -1.760016685042149 1.000000000000000
7.333456850030613 -4.580199326496999 -1.915964706954570 1.000000000000000
7.444727562190972 -4.583105843493193 -2.086939470155420 0.000000000000000
7.613313996361279 -4.619320677419676 -2.278637854502656 0.000000000000000
8.126584123112401 -4.715605353904953 -2.896535971846436 3.000000000000000
7.025106284708326 -3.951672141012680 -2.773219244577646 48.000000000000000
7.496142470325607 -5.399056085756532 -0.507489356968286 16.000000000000000
7.118313680599159 -5.060226032077842 -0.625506873564623 0.000000000000000
7.214887481888904 -5.062405587768818 -0.777529606259371 29.000000000000000
7.110615084929263 -4.922976951361703 -0.907671223702627 1.000000000000000
7.131021410647670 -4.871757389835197 -1.050958408059352 1.000000000000000
7.152833481314443 -4.821011307815439 -1.193351230150943 1.000000000000000
7.172416237345835 -4.768677764923607 -1.335969195970102 1.000000000000000
7.206011166496256 -4.726089625599212 -1.481558611440922 1.000000000000000
7.227985273035094 -4.674704017024139 -1.625106533740536 1.000000000000000
7.270726739876308 -4.636635566882964 -1.774418015565542 1.000000000000000
7.350944163035367 -4.621776579574363 -1.934326022270847 1.000000000000000
7.452052527463723 -4.618584922366852 -2.103293237474780 1.000000000000000
7.659933919692845 -4.679331331442370 -2.307616657185668 0.000000000000000
8.079545568348358 -4.721431261123466 -2.896661225526461 3.000000000000000
6.973890163938121 -3.951251937564118 -2.768187874264127 49.000000000000000
7.515871868001045 -5.445841795088669 -0.519704922678120 11.000000000000000
7.119473828325675 -5.091804890227063 -0.636232164893850 0.000000000000000
7.212618501275935 -5.091867112434049 -0.788365184647717 27.000000000000000
7.115114228114674 -4.956620636583885 -0.919489742123800 1.000000000000000
7.135506274915802 -4.905335149797172 -1.063208948796788 1.000000000000000
7.160577457681591 -4.856746021801724 -1.206583835568575 1.000000000000000
7.180144545317312 -4.804309332296306 -1.349693353306843 1.000000000000000
7.200526623999349 -4.752969367842236 -1.493062130465401 1.000000000000000
7.229038231892314 -4.705875244417319 -1.638335870882248 1.000000000000000
7.281576376447828 -4.674159745274157 -1.790467019974265 1.000000000000000
7.361621973262484 -4.659324349503478 -1.951000391825421 1.000000000000000
7.462504574480526 -4.656211249982416 -2.120619313171130 0.000000000000000
7.673221196096759 -4.719365834484149 -2.326731311534511 0.000000000000000
8.032554597120207 -4.727041045542334 -2.896679063693640 2.000000000000000
6.929325561654484 -3.954330739579261 -2.765655738269011 47.000000000000000
7.522468763663814 -5.483374740883601 -0.531075466145723 40.000000000000000
7.395731052099189 -5.321475096384782 -0.671982889344933 14.000000000000000
7.278428813591708 -5.169805895807458 -0.806769486998902 21.000000000000000
7.116203831460844 -4.988050986183063 -0.930908367316652 1.000000000000000
7.133308516078018 -4.934465993463927 -1.074502198134966 1.000000000000000
7.158338656542480 -4.885870095115080 -1.218181058755124 1.000000000000000
7.177871728633987 -4.833408475678935 -1.361587292284994 1.000000000000000
7.204776510117891 -4.786405300112772 -1.506625282645231 1.000000000000000
7.229949873665098 -4.737098124596542 -1.651582932290700 1.000000000000000
7.285663080206577 -4.707540910884116 -1.804929930514513 1.000000000000000
7.368823158262221 -4.694882596674733 -1.966839766147484 1.000000000000000
7.485937773251638 -4.702215773180085 -2.141755933214787 0.000000000000000
7.709347741810080 -4.773793322937429 -2.352929813174597 0.000000000000000
7.982327350262765 -4.730488291789564 -2.895398175465489 4.000000000000000
6.884820254930334 -3.957200116014085 -2.763020321879502 47.000000000000000
7.516015237838504 -5.511545550234214 -0.541550175212666 49.000000000000000
7.402486590820997 -5.358604839822298 -0.683697625671152 53.000000000000000
7.246594214674077 -5.178678153121651 -0.814432854342651 25.000000000000000
7.120404163418622 -5.021824023758457 -0.942774641138143 1.000000000000000
7.134242808898188 -4.965896806236623 -1.086300351419158 1.000000000000000
7.152709172704134 -4.912784406876693 -1.229226123324478 1.000000000000000
7.182013377807079 -4.866972759888537 -1.374742156007123 1.000000000000000
7.202320546641950 -4.815531191444330 -1.518833133575228 1.000000000000000
7.250395296807310 -4.781347332560409 -1.669377646145968 1.000000000000000
7.299439539686992 -4.747395585997664 -1.821876383431116 1.000000000000000
7.379136471183875 -4.732635052540886 -1.983596329676300 1.000000000000000
7.499272037528683 -4.742169850051498 -2.160131482202627 0.000000000000000
7.761593547845397 -4.838714208161895 -2.384284884357757 0.000000000000000
7.932164092852106 -4.733701250502545 -2.894001602462988 5.000000000000000
6.784815602163473 -3.927697165222430 -2.737861980258097 41.000000000000000
7.509447264507466 -5.539727069189311 -0.552023351383410 47.000000000000000
7.386503839591922 -5.379382426750394 -0.693326571294388 21.000000000000000
7.169484934579589 -5.154865035957495 -0.816869777809938 21.000000000000000
7.114722564942715 -5.048762029964477 -0.953362884049887 1.000000000000000
7.141538334017238 -5.001931403557085 -1.099116216726752 1.000000000000000
7.166512558495889 -4.953221156817772 -1.243663105737862 1.000000000000000
7.185999862077503 -4.900606116851736 -1.387922789530255 1.000000000000000
7.209541783875099 -4.851286603978691 -1.533134551373740 1.000000000000000
7.244436301483628 -4.808384126606574 -1.681166489299659 1.000000000000000
7.306466126598541 -4.783087322381464 -1.837227369527743 1.000000000000000
7.402370418136549 -4.778955612137073 -2.003943973747892 1.000000000000000
7.538625181476249 -4.798940063906848 -2.186162079133635 0.000000000000000
7.780687695958902 -4.883411856253912 -2.405660745024638 0.000000000000000
9.422308395853525 -5.829671921504292 -3.094680238902332 15.000000000000000
7.901689368391928 -4.748472839783190 -2.899690813739168 4.000000000000000
6.747076134514311 -3.933792363635052 -2.737593336285353 28.000000000000000
7.502764723034522 -5.567918921478597 -0.562494795201975 50.000000000000000
7.392969306231257 -5.416616603971432 -0.705076877158462 35.000000000000000
7.131294764399530 -5.158675193466097 -0.823592879744227 12.000000000000000
7.118636667296855 -5.082644097497956 -0.965267308669434 1.000000000000000
7.067577833676683 -4.980905820507928 -1.099352887908260 3.000000000000000
7.157365543446089 -4.977956881962656 -1.254164167408443 1.000000000000000
7.189830761240908 -4.934308002182673 -1.401128889256808 1.000000000000000
7.216592629814913 -4.887129150103023 -1.547470027339588 1.000000000000000
7.257953098704539 -4.848520367369461 -1.697536763728158 1.000000000000000
7.316588593156578 -4.821019314904381 -1.853440078289544 1.000000000000000
7.405741651071575 -4.812707018621793 -2.019019997546377 1.000000000000000
7.551496276020361 -4.839216235556569 -2.204673721614216 0.000000000000000
9.359456501605512 -5.913922579292351 -2.912524286712541 24.000000000000000
9.365601702589405 -5.834098715516265 -3.095221627939743 15.000000000000000
7.861404243262865 -4.757198568349517 -2.901703138727650 2.000000000000000
6.715878348795257 -3.943538010470360 -2.739894516976624 28.000000000000000
7.492768191085122 -5.593732287715929 -0.572719763957319 49.000000000000000
7.386424308834652 -5.444469377958871 -0.715615205487323 47.000000000000000
7.102793313226178 -5.169346212594117 -0.831362065485495 2.000000000000000
7.122396529804281 -5.116593614960974 -0.977196731253512 1.000000000000000
7.129732006910748 -5.055899485816054 -1.120779148163182 1.000000000000000
7.167579689969249 -5.016305994971531 -1.268099188846444 1.000000000000000
7.187007459045498 -4.963589994505455 -1.413082499385557 1.000000000000000
7.220218753610466 -4.920840630281080 -1.561135689614009 1.000000000000000
7.248465392487147 -4.873447972949305 -1.708582543769092 1.000000000000000
7.329784786586322 -4.861218738507406 -1.870527026993241 1.000000000000000
7.415478559796782 -4.850794112376716 -2.035912131828294 1.000000000000000
7.567426502914222 -4.881720054491669 -2.224194558163755 0.000000000000000
9.283262097234996 -5.905256105976910 -2.907472296834920 24.000000000000000
9.308961858490783 -5.838264750189055 -3.095633993847423 15.000000000000000
7.837423308203824 -4.775667219013633 -2.909670514209819 2.000000000000000
6.639234472353333 -3.926271180066322 -2.723483108391857 33.000000000000000
7.489055460835726 -5.624332117803229 -0.583431686809740 49.000000000000000
7.386171331075824 -5.477082861650795 -0.726782219516070 53.000000000000000
7.109618778534124 -5.205778653651309 -0.843263560877206 1.000000000000000
7.122780220842352 -5.148281554891481 -0.988703675092349 1.000000000000000
7.136577357030190 -5.092118865010226 -1.133661806594416 1.000000000000000
7.161428995514119 -5.043364191486186 -1.279185824751243 1.000000000000000
7.197024135329434 -5.001915171567165 -1.427616269146521 1.000000000000000
7.220441289082861 -4.952392832011300 -1.574118428946985 1.000000000000000
7.261631416285273 -4.913766044220632 -1.725024184376276 1.000000000000000
7.329765685790489 -4.892854118098366 -1.884318861131558 1.000000000000000
7.431537192888822 -4.893271885799200 -2.054645760796074 1.000000000000000
7.592905289926530 -4.930707334080389 -2.246663847541849 0.000000000000000
8.611423327411259 -5.514673608176679 -2.714436087182158 32.000000000000000
9.242626790912746 -5.836005611987247 -3.092650724015778 16.000000000000000
6.621108153697480 -3.943337074301234 -2.730933088796230 26.000000000000000
7.482028506564014 -5.652552706137205 -0.593896734546048 49.000000000000000
7.379383958779623 -5.504974088316548 -0.737325352791687 53.000000000000000
7.113069996922553 -5.239933859580388 -0.854812474232312 1.000000000000000
7.126237529618242 -5.182355277172110 -1.000677996473816 1.000000000000000
7.143252810802238 -5.128423106605399 -1.146577394074095 1.000000000000000
7.100274589152939 -5.031536624014070 -1.280373367355855 2.000000000000000
7.193916432459939 -5.031294812340294 -1.439602331930774 1.000000000000000
7.223760271962099 -4.986229612342656 -1.587829268598881 1.000000000000000
7.268109428303009 -4.949788874647024 -1.739963055536941 1.000000000000000
7.345832442045836 -4.935442408980333 -1.902329614190268 1.000000000000000
7.440881717921904 -4.931584732664319 -2.071629137767606 0.000000000000000
7.618120169641791 -4.979889680190636 -2.269216572746584 0.000000000000000
8.546623727359309 -5.509852556492746 -2.711332452623469 36.000000000000000
9.186146371054788 -5.839623468836741 -3.092793008231903 16.000000000000000
7.740694515074766 -4.782311811443309 -2.907205902997108 0.000000000000000
6.570611150038840 -3.940959299795075 -2.724946405407633 37.000000000000000
6.906535586842792 -4.079642960118203 -2.999729238720067 11.000000000000000
7.474886517064668 -5.680782116412324 -0.604359249829705 49.000000000000000
7.372482260441648 -5.532874944662959 -0.747866409323242 53.000000000000000
7.119564691128913 -5.276525005575664 -0.866774754111587 1.000000000000000
7.123125060950246 -5.211801635043755 -1.011765330013727 1.000000000000000
7.143328226905895 -5.160166990569832 -1.158482832036347 1.000000000000000
7.135901965507339 -5.088327274943107 -1.299010654974987 1.000000000000000
