# This PCD file was generated using the MATLAB® pcwrite function
# from Computer Vision Toolbox®.
# .PCD v.7 - Point Cloud Data file format
VERSION .7
FIELDS x y z intensity
SIZE 8 8 8 8
TYPE F F F F
COUNT 1 1 1 1
WIDTH 632
HEIGHT 1
VIEWPOINT 0 0 0 1 0 0 0
POINTS 632
DATA ascii
-2.542461991305863 -5.532040271560978 -2.159633639438079 12.000000000000000
-2.565297910284404 -5.517597614269085 -2.274506363697973 6.000000000000000
-2.600354344054735 -5.527759180690819 -2.401693512012728 8.000000000000000
-2.501178541753041 -5.254993486524623 -2.401825422227417 12.000000000000000
-2.664077856331234 -5.530249850815128 -2.654876600327186 4.000000000000000
-2.653743557877129 -5.444063164928035 -2.741482333574190 0.000000000000000
-2.561778885704618 -5.191261095323453 -2.738487389224050 0.000000000000000
-2.764550918603992 -5.534851719381919 -3.054942661147804 8.000000000000000
-2.701754643492706 -5.344656824605407 -3.083644154821442 1.000000000000000
-2.598765004815182 -5.080691050602287 -3.061302810582086 1.000000000000000
-2.549716010242622 -4.921693066689415 -3.094024826082329 3.000000000000000
-2.248977383947414 -4.125310555688968 -3.054296898733687 73.000000000000000
-2.261652994632522 -5.537968998851185 -0.917893838977546 22.000000000000000
-2.288690688590742 -5.538612718508362 -1.025701753111232 4.000000000000000
-2.319678826534540 -5.548339232997584 -1.135527145121210 25.000000000000000
-2.340716668776482 -5.534278057254247 -1.242299425060674 25.000000000000000
-2.369003657271098 -5.536284859347777 -1.353128090016873 3.000000000000000
-2.397681089584128 -5.540179060149535 -1.465088862196175 16.000000000000000
-2.424358007083828 -5.538298945210791 -1.577097665639505 12.000000000000000
-2.456929866664892 -5.548402713216608 -1.693730486901802 9.000000000000000
-2.475907489333761 -5.528390955406614 -1.802546961507339 12.000000000000000
-2.502262096408713 -5.523738918690813 -1.917444330095853 4.000000000000000
-2.537407851706833 -5.537786836445590 -2.040160373153655 14.000000000000000
-2.560985768264825 -5.525279514421965 -2.155049461672283 10.000000000000000
-2.596673882816491 -5.537939270765309 -2.281073733927537 5.000000000000000
-2.620807278159682 -5.524241904279822 -2.398487980737882 11.000000000000000
-2.524075649492231 -5.258393353134384 -2.401917038399223 15.000000000000000
-2.689721875664170 -5.536446415797590 -2.656458792561185 10.000000000000000
-2.676067422347207 -5.443632921585758 -2.740047402159254 0.000000000000000
-2.588234231103588 -5.200737049628061 -2.742472188659282 0.000000000000000
-2.782744485628426 -5.524417211113170 -3.048272232800274 7.000000000000000
-2.724303887415716 -5.343946986479562 -3.082520873361219 1.000000000000000
-2.620546979874947 -5.080195009095896 -3.060491495793681 1.000000000000000
-2.574339698915441 -4.927460580491352 -3.097321962969265 3.000000000000000
-2.269698449174731 -4.128347686118065 -3.056905352204649 69.000000000000000
-2.276917490377534 -5.528126930216427 -0.913106448027157 10.000000000000000
-2.311683946361312 -5.546928345651950 -1.024167593872370 11.000000000000000
-2.335261046278873 -5.538405680060579 -1.130519512792771 20.000000000000000
-2.362550476862732 -5.538736858792647 -1.240424626217749 4.000000000000000
-2.394122628796350 -5.547791752095178 -1.353162042650462 19.000000000000000
-2.413682348704231 -5.530142260125285 -1.459769879922872 17.000000000000000
-2.448322566803225 -5.545935632413565 -1.576708777805090 4.000000000000000
-2.476406496291735 -5.545320791949350 -1.690338480748259 13.000000000000000
-2.495490443074122 -5.525250643602324 -1.799196702391883 7.000000000000000
-2.529928407092386 -5.537868666661959 -1.920137725734971 9.000000000000000
-2.552594494945645 -5.524132055026501 -2.033047560437747 15.000000000000000
-2.587470045038757 -5.535551287535031 -2.157097751400337 3.000000000000000
-2.618592238145159 -5.537825773296843 -2.279200823739570 11.000000000000000
-2.639649605548805 -5.517302615873332 -2.393793183381411 6.000000000000000
-2.547016715818736 -5.261716561955089 -2.401966833865000 15.000000000000000
-2.705733297744956 -5.522759817107628 -2.648499070042413 9.000000000000000
-2.706509361727738 -5.459467535847467 -2.746794003908501 0.000000000000000
-2.606663590418760 -5.193948136736965 -2.737879412843414 0.000000000000000
-2.809015767822314 -5.529935978994408 -3.050406937500107 3.000000000000000
-2.746872345752289 -5.343165520313574 -3.081359852187587 1.000000000000000
-2.643977251651386 -5.082759329185620 -3.061528685857202 1.000000000000000
-2.597400284794422 -4.930050131160778 -3.098627674437743 3.000000000000000
-2.290465557474305 -4.131314866935739 -3.059475281851392 72.000000000000000
-2.308823148469136 -5.558418096868198 -0.914914165100306 6.000000000000000
-2.330158695986712 -5.544256146956099 -1.020580339050783 18.000000000000000
-2.350797126199817 -5.528431939124015 -1.125494187423534 13.000000000000000
-2.387524254102936 -5.550320662477360 -1.240117929774062 12.000000000000000
-2.409982876420945 -5.537729540076741 -1.347916197810260 17.000000000000000
-2.435902598731531 -5.534300234907061 -1.458183609632415 3.000000000000000
-2.469203586371059 -5.546413909074398 -1.574265034318667 15.000000000000000
-2.489550227461529 -5.528122141546906 -1.682637588158869 16.000000000000000
-2.523020151069713 -5.539503582587309 -1.801491986048936 5.000000000000000
-2.549723461580458 -5.534568060309791 -1.916770892742498 15.000000000000000
-2.577326814830476 -5.531080545200289 -2.033508911232668 5.000000000000000
-2.612434359708742 -5.542315355476960 -2.157763475605580 12.000000000000000
-2.634074333321769 -5.524102740134853 -2.271722985526643 9.000000000000000
-2.671418086058194 -5.537156735378521 -2.400712539504354 6.000000000000000
-2.571624919424235 -5.268288825682505 -2.403492068425682 13.000000000000000
-2.731438882107898 -5.528804981198321 -2.650000210035043 3.000000000000000
-2.730560631491325 -5.462136644923768 -2.746910611929451 0.000000000000000
-2.629970953144078 -5.196796471731310 -2.738367253861218 0.000000000000000
-2.835351188255766 -5.535364656201962 -3.052491730066893 8.000000000000000
-2.774375933338373 -5.351795695999656 -3.085628786615849 1.000000000000000
-2.669089817776625 -5.088371155142516 -3.064405738826821 1.000000000000000
-2.618863180750129 -4.929474106141734 -3.097950399439840 3.000000000000000
-2.311278411148203 -4.134211867056200 -3.062006587917787 68.000000000000000
-2.322590151138036 -5.544804021728314 -0.909463221060702 29.000000000000000
-2.345553721696029 -5.534264747899825 -1.015631546768414 25.000000000000000
-2.380233626079124 -5.550943225898806 -1.127055095428077 5.000000000000000
-2.404788186134679 -5.543837441644060 -1.235752483490338 17.000000000000000
-2.424227135474127 -5.524050948847664 -1.341783853743264 11.000000000000000
-2.462899223747139 -5.549047552129719 -1.459361051237465 13.000000000000000
-2.483760750841173 -5.532692901410703 -1.567781168167454 16.000000000000000
-2.515352954651100 -5.538979309420641 -1.683464203165014 4.000000000000000
-2.544256326052150 -5.539709203474300 -1.799199179714617 15.000000000000000
-2.564691909227547 -5.520823323852721 -1.909781463295354 9.000000000000000
-2.603738929736521 -5.541378317415474 -2.035184003733364 9.000000000000000
-2.629363767543802 -5.531950261998474 -2.151751955199040 12.000000000000000
-2.665738982478833 -5.544149605605742 -2.278122215324364 3.000000000000000
-2.691929904107976 -5.533427923086780 -2.397395422405898 10.000000000000000
-2.596299333974086 -5.274775392306701 -2.404969506900537 15.000000000000000
-2.757209171031350 -5.534761374336297 -2.651452076944935 8.000000000000000
-2.751368536547859 -5.458208418709614 -2.743707716580248 0.000000000000000
-2.656613146566068 -5.206017954248475 -2.742210723036226 0.000000000000000
-2.853507990982488 -5.524744679844636 -3.045728873016685 7.000000000000000
-2.792065761535947 -5.341387205834023 -3.078924406446397 1.000000000000000
-2.694267679943000 -5.093896177836706 -3.067234486998859 1.000000000000000
-2.640346175650571 -4.928829461949315 -3.097236866587350 3.000000000000000
-2.327185253391587 -4.128254935194945 -3.057992803529027 56.000000000000000
-2.337828257144790 -5.534802693272009 -0.904596145605467 34.000000000000000
-2.368653438664305 -5.542369765993306 -1.013983365005097 3.000000000000000
-2.397338050362899 -5.544461277661354 -1.122700054687820 22.000000000000000
-2.420456987552525 -5.533714283030034 -1.230564994300403 20.000000000000000
-2.455785213421451 -5.549623125443708 -1.345161013069053 5.000000000000000
-2.480471976094526 -5.542390761556658 -1.454888113231092 13.000000000000000
-2.501442368567106 -5.525996197632006 -1.563281196872139 6.000000000000000
-2.539638336621388 -5.546237203830108 -1.683173787228681 14.000000000000000
-2.562287363883457 -5.532882527890981 -1.794611489276128 15.000000000000000
-2.599021104925219 -5.548528571750049 -1.917112407926736 4.000000000000000
-2.622110968022108 -5.534425292598526 -2.030510958360946 13.000000000000000
-2.647875622316717 -5.524945363901465 -2.147043878136765 4.000000000000000
-2.687738744870625 -5.543816885194447 -2.276132417666909 10.000000000000000
-2.710795987230489 -5.526289692159819 -2.392597616387514 9.000000000000000
-2.621039586838425 -5.281175939253052 -2.406399007413465 15.000000000000000
-2.776441067580449 -5.527483651381793 -2.646560689264417 8.000000000000000
-2.780442431696183 -5.470488733422813 -2.748648559113639 0.000000000000000
-2.676713958449929 -5.202259133722718 -2.739215634125552 0.000000000000000
-2.876593645442093 -5.523639176275303 -3.044214718005100 4.000000000000000
-2.821336403046689 -5.353000240829284 -3.084917068986654 1.000000000000000
-2.712861292139928 -5.086866268135029 -3.062508641574563 1.000000000000000
-2.660185338172916 -4.925035999438681 -3.094551723723952 3.000000000000000
-2.349716655177983 -4.133947238326972 -3.062621078603747 43.000000000000000
-2.356120540058972 -5.532041221104945 -0.900897290876114 7.000000000000000
-2.393378864767352 -5.554015969884394 -1.012950253444888 25.000000000000000
-2.412846181831035 -5.534325404507931 -1.117593673855360 28.000000000000000
-2.442406343130054 -5.537897661126991 -1.228542530774688 3.000000000000000
-2.474788207330296 -5.546533824882756 -1.341560978222892 17.000000000000000
-2.494819125740706 -5.528591657525877 -1.448532986912505 14.000000000000000
-2.530359110000555 -5.543920330429125 -1.565724798389494 6.000000000000000
-2.557522126295482 -5.539403809796512 -1.678591673254974 19.000000000000000
-2.583540389885518 -5.532960047893106 -1.792252259657915 4.000000000000000
-2.615614033064663 -5.538116068587197 -1.911253421420484 14.000000000000000
-2.640456824279410 -5.527420172909057 -2.025812921084841 9.000000000000000
-2.681146835702146 -5.548486244290232 -2.154190344961754 8.000000000000000
-2.704812622269225 -5.533297937382033 -2.269955641543861 11.000000000000000
-2.737901802211033 -5.535812374960684 -2.395005442724865 4.000000000000000
-2.640871910406017 -5.277551253885892 -2.403254525728792 14.000000000000000
-2.793983463203617 -5.516869498059823 -2.640072602926269 4.000000000000000
-2.797967839691642 -5.459912814489331 -2.742102847492499 0.000000000000000
-2.703486583828106 -5.211306725813374 -2.742962358573979 0.000000000000000
-2.906381922579521 -5.535192107634203 -3.049676778231917 7.000000000000000
-2.842351462837348 -5.348765447348916 -3.081779088603325 1.000000000000000
-2.736449439241595 -5.089121473416084 -3.063378379386012 1.000000000000000
-2.686721385499052 -4.933485288408333 -3.099565631787880 2.000000000000000
-2.367296446556276 -4.130802306835363 -3.060715575803422 55.000000000000000
-2.385338344634231 -5.554670569081688 -0.901298979581882 9.000000000000000
-2.408756744209678 -5.543859302179215 -1.007918143931026 15.000000000000000
-2.431473512200875 -5.531351942040308 -1.113920218306703 6.000000000000000
-2.467583871904948 -5.549171298015824 -1.228065039153856 22.000000000000000
-2.488980453957109 -5.532698754344910 -1.335351936191261 23.000000000000000
-2.520376594511967 -5.539553501700587 -1.448649310093041 3.000000000000000
-2.549688811147529 -5.540613120585880 -1.562148909131489 19.000000000000000
-2.572124346681180 -5.525525364079131 -1.671868953036721 9.000000000000000
-2.611353439684465 -5.546862270969080 -1.794351180774781 14.000000000000000
-2.635442133081310 -5.534557267877435 -1.907752764842680 14.000000000000000
-2.670314714356111 -5.544319965607771 -2.029860942344643 5.000000000000000
-2.694745414050473 -5.531150726157016 -2.145454450224161 10.000000000000000
-2.723496487326423 -5.526102187974096 -2.265139618564062 4.000000000000000
-2.761765061821888 -5.538560762657325 -2.394471637262102 11.000000000000000
-2.665708516525739 -5.283791969097220 -2.404596542504764 12.000000000000000
-2.824863440308467 -5.532429713407190 -2.646105064017271 4.000000000000000
-2.827180875681532 -5.472010158007427 -2.746941777112167 0.000000000000000
-2.720265391864883 -5.200983363929966 -2.736513154718233 0.000000000000000
-2.927865033012656 -5.530743428600301 -3.046322943395262 8.000000000000000
-2.868414477235808 -5.353898454887492 -3.084041783364382 1.000000000000000
-2.760079093390916 -5.091297793351374 -3.064205309316236 1.000000000000000
-2.704912993781649 -4.926482552574138 -3.094878245626764 3.000000000000000
-2.388244348961916 -4.133433574588877 -3.063102971516446 24.000000000000000
-2.400559043282656 -5.544505235423316 -0.896349247825485 24.000000000000000
-2.422504616537686 -5.530048742646187 -1.002213693186698 18.000000000000000
-2.461256838960451 -5.553499291769941 -1.115274131763655 8.000000000000000
-2.483222856441162 -5.538884262786955 -1.222795718302615 13.000000000000000
-2.507944368286726 -5.529506451564011 -1.331701711229237 5.000000000000000
-2.544398070493928 -5.546884558764583 -1.447789401330807 16.000000000000000
-2.565753077060431 -5.530215514189545 -1.556564009018641 17.000000000000000
-2.603047574684361 -5.546541648814711 -1.675685848210715 6.000000000000000
-2.627750755860625 -5.536378365398014 -1.788545934614688 15.000000000000000
-2.658573203811462 -5.537825931170836 -1.906592897298087 4.000000000000000
-2.693666100348113 -5.547434049510496 -2.028842627255000 14.000000000000000
-2.713245730038603 -5.523962086312014 -2.140653282858927 8.000000000000000
-2.757192518653194 -5.549121384051097 -2.272694717763407 7.000000000000000
-2.778964876266529 -5.527892820220219 -2.388132991404517 12.000000000000000
-2.688929302496753 -5.286641650026344 -2.404387504205812 11.000000000000000
-2.844080862257863 -5.524962065358395 -2.641117609136192 6.000000000000000
-2.849749807474619 -5.471035571833984 -2.745213981919362 1.000000000000000
-2.748835836927164 -5.213072807392480 -2.741855839837319 0.000000000000000
-2.947648143618602 -5.523055586939453 -3.041188485608661 5.000000000000000
-2.887757610726231 -5.346383785862134 -3.079022636481129 1.000000000000000
-2.787142671820054 -5.099602680548945 -3.068724853657914 1.000000000000000
-2.729868980439305 -4.931696124582640 -3.097872283424842 2.000000000000000
-2.412627459491189 -4.141814891531759 -3.069765812891084 14.000000000000000
-2.415733232105549 -5.534300885411079 -0.891382443757466 37.000000000000000
-2.453721621449455 -5.555918434141941 -1.003671538698398 4.000000000000000
-2.476746050649524 -5.543196478902508 -1.110083689131054 18.000000000000000
-2.500429656282380 -5.532130772008740 -1.218295799622390 14.000000000000000
-2.535030316330779 -5.544025492188132 -1.332292249190097 8.000000000000000
-2.560313976645992 -5.536464946280688 -1.442280222285658 22.000000000000000
-2.591623102334130 -5.540844373951448 -1.556880637396011 4.000000000000000
-2.625872583982625 -5.549994925421044 -1.674170093057775 17.000000000000000
-2.644099137931149 -5.525852129746053 -1.782722072834898 7.000000000000000
-2.685074846285037 -5.547895435005310 -1.907756093449741 14.000000000000000
-2.707032545732337 -5.529987948201979 -2.020299009821757 14.000000000000000
-2.746811392622918 -5.547200093855834 -2.147627130598505 4.000000000000000
-2.774241862979205 -5.538421027510021 -2.266426837056184 10.000000000000000
-2.801176766016812 -5.527169104193982 -2.386086842336438 4.000000000000000
-2.713883684851503 -5.292712735633476 -2.405635725366590 9.000000000000000
-2.856485211244964 -5.504365407130898 -2.629857354063051 4.000000000000000
-2.872336174305071 -5.469988728166949 -2.743448234522576 0.000000000000000
-2.774109801310149 -5.218649372117975 -2.743769221557752 0.000000000000000
-2.979340179661099 -5.537499668016526 -3.048241053554301 6.000000000000000
-2.913900615510820 -5.351354039249231 -3.081197356473069 2.000000000000000
-2.804046194354654 -5.089214100863602 -3.062000779800071 1.000000000000000
-2.425152808658802 -4.129763588300117 -3.061297528729422 15.000000000000000
-2.435642815390389 -5.534924676105994 -0.888142390425177 4.000000000000000
-2.469058209247192 -5.545604572064486 -0.998561710484898 27.000000000000000
-2.490571737645722 -5.529265826795918 -1.104159334637535 26.000000000000000
-2.527369266753649 -5.546744472404672 -1.218477060644694 3.000000000000000
-2.552407420662753 -5.537145720507331 -1.327717450669786 23.000000000000000
-2.577826730381203 -5.529533135966321 -1.437670562536012 7.000000000000000
-2.614272081794487 -5.544365038400182 -1.555176454077053 17.000000000000000
-2.638768525056634 -5.532467286586419 -1.666316414736872 19.000000000000000
-2.680426551728534 -5.556804058971884 -1.790256448384502 5.000000000000000
-2.701606982672835 -5.537258580313750 -1.901786298697919 14.000000000000000
-2.735444912391007 -5.543198450674322 -2.022945394150804 4.000000000000000
-2.767047644576545 -5.543248373542183 -2.144057089227181 12.000000000000000
-2.789547237342177 -5.524322326214884 -2.258768037386839 8.000000000000000
-2.833599097306935 -5.546324822118300 -2.392609688874417 6.000000000000000
-2.740605383442286 -5.301991544779225 -2.408332159677471 8.000000000000000
-2.882431299383958 -5.509863319429456 -2.631064424436909 2.000000000000000
-2.894939686596155 -5.468869507677210 -2.741644491718245 0.000000000000000
-2.799447329109299 -5.224137675748905 -2.745633660261987 0.000000000000000
-2.999144648961626 -5.529668298381608 -3.043032021599229 12.000000000000000
-2.940105779861483 -5.356233686941305 -3.083322022445963 1.000000000000000
-2.826056744891130 -5.088066457950157 -3.060842856818670 1.000000000000000
-2.773091298560290 -4.929629729957481 -3.096032844685039 2.000000000000000
-2.444481324387115 -4.129292023454892 -3.061424903497458 7.000000000000000
-2.461991098814364 -5.549955401065654 -0.887181421999476 14.000000000000000
-2.485963986717444 -5.538852760479604 -0.994081060312176 17.000000000000000
-2.512464126282438 -5.533222884236103 -1.101791508185520 3.000000000000000
-2.546229095334774 -5.543431780922747 -1.214693987935362 23.000000000000000
-2.569758692666784 -5.530216650181106 -1.323119066268478 19.000000000000000
-2.610219532012343 -5.554270190349210 -1.441267722284596 7.000000000000000
-2.631967686875931 -5.537301501495011 -1.550488367186952 19.000000000000000
-2.663280970016632 -5.539271890716049 -1.665780716502119 4.000000000000000
-2.695131410037494 -5.542684258491368 -1.783248130042847 15.000000000000000
-2.719776739136306 -5.530009590928324 -1.896974542131189 8.000000000000000
-2.760578354965555 -5.549493744770951 -2.023048769269727 13.000000000000000
-2.783879849949650 -5.532479850060129 -2.137845572000690 14.000000000000000
-2.820124882408583 -5.540335578802219 -2.263411876322613 3.000000000000000
-2.850783560249418 -5.535469280480968 -2.386176216766728 11.000000000000000
-2.763984124892064 -5.304592134441005 -2.407986304896952 8.000000000000000
-2.910158615962714 -5.518530452234211 -2.633777226285786 5.000000000000000
-2.924449216028733 -5.480588483288784 -2.746272138683870 0.000000000000000
-2.819671161385927 -5.219953645804090 -2.742413987220953 0.000000000000000
-2.998182998278800 -5.483852084519452 -3.016929734671261 27.000000000000000
-2.962913384908752 -5.354770497459906 -3.081798369955689 2.000000000000000
-2.855006144332454 -5.099209844202051 -3.067083122547678 1.000000000000000
-2.465559948777319 -4.131654954814719 -3.063667324195003 3.000000000000000
-2.481981931024980 -5.550431631636052 -0.883861073132800 17.000000000000000
-2.502844425979426 -5.532052982571971 -0.989577474157673 11.000000000000000
-2.542588480249957 -5.555001303877193 -1.102936232981267 11.000000000000000
-2.561788220772162 -5.532940409082365 -1.209325242214218 28.000000000000000
-2.595375896865551 -5.540941036614527 -1.322723093746559 3.000000000000000
-2.627780340743333 -5.547198699371253 -1.436583819516544 18.000000000000000
-2.649636783048482 -5.530187757615504 -1.545776272115759 8.000000000000000
-2.691224603562394 -5.552939705390608 -1.667283647576770 18.000000000000000
-2.713147263331315 -5.535433320811935 -1.778444792036786 16.000000000000000
-2.749808517506706 -5.546691036781318 -1.900354614154254 5.000000000000000
-2.775545223209174 -5.535300294151378 -2.015674420011423 14.000000000000000
-2.807505137267289 -5.535159994027524 -2.136823517451776 4.000000000000000
-2.845683848491555 -5.546196956473449 -2.263891948490241 11.000000000000000
-2.869638560910226 -5.527885297556390 -2.381151542173872 7.000000000000000
-2.787403471781521 -5.307113679300863 -2.407597615981119 8.000000000000000
-2.920667932935456 -5.494547138015131 -2.620907204319196 3.000000000000000
-2.947131413022872 -5.479305947953267 -2.744380214747542 0.000000000000000
-2.841626858369461 -5.218898066461823 -2.740838515796642 0.000000000000000
-3.016053465399632 -5.472806813897662 -3.009967287464465 38.000000000000000
-2.985737198850320 -5.353234247784507 -3.080236430494985 2.000000000000000
-2.873613595236065 -5.091730772667733 -3.062127143660579 3.000000000000000
-2.821614543979286 -4.936432317729994 -3.099790853860215 3.000000000000000
-2.488421878002524 -4.136838816257804 -3.068015835255927 8.000000000000000
-2.492230382699305 -5.529187797471761 -0.877071274093421 30.000000000000000
-2.531167432941730 -5.550352533760949 -0.989534323502014 4.000000000000000
-2.556370495423085 -5.540912070503651 -1.096933597387408 22.000000000000000
-2.580618374088636 -5.529521111067326 -1.205489564275393 6.000000000000000
-2.619408341802920 -5.548035181209249 -1.321431635370415 20.000000000000000
-2.641957626719873 -5.533046823738785 -1.430059000506914 17.000000000000000
-2.682462948463772 -5.554464240597465 -1.549812740315132 7.000000000000000
-2.705713088042171 -5.538739281803734 -1.660403521256675 18.000000000000000
-2.739649434124145 -5.545363592001737 -1.779145753052531 3.000000000000000
-2.771421744812946 -5.546149964624515 -1.897814027314966 14.000000000000000
-2.795587742328964 -5.531259452140053 -2.011992556659034 8.000000000000000
-2.836336525538599 -5.547865625293543 -2.139655607237277 6.000000000000000
-2.864394408332533 -5.538606527533297 -2.258872817729868 11.000000000000000
-2.904059705470533 -5.550051190926881 -2.388929677733002 7.000000000000000
-2.814337581592557 -5.316119072617315 -2.410141486010764 8.000000000000000
-2.890979590307769 -5.395794299793639 -2.572399829485766 1.000000000000000
-2.973319626527342 -5.484387629405190 -2.745672727936566 0.000000000000000
-2.870592756053535 -5.230513525202462 -2.745915055417241 0.000000000000000
-3.088141834925999 -5.559414519815643 -3.056701850727821 41.000000000000000
-3.013833615341089 -5.360975360788088 -3.084015259375850 2.000000000000000
-2.899204366609850 -5.096524233448974 -3.064557191259077 3.000000000000000
-2.511348917419591 -4.141941469444570 -3.072318909011693 43.000000000000000
-2.518742920807888 -5.543978792189258 -0.875977882503822 3.000000000000000
-2.549722530733268 -5.547013618794935 -0.985601810659184 27.000000000000000
-2.570082539634585 -5.526792375865717 -1.090919691607967 17.000000000000000
-2.612809195636308 -5.554455583323283 -1.207802666037441 9.000000000000000
-2.636780740823475 -5.540917800939316 -1.316735830778598 25.000000000000000
-2.669580643660070 -5.546949208272063 -1.430766811135004 3.000000000000000
-2.700178782225677 -5.547209227783180 -1.545025672024709 16.000000000000000
-2.721836150767992 -5.527972232650731 -1.654548567862237 8.000000000000000
-2.762808404977194 -5.548313209159473 -1.777586636553582 16.000000000000000
-2.787889413013989 -5.535288357114963 -1.891733444328789 15.000000000000000
-2.827716501635726 -5.550893662872491 -2.016904293678567 4.000000000000000
-2.856607950112900 -5.543644186047591 -2.135945729144939 14.000000000000000
-2.883076509992354 -5.530963001911469 -2.253828322880155 4.000000000000000
-2.921215102178263 -5.539011885560591 -2.382404176126328 11.000000000000000
-2.837859701843415 -5.318472647638619 -2.409660766367966 8.000000000000000
-2.965800602337219 -5.491997571567710 -2.616832715530467 2.000000000000000
-2.994300316634349 -5.479736109499039 -2.742090039377952 1.000000000000000
-2.894387345750502 -5.232478660289669 -2.745922242594025 0.000000000000000
-3.038486224924533 -5.362391070164603 -3.084157497852988 1.000000000000000
-2.923092755769828 -5.098151460475451 -3.065087996651641 2.000000000000000
-2.537865520575402 -4.152730279656176 -3.080855372116852 18.000000000000000
-2.543711794335590 -5.555068330069522 -0.874259775819879 16.000000000000000
-2.563293033033807 -5.532867304065250 -0.979736812825811 36.000000000000000
-2.603779328811258 -5.555431421538806 -1.093315566263698 4.000000000000000
-2.631719083746783 -5.550884316202874 -1.203884534486562 23.000000000000000
-2.650743263348045 -5.526697258283404 -1.310344064395933 9.000000000000000
-2.692207826769947 -5.550228549922963 -1.428707129225117 18.000000000000000
-2.716158080246270 -5.536419719195320 -1.539245911483321 18.000000000000000
-2.755085892520292 -5.551775863146473 -1.659018532211112 6.000000000000000
-2.779106493945560 -5.537434932955765 -1.771586142018163 17.000000000000000
-2.807771022963875 -5.531208818063563 -1.887963689687987 4.000000000000000
-2.846087946368459 -5.543311703150650 -2.011910227432927 16.000000000000000
-2.873384193245989 -5.532642410814137 -2.129618564923034 7.000000000000000
-2.919231356113269 -5.556579280468957 -2.262321592821889 9.000000000000000
-2.941829541191571 -5.534532687760467 -2.378697727472640 9.000000000000000
-2.863181181418864 -5.324018758660006 -2.410618547137902 7.000000000000000
-2.968985684737989 -5.454960437480453 -2.597759540323925 2.000000000000000
-3.018808967080358 -5.481439280364830 -2.741685582985169 1.000000000000000
-2.918221096613040 -5.234363364817425 -2.745885976572913 0.000000000000000
-2.945244695217399 -5.096626031597544 -3.063728574684129 2.000000000000000
-2.560943900319585 -4.157660422000402 -3.085061126581991 11.000000000000000
-2.557147513507747 -5.540895601256513 -0.868543913764511 26.000000000000000
-2.583478052499775 -5.533006899321545 -0.976387118059302 5.000000000000000
-2.622529250202220 -5.551880334167862 -1.089339748156616 22.000000000000000
-2.647239094367636 -5.540170366312571 -1.198404560022883 19.000000000000000
-2.685066497720915 -5.554713833191733 -1.313939166843404 7.000000000000000
-2.709739022882448 -5.542925871872527 -1.423907021822085 18.000000000000000
-2.740690094644844 -5.542987206502805 -1.538276514044813 3.000000000000000
-2.771220867418503 -5.540879822137307 -1.653097002784736 18.000000000000000
-2.795354387665578 -5.526514795578483 -1.765567348364523 8.000000000000000
-2.839850108009234 -5.550921397702349 -1.892294638942400 8.000000000000000
-2.866180799132061 -5.539059197482152 -2.008117235988739 16.000000000000000
-2.907667750207576 -5.555142954584829 -2.136172045629597 4.000000000000000
-2.929161460985798 -5.532150005610937 -2.250429614739028 10.000000000000000
-2.965970339306358 -5.536585704737769 -2.377791975856659 4.000000000000000
-2.886793347154320 -5.326207929062169 -2.410048395203058 8.000000000000000
-2.975489534786919 -5.424426519879586 -2.581796846926683 8.000000000000000
-3.038019320688989 -5.473446076471454 -2.736430275939746 2.000000000000000
-2.938529655406234 -5.229824401118861 -2.742479935707802 0.000000000000000
-2.967412741801965 -5.095029163911104 -3.062331699650880 1.000000000000000
-2.575163322576468 -4.148135047267431 -3.078553798732216 69.000000000000000
-2.575524481792959 -5.537466814733230 -0.864499230429570 21.000000000000000
-2.613772151888108 -5.554526424871707 -0.976773941818757 10.000000000000000
-2.637888175285243 -5.541158435699567 -1.083943340385378 28.000000000000000
-2.672931833848283 -5.550642950591541 -1.197486637357124 3.000000000000000
-2.702446544794004 -5.547411707467165 -1.309148586061635 20.000000000000000
-2.725520051087987 -5.532076540410473 -1.418186730355862 9.000000000000000
-2.765283315609640 -5.549467329522152 -1.537258775540812 17.000000000000000
-2.789045645816055 -5.533394310189772 -1.648185606512191 22.000000000000000
-2.825531087939046 -5.542976473639342 -1.768278791302645 4.000000000000000
-2.858043816152585 -5.543284489945504 -1.887283393791608 16.000000000000000
-2.889789435315679 -5.541499039111865 -2.006739001230645 4.000000000000000
-2.924453766028690 -5.544007878165299 -2.129776236415861 13.000000000000000
-2.951358336578866 -5.530967920541669 -2.247994179495444 6.000000000000000
-2.993704603921790 -5.545142661109180 -2.379668382864400 9.000000000000000
-2.912226656805321 -5.331579786638221 -2.410910383673196 10.000000000000000
-2.999672486176604 -5.426223028100861 -2.581225411501871 5.000000000000000
-3.046460173887510 -5.446199049527694 -2.721554761866997 0.000000000000000
-2.967797955784340 -5.241057436075515 -2.747342760814499 0.000000000000000
-2.991394320467918 -5.096423497237628 -3.062737918313687 1.000000000000000
-2.935718576132164 -4.938355931419158 -3.099835662800489 2.000000000000000
-2.594722681575351 -4.147183587616341 -3.078422078975538 80.000000000000000
-2.603983277593312 -5.555500472070484 -0.863771726116932 5.000000000000000
-2.628978224948101 -5.543796822858183 -0.971459870306665 27.000000000000000
-2.656606541575206 -5.537501295394807 -1.079915314624556 7.000000000000000
-2.695278109456436 -5.553954227246124 -1.194994708917097 23.000000000000000
-2.716349938472046 -5.533034164955355 -1.302680291245593 22.000000000000000
-2.755122465765569 -5.549124562425992 -1.419595995103671 5.000000000000000
-2.781224251537024 -5.538508566161509 -1.531394960556527 21.000000000000000
-2.810344403989501 -5.532752590036445 -1.645300309490612 4.000000000000000
-2.850559839769217 -5.549051569501603 -1.767651345403469 17.000000000000000
-2.877974578628372 -5.538994087025324 -1.883402991573325 9.000000000000000
-2.916980643000381 -5.550602846361198 -2.007756950013636 12.000000000000000
-2.942966507720995 -5.536174717464132 -2.124645295606641 11.000000000000000
-2.986057222196739 -5.552934088057111 -2.254950394013139 4.000000000000000
-3.012576643826431 -5.537158208931847 -2.374438235526487 6.000000000000000
-2.934133966020303 -5.330345417945249 -2.408778029382544 11.000000000000000
-2.854900322508879 -5.124592720071898 -2.436390281117705 1.000000000000000
-2.982736167594050 -5.226884538791528 -2.738887908014570 0.000000000000000
-3.113962323380615 -5.327008573739525 -3.061170087380249 24.000000000000000
-3.019031549784638 -5.103852775959153 -3.066775398156672 2.000000000000000
-2.614301195254107 -4.146168121848478 -3.078256513980017 71.000000000000000
-2.622415643238045 -5.551930756563008 -0.859651713445683 34.000000000000000
-2.644135808786515 -5.533028516704805 -0.966129006926256 27.000000000000000
-2.685609447075951 -5.555070324770444 -1.079996103988904 9.000000000000000
-2.709035310647422 -5.539546736147847 -1.188675583874410 22.000000000000000
-2.742331465735486 -5.543184537534653 -1.301969014559795 3.000000000000000
-2.777871954363032 -5.552107074955920 -1.417377308054466 20.000000000000000
-2.797115071966787 -5.527509035749165 -1.525513400100956 11.000000000000000
-2.842231785727872 -5.552696199762745 -1.648510657939012 8.000000000000000
-2.863261578429031 -5.531108239784978 -1.759363172649360 17.000000000000000
-2.910336188605663 -5.558396436943370 -1.887558295541492 4.000000000000000
-2.937121103241119 -5.546137350021454 -2.003852319806196 16.000000000000000
-2.968607537529540 -5.541650418419742 -2.124611947662700 3.000000000000000
-3.006568124797453 -5.548262304117345 -2.251073858331267 11.000000000000000
-3.013417523484248 -5.496286919595014 -2.355113782102008 2.000000000000000
-2.959666414780946 -5.335546697103731 -2.409546877784941 10.000000000000000
-2.861825061719219 -5.097673544276185 -2.422243949750409 1.000000000000000
-3.010309659919544 -5.234779076442631 -2.741997040887083 0.000000000000000
-3.009469805753106 -5.108769993207850 -2.935134859722704 22.000000000000000
-2.635716336898319 -4.147949182850124 -3.080181320620636 67.000000000000000
-2.635734844614416 -5.537572480552746 -0.853848260237339 35.000000000000000
-2.676390145364918 -5.557825936126180 -0.966976035647575 4.000000000000000
-2.702656770109898 -5.547727169239000 -1.075204928684096 23.000000000000000
-2.726194178269365 -5.532156543009073 -1.183853574565762 12.000000000000000
-2.766648430776436 -5.549734914749866 -1.300382573125529 20.000000000000000
-2.790124117257958 -5.534114826608810 -1.409793068575680 24.000000000000000
-2.830602805238938 -5.551076616445548 -1.529147526344306 3.000000000000000
-2.860082685339115 -5.545011457032963 -1.643495961174401 19.000000000000000
-2.888333084326868 -5.537038386911704 -1.758659118717743 4.000000000000000
-2.928543677603285 -5.550561756514963 -1.882445249000182 17.000000000000000
-2.955460102837378 -5.538247519797135 -1.998703076997020 7.000000000000000
-2.994308293536645 -5.547035263312524 -2.124528566723691 9.000000000000000
-3.019846992665879 -5.530297396927644 -2.241802587745443 6.000000000000000
-3.033929245820344 -5.491521952894938 -2.351267737249199 2.000000000000000
-2.979811518615803 -5.330911792744736 -2.405867571480128 14.000000000000000
-2.883148669766554 -5.096501493936942 -2.420335156609903 1.000000000000000
-3.041618959670685 -5.248877994131592 -2.748351125109917 0.000000000000000
-3.012623972407789 -5.136412726115457 -2.818351487638314 11.000000000000000
-3.029745645312964 -5.103920956047729 -2.931728534350337 9.000000000000000
-2.655343386440978 -4.146800609174512 -3.079944838440136 58.000000000000000
-2.655837816962515 -5.537475682094048 -0.850228534106477 7.000000000000000
-2.691558632425604 -5.546933714177414 -0.961581249160548 30.000000000000000
-2.717939956315116 -5.536797711855198 -1.069707199125456 27.000000000000000
-2.759051505339802 -5.556387977032829 -1.185767025839056 4.000000000000000
-2.783994827848471 -5.542202572812550 -1.295476530247815 23.000000000000000
-2.811116605086275 -5.533491423429503 -1.406624363303989 4.000000000000000
-2.851830436991456 -5.550316188032082 -1.526050251963594 20.000000000000000
-2.879689067797187 -5.540708925854225 -1.639472924987994 14.000000000000000
-2.918839726816948 -5.553105831540598 -1.761149134191927 12.000000000000000
-2.946721894527424 -5.542675370118122 -1.877307598077269 16.000000000000000
-2.986408596294105 -5.553810248551520 -2.002001852912423 5.000000000000000
-3.014633342481750 -5.542336756836138 -2.120571876692789 11.000000000000000
-3.045749857385787 -5.535427719188924 -2.241888438765269 4.000000000000000
-3.056255675711659 -5.489967891205739 -2.348790709750507 1.000000000000000
-3.007257521829547 -5.339190105026515 -2.408008974191451 18.000000000000000
-2.906319824608957 -5.098472513657044 -2.419914689522872 1.000000000000000
-3.021591994171579 -5.174722622800535 -2.708505786930234 1.000000000000000
-3.016257345758141 -5.103540594311342 -2.799500138663382 24.000000000000000
-2.678668274151028 -4.151289956763879 -3.083910499986680 50.000000000000000
-2.689750358431087 -5.565855534646746 -0.850937821912989 8.000000000000000
-2.708414276306395 -5.539553968596387 -0.956783119054532 20.000000000000000
-2.743659160676732 -5.547028251360435 -1.068275240115512 3.000000000000000
-2.776253029443101 -5.548857477641361 -1.180870784350069 22.000000000000000
-2.801313097055315 -5.534620964639912 -1.290547058434806 16.000000000000000
-2.844569658919168 -5.557111593901076 -1.409586531039066 6.000000000000000
-2.867713214322086 -5.539132779478763 -1.520075317774210 22.000000000000000
-2.908264751380094 -5.553486513760996 -1.640482757408567 4.000000000000000
-2.933246359991652 -5.538417927545018 -1.753869051965872 18.000000000000000
-2.968490770662361 -5.541495276657387 -1.874431285290620 4.000000000000000
-3.006582816858895 -5.549135314596936 -1.997988244625577 19.000000000000000
-3.033127841717032 -5.534250079558332 -2.115312637108182 5.000000000000000
-3.066226357380549 -5.530572513157159 -2.237920374368871 0.000000000000000
-3.074929212132305 -5.481803667725788 -2.343480934183914 1.000000000000000
-3.029270825301587 -5.337651110289983 -2.405714632244803 20.000000000000000
-2.931371668798418 -5.103571873064743 -2.420973001879286 1.000000000000000
-3.014010878622351 -5.122718432084689 -2.680278770785962 16.000000000000000
-2.700204435915208 -4.152849242863835 -3.085714693601646 36.000000000000000
-2.699561297633266 -5.544209613606077 -0.843969525941881 27.000000000000000
-2.726989325242022 -5.535672580446470 -0.952572465542211 16.000000000000000
-2.769458943355275 -5.557162738936194 -1.066789320366804 22.000000000000000
-2.793426445523353 -5.541278118448798 -1.175951320187755 28.000000000000000
-2.827500173114914 -5.544436472398568 -1.289652268858409 3.000000000000000
-2.863880867653515 -5.552848311510443 -1.405445838602033 22.000000000000000
-2.887140604387126 -5.534801528229383 -1.515970703413771 6.000000000000000
-2.931524797351504 -5.555885570062131 -1.638402238428835 21.000000000000000
-2.953021108381289 -5.533895932416533 -1.749801743809364 10.000000000000000
-2.995737614435206 -5.550366371575052 -1.874937142078861 9.000000000000000
-3.021265991214883 -5.534354267518721 -1.990331292002835 9.000000000000000
-3.055259933919275 -5.532752830861092 -2.112564519437489 3.000000000000000
-3.095416979051954 -5.476850319736450 -2.339540190080013 0.000000000000000
-3.042052332566746 -5.319870603637767 -2.396099823979786 6.000000000000000
-2.949069261379374 -5.095770289838846 -2.415908037319102 1.000000000000000
-3.010090113344119 -5.140099181971417 -2.561443715767490 5.000000000000000
-3.026550843816354 -5.105316055700985 -2.670168901248803 17.000000000000000
-2.725503667795945 -4.160017262564918 -3.091702141538335 17.000000000000000
-2.717987176063843 -5.540346001657792 -0.839699882497921 43.000000000000000
-2.756104520180810 -5.552982461696441 -0.951975658265824 5.000000000000000
-2.782954456715314 -5.542535973222072 -1.060529809759075 22.000000000000000
-2.810571584085878 -5.533649974260348 -1.171008681905238 4.000000000000000
-2.857348390943721 -5.561123205818549 -1.290319674529442 20.000000000000000
-2.881385356285636 -5.545062027038868 -1.400400494456604 18.000000000000000
-2.919221721945414 -5.554500593333293 -1.518421448999636 9.000000000000000
-2.945735281906646 -5.541112956121395 -1.631247024957893 22.000000000000000
-2.985562757666171 -5.553073209163144 -1.753205337007421 4.000000000000000
-3.017568565912896 -5.549029320611955 -1.871976909313577 19.000000000000000
-3.045068798224868 -5.536256542913791 -1.988666765730648 5.000000000000000
-4.320914137998235 -7.766206004246090 -2.962291226678928 57.000000000000000
-3.099194040213514 -5.442503293583884 -2.323048471391334 0.000000000000000
-3.045435195123564 -5.285922480139059 -2.379212476064977 1.000000000000000
-2.976061245594955 -5.103908120418838 -2.418395617096269 1.000000000000000
-3.015013483137878 -5.109939169087764 -2.545221284037887 25.000000000000000
-3.044608316408292 -5.097290615281278 -2.664967651402710 0.000000000000000
-2.738163139752666 -5.539978946549848 -0.835937732061584 3.000000000000000
-2.774731514721045 -5.548957344358005 -0.947688457094006 30.000000000000000
-2.799938513453241 -5.534917589739611 -1.055602006284708 23.000000000000000
-2.845596371392686 -5.560969783569579 -1.173427610610421 4.000000000000000
-2.871109408362082 -5.546376629859251 -1.283671704512440 24.000000000000000
-2.906103433469482 -5.551060430598647 -1.398817689986385 3.000000000000000
-2.936891713020428 -5.546578756648563 -1.513296785923647 22.000000000000000
-2.965356894399189 -5.536549555547750 -1.627089889281846 5.000000000000000
-3.007235189069902 -5.551784405104632 -1.750122977638059 19.000000000000000
-3.030197572856123 -5.530799729667216 -1.863312378472782 5.000000000000000
-3.065207853210966 -5.531400774660374 -1.984562996405115 1.000000000000000
-4.352384113186718 -7.764536236184679 -2.958568837842879 80.000000000000000
-3.100896070754644 -5.404928747050937 -2.305195175615461 2.000000000000000
-2.997507454886279 -5.102367175905435 -2.416291013132311 1.000000000000000
-3.034784815947284 -5.105085887919475 -2.541609568336814 6.000000000000000
-2.767189195068440 -5.557288801334997 -0.834806047685995 16.000000000000000
-2.789793380172538 -5.537811085841884 -0.942170511888495 44.000000000000000
-2.824057285644832 -5.541306259831537 -1.053323018901682 3.000000000000000
-2.862792668428717 -5.553195369271452 -1.168407175728089 20.000000000000000
-2.884797953069809 -5.531600360156876 -1.277013009125813 13.000000000000000
-2.929057924641376 -5.553516098130734 -1.396317521876151 20.000000000000000
-2.954532174595757 -5.538606714184821 -1.508148300024001 15.000000000000000
-2.999684038380481 -5.559193350278909 -1.630901886717937 8.000000000000000
-3.023380775003109 -5.540271390305324 -1.743807790757318 13.000000000000000
-3.053855363072984 -5.532703945559822 -1.861423775559220 4.000000000000000
-4.335849521236135 -7.766408674943652 -2.783110709791536 79.000000000000000
-4.385744150931331 -7.766069076280087 -2.956050633026736 81.000000000000000
-3.111757826723158 -5.383636659702671 -2.294298050413814 5.000000000000000
-3.024628953748909 -5.110319880630244 -2.418676168853341 0.000000000000000
-2.782114844534585 -5.546132431616848 -0.829368460208182 26.000000000000000
-2.810175205438768 -5.537207389706637 -0.938429346363050 5.000000000000000
-2.853638198993153 -5.558134281673888 -1.052990188049539 15.000000000000000
-2.878147563356249 -5.541882239480477 -1.162631432259309 24.000000000000000
-2.918465884258977 -5.554961163168718 -1.279132267634474 5.000000000000000
-2.948383368998992 -5.548994882432819 -1.392044289577217 24.000000000000000
-2.981350314638317 -5.547717706161399 -1.507632101724197 4.000000000000000
-3.013826979228309 -5.544258727083396 -1.623668102302671 28.000000000000000
-3.041332010863171 -5.532096647275995 -1.738536822991300 4.000000000000000
-3.075683446774081 -5.531172465638477 -1.858364466568028 0.000000000000000
-4.368983855312996 -7.768046451915061 -2.780347171290702 69.000000000000000
-4.413514531716664 -7.757584906135058 -2.949706070514714 69.000000000000000
-3.122500325596793 -5.362332570765270 -2.283402092746227 1.000000000000000
-3.049933283749508 -5.114989086343675 -2.419499454693478 0.000000000000000
-2.796990846725216 -5.534938375272630 -0.823914671109655 38.000000000000000
-2.841375009048698 -5.557668105528621 -0.938220276237634 3.000000000000000
-2.870654731815403 -5.550317067959257 -1.047958899874408 20.000000000000000
-2.900744635251045 -5.544469814589725 -1.159754731038277 3.000000000000000
-2.937629548589856 -5.550465732451305 -1.274804607826456 25.000000000000000
-2.962170973949736 -5.534082772455106 -1.385155221881390 8.000000000000000
-3.006395135501592 -5.553307005542534 -1.506131996680428 20.000000000000000
-3.029756993933991 -5.532691912292555 -1.617416693793106 8.000000000000000
-3.066728067024209 -5.537368435389798 -1.737476841190898 1.000000000000000
-4.350793352404742 -7.766851289179480 -2.605915243526111 50.000000000000000
-4.396513987936978 -7.759601498303924 -2.773959145588477 82.000000000000000
-4.446930311935978 -7.758905211133367 -2.947075961937946 77.000000000000000
-3.188129331173144 -4.934068551749830 -3.095221945894480 10.000000000000000
-2.820812028006021 -5.541377005985690 -0.821062957506693 2.000000000000000
-2.861849175598379 -5.556899824487184 -0.934389445970571 30.000000000000000
-2.882173144600721 -5.531954422422773 -1.040929504231439 17.000000000000000
-2.928878987151877 -5.557418535762541 -1.159012983957957 13.000000000000000
-2.953096127234738 -5.538991626059161 -1.268862100370914 26.000000000000000
-2.998134948529942 -5.560405676327289 -1.388560241786660 4.000000000000000
-3.024043832206514 -5.545139528806437 -1.500883242281716 24.000000000000000
-3.053122525685313 -5.534658278816966 -1.615108844590902 5.000000000000000
-4.366648205776885 -7.826954989831534 -2.452024272746253 22.000000000000000
-4.374301433178431 -7.751760376818997 -2.597245085099234 35.000000000000000
-4.429703784066131 -7.761027793938249 -2.771084258399265 41.000000000000000
-4.482289885943467 -7.763402353302897 -2.945633595527446 80.000000000000000
-3.078396488521289 -5.148650732695194 -2.309557250248851 1.000000000000000
-3.214039963351079 -4.937533178353465 -3.097264797630472 19.000000000000000
-2.850118255791949 -5.558316032633732 -0.819724837593849 8.000000000000000
-2.875049121194246 -5.542015541857649 -0.928170396278864 34.000000000000000
-2.917436313734669 -5.558995808286133 -1.042414005450557 4.000000000000000
-2.947889127141333 -5.552883898963207 -1.154596942104514 20.000000000000000
-2.972221947944541 -5.534387727614186 -1.264481384833421 3.000000000000000
-3.017500760692277 -5.555675062458595 -1.384177647412799 30.000000000000000
-3.041662136224485 -5.536921885793594 -1.495610738019163 5.000000000000000
-3.072757162300160 -5.529767058367380 -1.610783567624166 0.000000000000000
-4.384429085643204 -7.801680736035562 -2.440232629471520 20.000000000000000
-4.416724273222277 -7.769998095990326 -2.599719269966636 85.000000000000000
-4.462937104296246 -7.762340445817037 -2.768148696571199 74.000000000000000
-4.513892530628960 -7.761203160516926 -2.941632832818222 79.000000000000000
-3.092207149432021 -5.134021822043266 -2.301407151241393 2.000000000000000
-2.932767024843999 -4.304989571374888 -3.073149259040494 8.000000000000000
-2.868622755222601 -5.553993363751768 -0.815216047204922 29.000000000000000
-2.893675061269595 -5.537624531652738 -0.923696479491067 5.000000000000000
-2.936284252459900 -5.554487547900623 -1.037943576969830 24.000000000000000
-2.961324535518587 -5.537880821983337 -1.147993465506137 14.000000000000000
-3.008134125088612 -5.560771092944989 -1.267145586483563 11.000000000000000
-3.029354767699986 -5.537170184190873 -1.376356074103275 15.000000000000000
-3.066789614578577 -5.542279922630654 -1.493987523079807 4.000000000000000
-4.412279097418449 -7.882926711287864 -2.292086305301023 8.000000000000000
-4.415389703449501 -7.799889259009842 -2.435776121455958 29.000000000000000
-4.447845924574374 -7.768067871902191 -2.595416762057321 41.000000000000000
-4.496213468410578 -7.763539198005010 -2.765152358826371 82.000000000000000
-4.545516010469756 -7.758899574031506 -2.937577505131879 78.000000000000000
-3.111756044869335 -5.128944153198169 -2.297538289255150 1.000000000000000
-2.919906250707937 -4.254665447778226 -3.037781001744337 7.000000000000000
-2.881626929367997 -5.539055949330264 -0.809136224705196 31.000000000000000
-2.928881893615338 -5.564693794848020 -0.924429458007578 8.000000000000000
-2.949558589860364 -5.539469002329903 -1.031497599225078 30.000000000000000
-2.991482718235858 -5.554032265233772 -1.147824352084593 3.000000000000000
-3.025462755016187 -5.552558364942984 -1.261893308450270 34.000000000000000
-3.056205878058304 -5.546034090632697 -1.375322324570440 4.000000000000000
-5.124219945904133 -9.193758077064663 -2.473161209142365 31.000000000000000
-4.445168711373368 -7.884467072316149 -2.288350959313195 19.000000000000000
-4.452108675711594 -7.808057011991379 -2.434403014528571 29.000000000000000
-4.478988574735875 -7.766034496446628 -2.591060313344033 36.000000000000000
-4.529532394903641 -7.764623796095308 -2.762095144745914 80.000000000000000
-4.579092820763722 -7.759766978822335 -2.934706352125989 77.000000000000000
-2.922382752964162 -4.227144332838339 -3.018696711253105 6.000000000000000
