# This PCD file was generated using the MATLAB® pcwrite function
# from Computer Vision Toolbox®.
# .PCD v.7 - Point Cloud Data file format
VERSION .7
FIELDS x y z intensity
SIZE 8 8 8 8
TYPE F F F F
COUNT 1 1 1 1
WIDTH 637
HEIGHT 1
VIEWPOINT 0 0 0 1 0 0 0
POINTS 637
DATA ascii
2.386821622186069 -4.588870333636641 -2.050231110127491 35.000000000000000
2.420277693372210 -4.618451820748787 -2.170728602655593 41.000000000000000
2.409939623391099 -4.564393137209676 -2.253426346833367 42.000000000000000
2.428045090344647 -4.563881303943033 -2.362930486233672 12.000000000000000
2.709146818917672 -5.054395976293081 -2.740864978137481 18.000000000000000
2.743887712785553 -5.078971643893963 -2.881567500536043 20.000000000000000
2.792052272201454 -5.128916020571123 -3.041006504962389 42.000000000000000
2.734821877919845 -4.983801766409572 -3.085043476060557 60.000000000000000
2.562896258465887 -4.631638356182566 -2.990967887804887 20.000000000000000
2.554918459850715 -4.576744350330480 -3.080941871446472 21.000000000000000
2.273053911418850 -4.772370645266087 -1.001051617043806 9.000000000000000
2.281572278338421 -4.756634546908954 -1.095171094336348 9.000000000000000
2.287575381650758 -4.736053719488345 -1.187627062417322 14.000000000000000
2.296631930991325 -4.720628499545328 -1.282327704930174 26.000000000000000
2.303021325570720 -4.700350515937263 -1.375696842074875 26.000000000000000
2.314221868307820 -4.688902786000493 -1.471459074416510 32.000000000000000
2.324649033006545 -4.675772630791158 -1.567629158470224 40.000000000000000
2.339233409415490 -4.671404208373523 -1.667400905080874 48.000000000000000
2.350126854979840 -4.658267624177417 -1.765080878329107 52.000000000000000
2.273098208336862 -4.472245832451295 -1.794331560603497 49.000000000000000
2.261948679123279 -4.417274228406340 -1.871815312489355 43.000000000000000
2.369360136520232 -4.592563583620203 -2.051363515780270 43.000000000000000
2.399157870546418 -4.615735104436135 -2.168761618498242 40.000000000000000
2.390560615935581 -4.564995804492008 -2.252866894982493 43.000000000000000
2.410214396152622 -4.567829867068160 -2.363936731407741 12.000000000000000
2.674166715821638 -5.030549564115305 -2.726583844111716 21.000000000000000
2.710366102605291 -5.058720709945527 -2.868504204043710 27.000000000000000
2.759891915020559 -5.112242520230670 -3.029303060400149 37.000000000000000
2.714803781655036 -4.988857419257354 -3.086168834887746 56.000000000000000
2.532278743984409 -4.614868994749494 -2.978061873780421 24.000000000000000
2.531046080687222 -4.572321233514974 -3.075675580256467 19.000000000000000
2.280108792208008 -4.825061946047064 -1.013165885975381 4.000000000000000
2.280171833424471 -4.791464855933570 -1.104119986419583 7.000000000000000
2.282753850491112 -4.763737023576891 -1.195366231859840 10.000000000000000
2.286669236157619 -4.737740755446618 -1.287638279405533 15.000000000000000
2.294679565149823 -4.720915003806988 -1.382241375489057 18.000000000000000
2.302397332330207 -4.702514509362564 -1.476117818235834 22.000000000000000
2.311032370376356 -4.685949766874426 -1.571286150070111 31.000000000000000
2.323792251050453 -4.678203515140105 -1.669927377130108 38.000000000000000
2.337973829950387 -4.671889681580249 -1.770192411465806 44.000000000000000
2.259727944929303 -4.482245094860706 -1.798146969661472 33.000000000000000
2.292678195510438 -4.513972387150993 -1.912439274818773 40.000000000000000
2.350204916305619 -4.592894221053749 -2.050990864334595 52.000000000000000
2.378082616640936 -4.612944042044775 -2.166759408285519 41.000000000000000
2.371203548264573 -4.565534211416512 -2.252275981553528 42.000000000000000
2.389010765224056 -4.565280168043553 -2.361581790011050 12.000000000000000
2.647798554222058 -5.022507583164818 -2.720881547093051 25.000000000000000
2.683735740437152 -5.050964195804012 -2.862540684113710 28.000000000000000
2.714497525139556 -5.070428906199287 -3.002731738465815 29.000000000000000
2.696450006760732 -4.996944474530521 -3.089174530436726 52.000000000000000
2.515124941454150 -4.622429267889800 -2.980872052308019 28.000000000000000
2.510555456876571 -4.573852638010207 -3.074429921743924 21.000000000000000
2.740557743545295 -5.845577380961914 -1.228719796161993 1.000000000000000
2.383892137529829 -5.049411838899337 -1.164523231973791 11.000000000000000
2.284476723261836 -4.805529592414703 -1.206643044691118 8.000000000000000
2.281650837316743 -4.765352408322754 -1.295795462665434 14.000000000000000
2.284546519104263 -4.737992923289305 -1.387757277375646 12.000000000000000
2.293869190705371 -4.723028989961513 -1.482935364712778 14.000000000000000
2.302420041961361 -4.706415436341167 -1.578385152915546 20.000000000000000
2.311695933348956 -4.691794447393826 -1.674870375623846 29.000000000000000
2.322384690437659 -4.678702827860356 -1.772716897361869 34.000000000000000
2.303565397855376 -4.606706729286397 -1.847870008455909 44.000000000000000
2.270594883878067 -4.507318698875247 -1.909265047099615 52.000000000000000
2.339481471241537 -4.609731183974875 -2.057984659128226 59.000000000000000
2.358732247860106 -4.613364719060366 -2.166265023452549 43.000000000000000
2.350191168111868 -4.562751695062143 -2.250047653392369 44.000000000000000
2.367851881871949 -4.562655898021517 -2.359191518670098 12.000000000000000
2.472815005356627 -4.729931054475339 -2.561120490955649 9.000000000000000
2.653858629345663 -5.036779787255494 -2.852947204233205 23.000000000000000
2.679413206849218 -5.047190578991956 -2.987192013630333 24.000000000000000
2.668126113571589 -4.986397874701800 -3.080671887307499 61.000000000000000
2.496294011751079 -4.626879926016648 -2.981683141636595 29.000000000000000
2.490085122633934 -4.575316645083698 -3.073151099320890 23.000000000000000
2.684348816795983 -5.771478582751754 -1.214374900351543 1.000000000000000
2.402986039288411 -5.130710409490695 -1.184235107117173 19.000000000000000
2.350840811164592 -4.984966167946108 -1.252503007978709 68.000000000000000
2.288142437276311 -4.817541710098966 -1.310633456841371 7.000000000000000
2.280998816661929 -4.769012633795556 -1.397349955124076 8.000000000000000
2.285229119234697 -4.743540189008844 -1.489744390108506 10.000000000000000
2.292023598202518 -4.723432450864117 -1.584319951085192 14.000000000000000
2.301204449311594 -4.708784238731100 -1.681019058650460 20.000000000000000
2.310118565279218 -4.692268281143209 -1.777792617863414 24.000000000000000
2.262959488905866 -4.562851177149041 -1.830067618084236 48.000000000000000
2.277000963272831 -4.557467775957336 -1.930144576026650 39.000000000000000
2.323655452066949 -4.616597392361586 -2.060521743859972 53.000000000000000
2.342741521667890 -4.620302989146913 -2.168828820154629 42.000000000000000
2.330890149951643 -4.563156994002492 -2.249392219454967 43.000000000000000
2.348401227752757 -4.563188991174574 -2.358436326109423 13.000000000000000
2.426065316650758 -4.679639056975706 -2.532644739352872 14.000000000000000
2.451933139502878 -4.692925243222455 -2.656737198319213 8.000000000000000
2.547134838722881 -4.838780809895877 -2.862147513170409 15.000000000000000
2.618516499653798 -4.935414013741021 -3.047221005114262 50.000000000000000
2.479101664047059 -4.634340219639958 -2.984439925337175 28.000000000000000
2.467999826245348 -4.573682432898774 -3.069804857095330 23.000000000000000
2.678000596088844 -5.804133030219937 -1.222463322499995 1.000000000000000
2.383651402351951 -5.130503400375643 -1.185133262886304 22.000000000000000
2.335115403767964 -4.991726604840053 -1.254992252413368 79.000000000000000
2.345637783908282 -4.978734703462233 -1.355141372419378 69.000000000000000
2.293846326198173 -4.834992596482606 -1.417184400050155 7.000000000000000
2.284773274594039 -4.781409357683204 -1.501998547922174 7.000000000000000
2.286518873263236 -4.750786207707332 -1.593714482229740 9.000000000000000
2.290622844287181 -4.725760285079027 -1.687155213132296 14.000000000000000
2.299446135379132 -4.709212632338454 -1.784141209073401 18.000000000000000
2.259218271728130 -4.593106255444150 -1.841984724933836 25.000000000000000
2.259843200738983 -4.560786966697625 -1.931182785878866 34.000000000000000
2.316102203599986 -4.640038833511012 -2.070450725322639 36.000000000000000
2.323413405450576 -4.620605537060483 -2.168275494087074 41.000000000000000
2.311611858405672 -4.563498424110025 -2.248705571928790 45.000000000000000
2.330624850615052 -4.566894411868116 -2.359321774693595 13.000000000000000
2.406070475990215 -4.680415551968071 -2.531824465768437 18.000000000000000
2.421866639574974 -4.674817082963662 -2.645054105485360 15.000000000000000
2.439356360129179 -4.673614297440809 -2.762819926642737 11.000000000000000
2.499033801151290 -4.750592108067932 -2.931238762616588 9.000000000000000
2.460255317444785 -4.638680938783782 -2.985193950340358 20.000000000000000
2.447582253561161 -4.575007087018677 -3.068458125147113 23.000000000000000
2.691091447188972 -5.879669107109499 -1.239586226838833 2.000000000000000
2.361061376707394 -5.123122543845114 -1.184356608529095 23.000000000000000
2.317726186196469 -4.994906028825899 -1.256567980261253 76.000000000000000
2.331427565342810 -4.989016309213677 -1.358582266172949 78.000000000000000
2.347444606104301 -4.988550028520414 -1.462699023798401 74.000000000000000
2.313756306601163 -4.881911036979546 -1.533927110615311 12.000000000000000
2.336929682142141 -4.895622288240891 -1.642518210432404 6.000000000000000
2.284900369385904 -4.753017583550874 -1.696954375472824 10.000000000000000
2.291983494099592 -4.732957623417219 -1.793058782558970 17.000000000000000
2.271794056586323 -4.657208183934755 -1.867465580927851 24.000000000000000
2.282262977573317 -4.644595634639394 -1.966291710781200 27.000000000000000
2.316650732246937 -4.680128536847196 -2.087798424984617 28.000000000000000
2.305753963937428 -4.624144831791453 -2.169239321145371 41.000000000000000
2.295643081523761 -4.570319155258270 -2.251210710113877 45.000000000000000
2.309567745500365 -4.564062371055111 -2.356831666043027 13.000000000000000
2.386097610799546 -4.681126268396895 -2.530971957778524 21.000000000000000
2.400122717892052 -4.672476711985432 -2.642304356998313 16.000000000000000
2.415834248074425 -4.668295349041260 -2.758053556396324 14.000000000000000
2.434500752735818 -4.667806787929187 -2.878330397207893 11.000000000000000
2.439789373952706 -4.639887387482208 -2.983939818801812 20.000000000000000
2.427185789851651 -4.576264720305328 -3.067078471645451 23.000000000000000
2.668011544129189 -5.876644213059848 -1.240141602198548 1.000000000000000
2.338537644084244 -5.115659655036863 -1.183542133187085 23.000000000000000
2.298706795772396 -4.994490205282599 -1.257224982414038 76.000000000000000
2.312273693794134 -4.988694225929673 -1.359123351710054 78.000000000000000
2.329774430858163 -4.991833421778083 -1.464155111502481 75.000000000000000
2.347018354231378 -4.993073393662794 -1.569209651511788 76.000000000000000
2.342190240911262 -4.947386316525503 -1.660094428168548 32.000000000000000
2.288850152545674 -4.800908767222475 -1.714113178293086 7.000000000000000
2.281107528673009 -4.749882708121315 -1.799385089890833 32.000000000000000
2.262661190348415 -4.677400771298148 -1.875329934265061 19.000000000000000
2.273021126702476 -4.664729371449221 -1.974431272215661 22.000000000000000
2.312039458199436 -4.710270386791645 -2.100697604854765 37.000000000000000
2.283191724109960 -4.617713736395553 -2.165525201806621 40.000000000000000
2.274756295369071 -4.567266540264070 -2.248852184307151 47.000000000000000
2.290185430589772 -4.564402900835284 -2.355982354000298 13.000000000000000
2.369397184927974 -4.688202330395878 -2.533562687072504 23.000000000000000
2.381666289849052 -4.676427389650304 -2.643117203819213 17.000000000000000
2.393996175472304 -4.666041095186296 -2.755107767376199 17.000000000000000
2.412507114306879 -4.665726656978340 -2.875230110057356 14.000000000000000
2.422557744473319 -4.647190133043238 -2.986613775170456 21.000000000000000
2.406810701424120 -4.577455449547147 -3.065665972496264 24.000000000000000
2.651423799098254 -5.887866695365314 -1.243685496893531 2.000000000000000
2.317696795472284 -5.111679666400494 -1.183515336768069 22.000000000000000
2.281329188207327 -4.997558852482498 -1.258744871293273 78.000000000000000
2.294764226273650 -4.991837096141712 -1.360595293023672 76.000000000000000
2.310480684060408 -4.991555179435732 -1.464554505381095 77.000000000000000
2.329193140213664 -4.996389943825503 -1.570595697441262 75.000000000000000
2.345507227086908 -4.995765205224496 -1.676529111572875 75.000000000000000
2.351078916700843 -4.972759781375844 -1.775524734881398 51.000000000000000
2.271768491789802 -4.770209813496037 -1.806992599580083 39.000000000000000
2.251788090295459 -4.694196505208780 -1.881825062775282 15.000000000000000
2.260413360187802 -4.678126675057997 -1.979712669352625 19.000000000000000
2.302371037923669 -4.730420078413013 -2.109131926996815 42.000000000000000
2.265567375249910 -4.621130533120204 -2.166428642736104 41.000000000000000
2.255536250195904 -4.567421916364736 -2.248074122880134 47.000000000000000
2.270826407508186 -4.564679487253030 -2.355101824893113 13.000000000000000
2.352673376248550 -4.695232139973763 -2.536128375388092 20.000000000000000
2.366428855179506 -4.686698259277889 -2.647503333303930 17.000000000000000
2.375413119913357 -4.670021720382620 -2.755850075910888 17.000000000000000
2.390558184111899 -4.663570113666568 -2.872093550581460 16.000000000000000
2.400516899241267 -4.645185648851651 -2.983315086302444 23.000000000000000
2.384867342363193 -4.575529039691365 -3.062179251165831 24.000000000000000
2.631585243205567 -5.891875909977506 -1.245689114173126 1.000000000000000
2.293690436237735 -5.100488990875062 -1.181800421676112 23.000000000000000
2.260736275410931 -4.993471440277706 -1.258447642205269 77.000000000000000
2.277255200246023 -4.994926600015269 -1.362040019020129 76.000000000000000
2.292822184862019 -4.994726169635648 -1.465953927980468 79.000000000000000
2.308139915732885 -4.992669442693110 -1.569758569143375 76.000000000000000
2.322685927613373 -4.988705523793690 -1.674351002190742 75.000000000000000
2.337872863426456 -4.986501458891254 -1.780476811118184 78.000000000000000
2.254236552817220 -4.773421999268255 -1.808109504660766 36.000000000000000
2.244055765016590 -4.717770222786562 -1.891029838073483 12.000000000000000
2.252582069566100 -4.701610122784111 -1.989255205649412 14.000000000000000
2.286135055791958 -4.737190763034314 -2.111595174578090 34.000000000000000
2.244720890034672 -4.617863343516002 -2.164197372342260 39.000000000000000
2.237948810744395 -4.570799864784361 -2.248881881419077 47.000000000000000
2.253096844813085 -4.568148239810541 -2.355869322990810 13.000000000000000
2.337528494091373 -4.705440741348445 -2.540410196989675 17.000000000000000
2.347948396972960 -4.690546005053954 -2.648262165954212 15.000000000000000
2.358422984557833 -4.677105952970649 -2.758427256716378 17.000000000000000
2.373420178838068 -4.670716320707718 -2.874693323844968 16.000000000000000
2.380104413437446 -4.646195975031087 -2.981964108224730 27.000000000000000
2.369282651244489 -4.585746923034175 -3.066829124094540 23.000000000000000
2.626059116831263 -5.928141157705944 -1.254500669278515 2.000000000000000
2.274555530754030 -5.099929587564866 -1.182530904203656 23.000000000000000
2.243382355664606 -4.996424914640405 -1.259910186740839 78.000000000000000
2.256548309776929 -4.990888508244793 -1.361527680186103 76.000000000000000
2.271962007265193 -4.990809116759671 -1.465260726837404 78.000000000000000
2.290337879330905 -4.995868063317923 -1.571085832289895 77.000000000000000
2.307952308286177 -4.998932419647059 -1.677965079040120 75.000000000000000
2.321390081352249 -4.993314827472845 -1.782946752973634 78.000000000000000
2.236705549375777 -4.776580654965414 -1.809199141057110 24.000000000000000
2.236187289594142 -4.741347451496931 -1.900228078426680 9.000000000000000
2.243011009208371 -4.721721836646454 -1.997363389547852 11.000000000000000
2.269876723591680 -4.743916472591120 -2.114034096407936 31.000000000000000
2.228721105882395 -4.624482690392306 -2.166597811883018 39.000000000000000
2.220362362801705 -4.574124040247972 -2.249662250712136 49.000000000000000
2.232179255793991 -4.565041325166556 -2.353247430578554 14.000000000000000
2.327109481729903 -4.725302082564681 -2.549899152624017 14.000000000000000
2.335815020948937 -4.707128580566276 -2.656210216440980 13.000000000000000
2.344573531163081 -4.690473044484026 -2.764710034694094 16.000000000000000
2.354681436388153 -4.674683986310557 -2.875341538193447 16.000000000000000
2.359714081500492 -4.647139539875760 -2.980580404970079 30.000000000000000
2.347383352554167 -4.583687264990991 -3.063277077397826 21.000000000000000
2.037508067081665 -4.637801763086516 -0.982321578144729 5.000000000000000
2.247529752666730 -5.081415378666706 -1.179079200192811 20.000000000000000
2.222858423817985 -4.992203991071107 -1.259549022148457 75.000000000000000
2.239063309570340 -4.993862128866009 -1.362914719860990 76.000000000000000
2.254327373443305 -4.993863305339562 -1.466601984495874 78.000000000000000
2.269353620243644 -4.992011087053335 -1.570183254599174 77.000000000000000
2.285211248504561 -4.991730594084182 -1.675719315933372 77.000000000000000
2.301699078952831 -4.993171568267260 -1.782924294465460 80.000000000000000
2.246258231541106 -4.838016505895770 -1.832353744753970 8.000000000000000
2.237738765957255 -4.785363366798006 -1.917608579204774 6.000000000000000
2.238101811618672 -4.751966259985802 -2.009749473139816 8.000000000000000
2.250415402630360 -4.743891993010089 -2.113461443759691 31.000000000000000
2.207934157387136 -4.621084149232206 -2.164303130884859 38.000000000000000
2.199605366054884 -4.570803552187639 -2.247174919967605 50.000000000000000
2.212891634925590 -4.565126826291481 -2.352273723857454 14.000000000000000
2.321312797302576 -4.754858534362650 -2.564610538713033 8.000000000000000
2.323589490036753 -4.723692709803037 -2.664143214082979 10.000000000000000
2.332225337679236 -4.706981578882394 -2.772841392930503 13.000000000000000
2.343770503957673 -4.694273605267435 -2.885598576321294 14.000000000000000
2.342467376880368 -4.654217953207701 -2.983138922727254 28.000000000000000
2.328640479597957 -4.587680857744637 -3.063782280819123 22.000000000000000
1.982363075714920 -4.550049659231776 -0.964583192144092 46.000000000000000
2.060338175419276 -4.697326274337073 -1.090719246796607 6.000000000000000
2.180341064694420 -4.937997201172285 -1.246553842728773 34.000000000000000
2.220002684258157 -4.993236198818787 -1.363306401617877 74.000000000000000
2.233536760215641 -4.989811096559073 -1.465844044031068 80.000000000000000
2.253155763892416 -4.998597468961535 -1.572554751647691 77.000000000000000
2.267282462104326 -4.994895917802116 -1.676943948782400 73.000000000000000
2.283612899009801 -4.996424124275314 -1.784105965977278 79.000000000000000
2.298127392709695 -4.992325849063950 -1.890671072303496 75.000000000000000
2.283290627221048 -4.924935076226956 -1.973264910394421 13.000000000000000
2.242492041883586 -4.802538387250781 -2.030721665091366 6.000000000000000
2.234135861853120 -4.750518188095564 -2.115848268509597 31.000000000000000
2.191925404979115 -4.627600716433391 -2.166650555182423 39.000000000000000
2.180470220965212 -4.570710737258394 -2.246275355292567 50.000000000000000
2.193628321408352 -4.565148883307303 -2.351269117041529 15.000000000000000
2.421928031445829 -5.004705861633393 -2.698070393638624 11.000000000000000
2.367568032513402 -4.855697150304368 -2.737145008205935 9.000000000000000
2.324461888624429 -4.732994120458331 -2.786564118056396 9.000000000000000
2.331190063838295 -4.710712669942941 -2.893914136165870 13.000000000000000
2.322099133876790 -4.655037724786729 -2.981693376801354 23.000000000000000
2.306809211816337 -4.585478945195238 -3.060161777333096 21.000000000000000
1.966708107709292 -4.552129397976753 -0.965857734423835 55.000000000000000
2.028484498161073 -4.663786022769460 -1.083674570404075 9.000000000000000
2.050657142451316 -4.683679365816012 -1.182986425257164 7.000000000000000
2.146176599424474 -4.868266904273520 -1.329721532065236 21.000000000000000
2.214359798062678 -4.989217910330733 -1.466089808967667 75.000000000000000
2.232230166184183 -4.994609222184025 -1.571588751185130 78.000000000000000
2.247784898807609 -4.994518947457832 -1.676969746947503 73.000000000000000
2.265527472584513 -4.999621719153362 -1.785259627150855 77.000000000000000
2.265769544212704 -4.964641752271969 -1.880054425838801 75.000000000000000
2.294960436469022 -4.993103336160090 -2.000294895626366 78.000000000000000
2.293626316904037 -4.954859398715100 -2.094695838867748 40.000000000000000
2.214699735530343 -4.750375458840797 -2.115216793022623 32.000000000000000
2.171198999926551 -4.624071328660157 -2.164292782915712 42.000000000000000
2.166048211360384 -4.580469422023521 -2.250215771869443 49.000000000000000
2.174389567393542 -4.565107623063882 -2.350233690307021 15.000000000000000
2.396304827581270 -4.995689220431571 -2.691916117967736 5.000000000000000
2.438563345771784 -5.045831579097844 -2.842824033252372 9.000000000000000
2.455807733659774 -5.045128275846101 -2.968634880808853 35.000000000000000
2.329315445546954 -4.749147808603568 -2.915730551195074 7.000000000000000
2.300216227408333 -4.652680953580973 -2.978224513254871 20.000000000000000
2.286556425802338 -4.586275398374328 -3.058555489424451 23.000000000000000
1.947964748758969 -4.546943765717475 -0.965575335743100 44.000000000000000
1.965875090833069 -4.558266074489077 -1.059868634031597 24.000000000000000
2.017253321534781 -4.646697910176821 -1.174260434620559 10.000000000000000
2.043638608859608 -4.675365955816375 -1.277534506607006 8.000000000000000
2.087858055629122 -4.744613994373121 -1.394600582225363 7.000000000000000
2.197335752528714 -4.958918454622970 -1.560634278445405 47.000000000000000
2.226753033281363 -4.990586002920347 -1.675791835589302 76.000000000000000
2.244325889087261 -4.995825735331762 -1.783907656177733 77.000000000000000
2.151007953631221 -4.754229643805452 -1.800240338781661 37.000000000000000
2.237631631053245 -4.910917569242617 -1.967086503388749 39.000000000000000
2.289242386929248 -4.988752003247599 -2.108583112893476 72.000000000000000
2.196843914312854 -4.753535606078627 -2.116052943073324 33.000000000000000
2.152074408669591 -4.623808262156955 -2.163463171481897 42.000000000000000
2.146928085045069 -4.580264746194588 -2.249260023299160 50.000000000000000
2.156723882685306 -4.568282629523280 -2.350855144548615 15.000000000000000
2.373862496628168 -4.993073999398394 -2.689217894413541 62.000000000000000
2.392666750300538 -4.995208658800494 -2.812824252784170 6.000000000000000
2.423642625914973 -5.023818647342832 -2.954411383077586 8.000000000000000
2.365462943333923 -4.866371355812408 -2.985869201931412 33.000000000000000
2.286009776884302 -4.665822107809257 -2.984682120137380 21.000000000000000
2.264805820490228 -4.583927229512285 -3.054865258895951 23.000000000000000
1.935409204900310 -4.556144912768528 -0.968334004071220 53.000000000000000
1.940853067813340 -4.538744737286720 -1.056025368498148 32.000000000000000
1.999505330477924 -4.645356674502578 -1.174522796732665 15.000000000000000
2.017944579188642 -4.656354160497173 -1.272827406738182 11.000000000000000
2.037081237502677 -4.669244842749289 -1.372817770235265 8.000000000000000
2.062211149969985 -4.694339504943861 -1.477618958075083 6.000000000000000
2.165550878804696 -4.895661075426894 -1.644047452435058 24.000000000000000
2.224718438557126 -4.995430521897515 -1.783761690932582 76.000000000000000
2.128957995563223 -4.746726521952078 -1.797259352159323 39.000000000000000
2.103543361538426 -4.657225926478057 -1.865194894875124 6.000000000000000
2.187268030955443 -4.808579003021287 -2.032000623145354 11.000000000000000
2.178989710201938 -4.756641404589962 -2.116861448223411 35.000000000000000
2.132974956100175 -4.623482436407381 -2.162603060407047 41.000000000000000
2.126293455279018 -4.576683259349287 -2.246646942808239 50.000000000000000
2.135986742983520 -4.564835662244231 -2.348070699638733 16.000000000000000
2.354531966786447 -4.996888197669680 -2.689985791295228 69.000000000000000
2.370099450031792 -4.992686184317230 -2.809931184546492 69.000000000000000
2.388613013341345 -4.995998957714036 -2.936383198258812 17.000000000000000
2.344557209696767 -4.867157172578828 -2.984529535433243 31.000000000000000
2.264161919158568 -4.663337337719864 -2.981150059701795 14.000000000000000
2.249139710583938 -4.593836367472434 -3.059352544438458 16.000000000000000
1.919765636685306 -4.558080763665557 -0.969535792069729 24.000000000000000
1.966350019702489 -4.637951445259966 -1.079804607985638 23.000000000000000
1.978725086157880 -4.636790412948291 -1.172944030975184 15.000000000000000
1.998515615154174 -4.651496085694836 -1.271974646268764 15.000000000000000
2.015935694681848 -4.660972306322090 -1.370744481880612 12.000000000000000
2.033167802818765 -4.668621258131320 -1.469763325745151 9.000000000000000
2.051253702028326 -4.677880207416216 -1.571028648681720 22.000000000000000
2.111463177315038 -4.782789528058215 -1.707819539980545 8.000000000000000
2.110050793641447 -4.746051568375703 -1.796857300558850 29.000000000000000
2.072508905664955 -4.629110451924011 -1.853656726534698 7.000000000000000
2.089610507656412 -4.634664372251095 -1.958090417442024 7.000000000000000
2.159604608046757 -4.756317217739205 -2.116140463471367 36.000000000000000
2.116962297227460 -4.629789265393535 -2.164843179115804 41.000000000000000
2.108763601031882 -4.579667198073686 -2.247257090288282 51.000000000000000
2.119873350872109 -4.571182460355781 -2.350325060581606 17.000000000000000
2.332158767362183 -4.994128436672661 -2.687218011593622 70.000000000000000
2.347578213279152 -4.990086478435726 -2.807001508775868 71.000000000000000
2.365916356034234 -4.993570824860467 -2.933296134615809 67.000000000000000
2.317642851788422 -4.855239601266990 -2.975413252952064 24.000000000000000
2.254384232247991 -4.685768030590187 -2.993548011455736 12.000000000000000
2.251403318145183 -4.640758972358892 -3.088475879704308 13.000000000000000
1.938911701907514 -4.643272366125033 -0.988446835285415 40.000000000000000
1.953357762960962 -4.647215064770611 -1.082645644543597 32.000000000000000
1.954980691372852 -4.620972786646981 -1.169514857292272 16.000000000000000
1.977615530868368 -4.643001516744373 -1.270114060853459 21.000000000000000
1.991818646478656 -4.645524765199552 -1.366548255810084 16.000000000000000
2.007356627007916 -4.649836384787609 -1.464078196925525 12.000000000000000
2.026789928536198 -4.662823282074363 -1.566078422598785 48.000000000000000
2.048406812424991 -4.680989564247204 -1.671449140781635 8.000000000000000
2.071354905584359 -4.700351830362903 -1.779403699534123 7.000000000000000
2.044732364680030 -4.607728304292966 -1.844812573311308 10.000000000000000
2.008384314601942 -4.494299253039503 -1.898378958213942 6.000000000000000
2.134160135432032 -4.742408934261377 -2.109374792816725 30.000000000000000
2.097890681743719 -4.629347366565661 -2.163925517924416 41.000000000000000
2.089719740658200 -4.579274585736941 -2.246210068966655 51.000000000000000
2.099198646251456 -4.567605129160920 -2.347477886506903 17.000000000000000
2.309832165341150 -4.991292104822534 -2.684413994206492 72.000000000000000
2.328115144754569 -4.993870135722839 -2.807667526666926 72.000000000000000
2.346268069385280 -4.997459873450156 -2.933926543020228 67.000000000000000
2.310296470462246 -4.884342817696845 -2.991438025061347 32.000000000000000
2.254907719209660 -4.730094616610580 -3.019917233263242 10.000000000000000
1.923018444405318 -4.645212344114389 -0.989635458421054 61.000000000000000
1.934307848652072 -4.642008592426563 -1.082102293907994 47.000000000000000
1.946418613616309 -4.640982938488011 -1.175140819319604 38.000000000000000
1.961313526922068 -4.645150255516629 -1.271152371978399 31.000000000000000
1.976880663454973 -4.651302658242027 -1.368584094562143 22.000000000000000
1.987732644865871 -4.645077013496373 -1.462798164895668 17.000000000000000
2.003956715774574 -4.651180893015370 -1.562265592577242 51.000000000000000
2.020833729567667 -4.659078253452002 -1.663597567217591 12.000000000000000
2.037522769114652 -4.664863661928272 -1.765811989131491 8.000000000000000
2.023169140962245 -4.599983147811307 -1.841424901240903 13.000000000000000
1.987065791202441 -4.486566496246226 -1.894700666647340 7.000000000000000
2.095247969931884 -4.697939380659461 -2.089020229711843 26.000000000000000
2.080352421635961 -4.632199701357095 -2.164546079098485 40.000000000000000
2.070701798406118 -4.578819589182086 -2.245132787119743 51.000000000000000
2.081576684281479 -4.570551371458106 -2.347985235966815 17.000000000000000
2.290548610259535 -4.994912991384411 -2.685086082891451 73.000000000000000
2.305663727026563 -4.991125629076574 -2.804668203664909 73.000000000000000
2.322151192899781 -4.991684065855957 -2.928890579040784 69.000000000000000
2.299795298438185 -4.907123709414349 -3.003580277899224 26.000000000000000
2.253650843411149 -4.771347987694615 -3.044299633136456 10.000000000000000
1.907129390092468 -4.647103797590467 -0.990799567958021 81.000000000000000
1.921278566333344 -4.651191748359613 -1.084899991031215 65.000000000000000
1.931766583787639 -4.646601670796695 -1.177112899730007 50.000000000000000
1.942020868877475 -4.640094127462519 -1.270206846593192 40.000000000000000
1.957427319951668 -4.646366012091679 -1.367456459557706 32.000000000000000
1.971158512761454 -4.647322972166670 -1.463714217304735 23.000000000000000
1.985721834946049 -4.649996261085753 -1.561956326568391 42.000000000000000
1.999429706448964 -4.651020305371361 -1.660685089953147 16.000000000000000
2.014455562915502 -4.653498689296230 -1.761346852200629 13.000000000000000
2.003179306193485 -4.595601823209025 -1.839379392555020 20.000000000000000
1.968819566807700 -4.485588354131921 -1.893871862252358 5.000000000000000
2.037190288626937 -4.609232122785862 -2.049008288466161 12.000000000000000
2.062817016496557 -4.634998662720053 -2.165139568950595 41.000000000000000
2.051710021158490 -4.578302340376784 -2.244025327214088 52.000000000000000
2.062467269029301 -4.570141855679052 -2.346769733730438 17.000000000000000
2.272752144905823 -5.001746881724628 -2.687486152333429 72.000000000000000
2.286224550011573 -4.994782804873069 -2.805271116856390 73.000000000000000
2.301060047413559 -4.992234812725072 -2.927575487124622 69.000000000000000
2.287682018540853 -4.926727145207659 -3.013770830491072 29.000000000000000
2.257988745147910 -4.825200146805038 -3.076692114927654 9.000000000000000
1.892723413799410 -4.652581594886446 -0.992714753481289 86.000000000000000
1.906726866101105 -4.656724956422885 -1.086834549651664 79.000000000000000
1.915612294580687 -4.648579016941912 -1.178150525229554 67.000000000000000
1.927235733176432 -4.645716631617066 -1.272172711342481 52.000000000000000
1.939511149941687 -4.644923846925484 -1.367345953120441 44.000000000000000
1.951611072041589 -4.642436119231440 -1.462373790226018 34.000000000000000
1.967513816876104 -4.648751873280362 -1.561618199520601 46.000000000000000
1.982567217133209 -4.653372972455100 -1.661482232457835 21.000000000000000
1.994463463170037 -4.648990518284668 -1.759471129339446 17.000000000000000
1.983239499262447 -4.591151081929536 -1.837301508044472 27.000000000000000
1.952088438492450 -4.487970964326683 -1.894458062788598 7.000000000000000
2.009489485448985 -4.588103650298230 -2.039049019025790 14.000000000000000
2.043800427281143 -4.634378724604771 -2.164134388243041 40.000000000000000
2.032744655081017 -4.577722972080106 -2.242887772076357 52.000000000000000
2.043384129285843 -4.569669868582250 -2.345523948365099 17.000000000000000
2.249034144744800 -4.995428662269681 -2.682822747768955 73.000000000000000
2.265315059342207 -4.995137720549123 -2.804023329907355 72.000000000000000
2.279992637695468 -4.992717536441683 -2.926227122655065 69.000000000000000
2.295913016036161 -4.990791650931452 -3.051137184688466 66.000000000000000
1.879766893811452 -4.661658520483854 -0.995385484790054 68.000000000000000
1.890686811510328 -4.658595264127389 -1.087901441230211 74.000000000000000
1.899462449332407 -4.650507108349951 -1.179163279093573 74.000000000000000
1.910957653241141 -4.647711937493060 -1.273134161667032 64.000000000000000
1.924573965239024 -4.650555725938359 -1.369307303809516 55.000000000000000
1.936545221877304 -4.648117865635601 -1.464352727584214 47.000000000000000
1.947855011318149 -4.643924400731752 -1.560067631601599 57.000000000000000
1.961274727072579 -4.645172769926424 -1.658503959139215 28.000000000000000
1.974521478295235 -4.644413078245472 -1.757563111348558 23.000000000000000
1.961872689683056 -4.583179965247920 -1.833810501558393 31.000000000000000
1.933885275357781 -4.486877431176908 -1.893572987595057 7.000000000000000
1.989328518008253 -4.583850836480838 -2.036590178787327 18.000000000000000
2.023337812193299 -4.630326725461685 -2.161525968667529 42.000000000000000
2.013805945619239 -4.577081617839937 -2.241720204891847 52.000000000000000
2.025794415757081 -4.572446511120640 -2.345946693347510 18.000000000000000
2.231239671576604 -5.002146173765199 -2.685163530265690 73.000000000000000
2.242970476059276 -4.992177190910972 -2.800920266282967 73.000000000000000
2.258949230225422 -4.993132362570300 -2.924845566028591 70.000000000000000
2.279055651481897 -5.000883593138426 -3.055488933923233 66.000000000000000
1.866769985767662 -4.670703877156226 -0.998037630630632 51.000000000000000
1.876110296078379 -4.664043474428795 -1.089791092635130 63.000000000000000
1.884778303609225 -4.655995283629961 -1.181066748773959 68.000000000000000
1.894684135158629 -4.649657644004876 -1.274070571642406 66.000000000000000
1.908153890431504 -4.652575514272430 -1.370194808931836 63.000000000000000
1.922926394178682 -4.657307606020876 -1.467427662772877 56.000000000000000
1.931179315137452 -4.646084367839193 -1.560855694709001 77.000000000000000
1.942988593002688 -4.643904963755704 -1.657993370030943 39.000000000000000
1.956096229614777 -4.643247295506573 -1.756939979981601 28.000000000000000
1.944976795521528 -4.585497811473978 -1.834431542971872 40.000000000000000
1.918639016088386 -4.492583086362290 -1.895553095556777 7.000000000000000
1.972144031143457 -4.586332854915310 -2.037121219846681 20.000000000000000
2.007308107422940 -4.636327011231811 -2.163608561361421 43.000000000000000
1.996352393443994 -4.579723717847111 -2.242160518200931 55.000000000000000
2.005297662450805 -4.568539013896852 -2.342941860881681 17.000000000000000
2.209068904153137 -4.998960929929436 -2.682190932380224 71.000000000000000
2.223569015830896 -4.995645345378966 -2.801428995179121 73.000000000000000
2.237930090786318 -4.993479417519977 -2.923430898030169 70.000000000000000
2.254961732604234 -4.995005545289851 -3.050090357188479 68.000000000000000
1.855177633157727 -4.683364998275234 -1.001451068381137 40.000000000000000
1.862963459468626 -4.673082243179985 -1.092507893408831 49.000000000000000
1.872975524732744 -4.668669773268544 -1.184782356351049 54.000000000000000
1.882770271442031 -4.662337919361657 -1.277937882158797 56.000000000000000
1.893191418676034 -4.658120229901009 -1.372110118043882 62.000000000000000
1.904903677526166 -4.655801906050371 -1.467123236461420 61.000000000000000
1.914508096109237 -4.648193582994200 -1.561618123916257 91.000000000000000
1.927639632262324 -4.649595651342328 -1.659959555877818 49.000000000000000
1.939153166929861 -4.645506319809155 -1.757606334706122 40.000000000000000
1.930993378834381 -4.594683934620818 -1.837794360595097 45.000000000000000
1.901921109285081 -4.494812678497971 -1.896061992464829 7.000000000000000
1.952060912612117 -4.581949301365898 -2.034600401347769 20.000000000000000
1.986911020412646 -4.632146848293110 -2.160938724908918 44.000000000000000
1.978902607172762 -4.582312777335372 -2.242573985846140 54.000000000000000
1.989181883047999 -4.574519776079189 -2.345009222671421 18.000000000000000
2.188386204804616 -4.998989037811386 -2.680946552705302 70.000000000000000
2.202732990658177 -4.995798309562129 -2.800082609860337 75.000000000000000
2.216935484460877 -4.993758828541790 -2.921983199831774 69.000000000000000
2.236644508964969 -5.001801649537003 -3.052439286735408 68.000000000000000
1.843522475020459 -4.696002565260057 -1.004848640923304 32.000000000000000
1.851212358485453 -4.685724037918371 -1.096056131895022 35.000000000000000
1.861109271625057 -4.681320245359305 -1.188481821257842 42.000000000000000
1.867912253604916 -4.667796091430779 -1.279815401398244 47.000000000000000
1.878210797366080 -4.663623441009547 -1.374003129954128 54.000000000000000
1.891236531166313 -4.664912183658641 -1.470154652387012 57.000000000000000
1.899284772102559 -4.653788399998747 -1.563543054250962 72.000000000000000
1.910828819289056 -4.651730371031348 -1.660648601781531 54.000000000000000
1.922214550266176 -4.647713833943118 -1.758246666574052 51.000000000000000
1.914083094373204 -4.596907531358371 -1.838366409608101 49.000000000000000
1.895297030100904 -4.521057813338027 -1.906694893302509 6.000000000000000
1.936347774937762 -4.587729186752925 -2.036589846657622 32.000000000000000
1.969439700222444 -4.634662283363987 -2.161391400545269 44.000000000000000
1.960021925152351 -4.581494885522632 -2.241319849296846 54.000000000000000
1.967319248789362 -4.567159882207114 -2.340239642365876 18.000000000000000
2.167728726739604 -4.998950530958092 -2.679669710300450 69.000000000000000
2.181921980479467 -4.995884213003916 -2.798703521518279 75.000000000000000
2.197385175095549 -4.997198888382879 -2.922390402087857 69.000000000000000
2.216890302196997 -5.005352717798597 -3.052812729017472 68.000000000000000
1.831804572923548 -4.708616337287398 -1.008230229087877 24.000000000000000
1.840822968193592 -4.701981137452939 -1.100439995096371 24.000000000000000
1.847752771190396 -4.690324584340981 -1.191245142732936 32.000000000000000
1.855893800640976 -4.680419232984137 -1.283647149435771 38.000000000000000
1.866072054898233 -4.676251762651621 -1.377985681429777 44.000000000000000
1.878959169948125 -4.677551448265301 -1.474289281823294 49.000000000000000
1.885474789853498 -4.662881517734399 -1.566634854839458 60.000000000000000
1.895454366246943 -4.657331619565742 -1.662567571820325 55.000000000000000
1.905280574614459 -4.649869878385914 -1.758861008174370 55.000000000000000
1.897177526240180 -4.599079716764433 -1.838912502751335 55.000000000000000
1.905669722683740 -4.588619587223867 -1.934739566916421 25.000000000000000
1.922043695707504 -4.596880697773813 -2.040071538506820 40.000000000000000
1.950546663372355 -4.633737464034960 -2.160238141595928 43.000000000000000
1.941168846097272 -4.580615484857766 -2.240036002126447 56.000000000000000
1.951211363996767 -4.573034078840499 -2.342253087685725 18.000000000000000
2.149929311875593 -5.005440322630180 -2.681893944682753 68.000000000000000
2.163961262065921 -5.002433777704611 -2.800948402944628 74.000000000000000
2.176428708497673 -4.997347669044375 -2.920878352743210 72.000000000000000
2.194331398606547 -5.002447379535789 -3.049256618926153 68.000000000000000
1.821434860810406 -4.724865923274875 -1.012379896531158 17.000000000000000
1.828934391090336 -4.714578801777791 -1.103957297595567 8.000000000000000
1.835771197882848 -4.702922163664336 -1.194910553781551 24.000000000000000
1.843811707725385 -4.693017681179371 -1.287462399681089 28.000000000000000
1.852450944864540 -4.685267615856739 -1.380894226461456 36.000000000000000
1.860939611557396 -4.675898743206115 -1.473910005875560 41.000000000000000
1.871623464911444 -4.671940723049540 -1.569706815269727 47.000000000000000
1.881481588616272 -4.666412033272458 -1.665720795159859 51.000000000000000
1.892610874016417 -4.662467669757864 -1.763418075221381 53.000000000000000
1.881695945850710 -4.604673136363431 -1.840820924104777 54.000000000000000
1.890080628046135 -4.594252960172673 -1.936661807706590 53.000000000000000
1.904864928936849 -4.599158129898845 -2.040498492695294 48.000000000000000
1.934509624789958 -4.639534134951533 -2.162216344914298 46.000000000000000
1.923755024382466 -4.583037175787673 -2.240366231559330 57.000000000000000
1.932267558223297 -4.572198573369111 -2.340830256366158 18.000000000000000
2.126490475661675 -4.998674194778792 -2.677018967316588 69.000000000000000
2.141776822334903 -4.999124895744259 -2.797677308064487 73.000000000000000
2.155497552061328 -4.997429160044939 -2.919333501570206 69.000000000000000
2.173212269227058 -5.002668442711857 -3.047615606531753 69.000000000000000
1.810979829919814 -4.741099353248695 -1.016516098371498 13.000000000000000
1.822590825032214 -4.741741926269963 -1.110876315870501 4.000000000000000
1.825130302507460 -4.719125123767737 -1.199482157054942 20.000000000000000
1.833071770500906 -4.709202543431418 -1.292252022297407 21.000000000000000
1.840195903533498 -4.697841616275535 -1.384841935026597 27.000000000000000
1.848580073502907 -4.688470579474608 -1.478005188505444 32.000000000000000
1.857730906848673 -4.680965865037441 -1.572758865208994 39.000000000000000
1.866059026438605 -4.671932082560414 -1.667595372321987 44.000000000000000
1.877059912816099 -4.668035330961762 -1.765309103979110 46.000000000000000
1.838048338185072 -4.540687798759583 -1.814912841072799 51.000000000000000
1.809787635019173 -4.441108808814094 -1.871663769058310 48.000000000000000
1.887690999339710 -4.601383426475891 -2.040899128708924 54.000000000000000
1.917051269903579 -4.641890631436087 -2.162588678955605 45.000000000000000
1.906345797306283 -4.585406049436139 -2.240669779973644 55.000000000000000
1.913351711952274 -4.571301480115564 -2.339377695940217 18.000000000000000
2.107303019226641 -5.001742472711643 -2.677414839323689 68.000000000000000
2.121030675155190 -4.999014607965020 -2.796202035691101 74.000000000000000
2.134591968152530 -4.997443491936441 -2.917755931259641 69.000000000000000
2.152118442959943 -5.002821810657582 -3.045941584843753 69.000000000000000
1.803215819064748 -4.764652169207204 -1.022212510363543 9.000000000000000
1.809140150011052 -4.750654966875411 -1.113510351689634 8.000000000000000
1.814403274858409 -4.735311254072005 -1.204039901017442 14.000000000000000
1.820851085970742 -4.721754953246275 -1.296035294354841 16.000000000000000
1.826481732283521 -4.706794466295809 -1.387712626476297 20.000000000000000
1.836156453082363 -4.701016744499702 -1.482083347095372 24.000000000000000
1.846590858033862 -4.697062788186213 -1.578178496514930 29.000000000000000
1.853411830318053 -4.684469575523803 -1.671966920494818 36.000000000000000
1.862887242684782 -4.677065885561811 -1.768502706573051 35.000000000000000
1.790663669527899 -4.466050482316167 -1.784752283101613 55.000000000000000
1.798884561920918 -4.456828923205771 -1.877841921504332 32.000000000000000
1.874700485272505 -4.613840076736307 -2.045833286663638 55.000000000000000
1.898207008836968 -4.640794380007490 -2.161350891015411 44.000000000000000
1.888941364207117 -4.587722146935356 -2.240946680558511 55.000000000000000
1.894464067010710 -4.570342937638295 -2.337895491929653 19.000000000000000
2.086737256775935 -5.001442994934536 -2.676010386677057 67.000000000000000
2.103065078884583 -5.005393602996424 -2.798359546780695 75.000000000000000
2.115084758823008 -5.000635855058838 -2.918039326002064 70.000000000000000
2.129682371935121 -4.999696505039509 -3.042280699107909 70.000000000000000
1.800828152802491 -4.802891890284103 -1.031053565202686 4.000000000000000
1.803924334927022 -4.781468191178194 -1.121268447165629 7.000000000000000
1.807733151890654 -4.762394795551723 -1.211359840368398 11.000000000000000
1.814097734467699 -4.748759831642595 -1.303776618588073 11.000000000000000
1.818261999915117 -4.730112636481498 -1.394809573333482 14.000000000000000
1.823668819802578 -4.713536992132143 -1.486144360242884 17.000000000000000
1.833978072267850 -4.709584620922838 -1.582388425389859 21.000000000000000
1.843470152117126 -4.704049066715228 -1.678843702132168 26.000000000000000
1.852827485214537 -4.696591931832886 -1.775657212379634 20.000000000000000
1.829606303457734 -4.607255180910101 -1.840837981008856 40.000000000000000
1.800338337639027 -4.503663254108043 -1.897119701975629 51.000000000000000
1.858882607162097 -4.619405583444989 -2.047706890262252 50.000000000000000
1.880770060931412 -4.643040981262414 -2.161668435311439 40.000000000000000
1.870165790376309 -4.586610520675538 -2.239549027847935 56.000000000000000
1.876977928073482 -4.572668124129626 -2.338094113609166 19.000000000000000
2.066197997202297 -5.001077529130532 -2.674573869606684 65.000000000000000
2.079616775831687 -4.998594455341493 -2.793154406170326 73.000000000000000
2.095580096391933 -5.003769606831842 -2.918292956738903 68.000000000000000
2.110007753223386 -5.002925983822103 -3.042494844980816 71.000000000000000
1.907449735859117 -5.135234075256425 -1.103064140245831 0.000000000000000
1.835459312160617 -4.911103515797788 -1.152204569736415 6.000000000000000
1.813233610887154 -4.822264578513956 -1.227014346761581 7.000000000000000
1.804446386989431 -4.768524147216709 -1.309521551518702 7.000000000000000
1.808536963342435 -4.749825292118175 -1.400834660685772 9.000000000000000
1.815236540494039 -4.736780199310753 -1.493577465507835 11.000000000000000
1.822674590249561 -4.725641137280422 -1.587777433931340 15.000000000000000
1.830670598292950 -4.716541559571494 -1.683182960162271 19.000000000000000
1.842656192126177 -4.716107320425447 -1.782799455869497 10.000000000000000
1.803121558948787 -4.584746871600254 -1.831497957139395 38.000000000000000
1.806976764324910 -4.564406395090887 -1.922241720919429 40.000000000000000
1.849892969157402 -4.642107452882644 -2.057170483589879 36.000000000000000
1.861971160857497 -4.641826704252293 -2.160373172353629 38.000000000000000
1.850054634667523 -4.582058882619008 -2.236472723946679 57.000000000000000
1.859496887735872 -4.574940365249224 -2.338266019706463 19.000000000000000
2.045685497499250 -5.000646209587685 -2.673105372382010 62.000000000000000
2.061656904573308 -5.004857223722123 -2.795252936315727 73.000000000000000
2.073380243182768 -5.000338161353233 -2.914724110322268 70.000000000000000
2.088991414691102 -5.002877052600804 -3.040722293453839 71.000000000000000
2.010670717033126 -5.464555316205832 -1.174494982446532 0.000000000000000
1.870267080266008 -5.051956519599190 -1.185787659133161 25.000000000000000
1.865902137764669 -5.009827360828753 -1.275168626879146 68.000000000000000
1.832754560926948 -4.889847869317527 -1.343153950346833 11.000000000000000
1.805504898093221 -4.787566774063136 -1.412168703394919 5.000000000000000
1.808032087759420 -4.763608131306840 -1.502132331380849 7.000000000000000
1.814007363588716 -4.748809340107026 -1.595547284212600 9.000000000000000
1.819168281757583 -4.732549374075958 -1.688768540854674 13.000000000000000
1.832373358079168 -4.735611607692896 -1.789929210244352 12.000000000000000
1.793133043590577 -4.604049130579099 -1.838855484043660 25.000000000000000
1.794192103800353 -4.576696384956858 -1.926947039901018 32.000000000000000
1.843482553800457 -4.671686306794023 -2.069672226403631 26.000000000000000
1.845911765485420 -4.647375879616798 -2.162223667338440 38.000000000000000
1.834053723964554 -4.587587849147658 -2.238316479849204 58.000000000000000
1.842021145399211 -4.577159703669652 -2.338411244200838 19.000000000000000
2.022508718231273 -4.993504454900138 -2.668054674022059 59.000000000000000
2.042334755365987 -5.007779878021055 -2.795488050468395 71.000000000000000
2.055242113069387 -5.006604029841635 -2.916813320224586 70.000000000000000
2.068001429139231 -5.002760953263798 -3.038917065926152 72.000000000000000
1.992375798147868 -5.466666500639833 -1.175624110733056 0.000000000000000
1.851762485727603 -5.050027840656416 -1.185857708600412 25.000000000000000
1.850077326094702 -5.015236572986611 -1.276962021536969 78.000000000000000
