# This PCD file was generated using the MATLAB® pcwrite function
# from Computer Vision Toolbox®.
# .PCD v.7 - Point Cloud Data file format
VERSION .7
FIELDS x y z intensity
SIZE 8 8 8 8
TYPE F F F F
COUNT 1 1 1 1
WIDTH 629
HEIGHT 1
VIEWPOINT 0 0 0 1 0 0 0
POINTS 629
DATA ascii
-6.218895198727024 -8.828880885537687 -2.600743896702870 74.000000000000000
-5.722188707118484 -8.029468175032752 -2.549127934463443 78.000000000000000
-5.598884356760547 -7.765329507568767 -2.645141886270724 33.000000000000000
-5.660864080781510 -7.759369249774845 -2.826119371959766 35.000000000000000
-4.512755005560781 -6.112932815257389 -2.372487019128970 43.000000000000000
-4.512386420214644 -6.039503749108571 -2.491257365100199 53.000000000000000
-4.515018415673546 -5.970822071043168 -2.610953178835751 57.000000000000000
-4.509994121123224 -5.891185703280629 -2.725270635532530 55.000000000000000
-4.511930410166879 -5.822295610408735 -2.844323082708173 57.000000000000000
-4.506522630793165 -5.742553919983468 -2.957313688845260 59.000000000000000
-4.540285050484601 -5.713775244009093 -3.097057978355406 3.000000000000000
-5.951703348363517 -9.216960996661246 -1.114289566990495 32.000000000000000
-6.020643451187489 -9.214167466453718 -1.306149430126219 30.000000000000000
-6.077013078946289 -9.191762621081292 -1.495263172825595 71.000000000000000
-6.148935774547659 -9.192436952199962 -1.691459641941439 85.000000000000000
-6.224101232864623 -9.196021495888878 -1.889827635051086 70.000000000000000
-6.316747056392743 -9.226044547688687 -2.095753952547260 23.000000000000000
-6.403791728261438 -9.245327429686730 -2.303426191335976 28.000000000000000
-6.469612786272154 -9.231693349397238 -2.505244957763331 34.000000000000000
-6.528445524910414 -9.208556467598566 -2.706944922107922 30.000000000000000
-6.091407743961211 -8.492319557662922 -2.691193829389698 68.000000000000000
-5.635650767769542 -7.765708451622364 -2.641120343365583 32.000000000000000
-4.505162118558129 -6.135178015045542 -2.231530642677953 1.000000000000000
-4.512693747813470 -6.073109475656201 -2.354296590308891 52.000000000000000
-4.509956109475738 -5.996928698752476 -2.471263254427052 56.000000000000000
-4.514807510819192 -5.931567022013114 -2.591657732729595 56.000000000000000
-4.509684443065389 -5.852244717010939 -2.705439335152716 55.000000000000000
-4.511568451693237 -5.783656481753983 -2.823945432679504 60.000000000000000
-4.517566701725040 -5.718798007400004 -2.943898851187468 15.000000000000000
-4.546837773248531 -5.684329919266685 -3.080239541446402 2.000000000000000
-5.985520228638665 -9.210494980580734 -1.105409338324244 28.000000000000000
-6.067864037610245 -9.227402720168778 -1.300178857272370 23.000000000000000
-6.117972216842556 -9.194801672288410 -1.488211732659309 73.000000000000000
-6.190251121930196 -9.195188909733048 -1.684706491280980 76.000000000000000
-6.263560234668948 -9.195211824657273 -1.882697183924422 75.000000000000000
-6.367793386839469 -9.241092331755564 -2.092480800029489 24.000000000000000
-6.444083026913792 -9.243863847613659 -2.296687856244901 32.000000000000000
-6.507950889960718 -9.226769910982496 -2.497876743085528 32.000000000000000
-6.582860029202759 -9.225573992923998 -2.706259842847504 23.000000000000000
-6.130282623134546 -8.491428371170786 -2.686005059148337 46.000000000000000
-5.672463437034531 -7.765953177372315 -2.637027455747706 32.000000000000000
-4.516335344385140 -6.110592236411961 -2.219557067831200 55.000000000000000
-4.514691277318155 -6.036398478971439 -2.337331827870970 53.000000000000000
-4.511863330418326 -5.960479515172224 -2.453812795801413 56.000000000000000
-4.512068496336219 -5.889364923672206 -2.571093673942992 55.000000000000000
-4.511448250270649 -5.816326094617146 -2.687020924035680 56.000000000000000
-4.510977117872792 -5.745070729336641 -2.803609059221245 70.000000000000000
-4.507700728807663 -5.668896462228322 -2.917038059409246 2.000000000000000
-4.537043747391160 -5.634807068548240 -3.052554231213194 2.000000000000000
-6.023692963765945 -9.210577250573287 -1.097264685250766 25.000000000000000
-6.110816990114874 -9.233824328316011 -1.293177477039675 29.000000000000000
-6.154577532513672 -9.191100124968026 -1.480018205661893 81.000000000000000
-6.233842840374154 -9.201062185766009 -1.678468973553783 76.000000000000000
-6.303056847485943 -9.194260181709826 -1.875491959029885 73.000000000000000
-6.410012597010754 -9.243008362830681 -2.086177104371895 29.000000000000000
-6.477656388424004 -9.232628504554159 -2.287488275468033 34.000000000000000
-6.548566336721608 -9.224898895750064 -2.491299921074480 30.000000000000000
-6.617002763706377 -9.213923640192153 -2.697125428638861 27.000000000000000
-6.501806517200732 -8.948150822353416 -2.825272530801589 21.000000000000000
-4.509404267730418 -6.133884341298526 -2.079519184270117 13.000000000000000
-4.513627814086063 -6.067509001296124 -2.200880386367961 54.000000000000000
-4.511883295095002 -5.993622228708610 -2.318039195305527 55.000000000000000
-4.513561942392588 -5.924071879579292 -2.436396305563429 55.000000000000000
-4.513697457740820 -5.853217245438392 -2.553190775811056 54.000000000000000
-4.508377153477912 -5.774523663200650 -2.665900955612222 58.000000000000000
-4.519422681275878 -5.718263022517891 -2.789032562246939 11.000000000000000
-4.502163042395480 -5.624894761754300 -2.893230522940974 2.000000000000000
-4.517652943908947 -5.573930580054899 -3.018735789551592 4.000000000000000
-6.075033909365451 -9.230471909540043 -1.091406123884278 22.000000000000000
-6.156049559961568 -9.243389404470451 -1.286548146250412 31.000000000000000
-6.191200436932322 -9.187270582767296 -1.471758264372144 76.000000000000000
-6.270826464412132 -9.196964946844876 -1.670361403928823 76.000000000000000
-6.342590455701825 -9.193166306484404 -1.868211865008895 69.000000000000000
-6.447785668739956 -9.238317108967113 -2.078338991636627 32.000000000000000
-6.513466870119022 -9.224488454156816 -2.279026566538759 30.000000000000000
-6.596031634210538 -9.232419991995895 -2.487216068597247 23.000000000000000
-6.496071637316137 -8.987646631418682 -2.625276616207382 66.000000000000000
-6.494191600944695 -8.880360935255156 -2.798672740749368 34.000000000000000
-4.518006859799487 -6.106098448249127 -2.066775206715614 62.000000000000000
-4.517578976346942 -6.033718497671715 -2.185594949509695 56.000000000000000
-4.513443594059130 -5.957007204392879 -2.301150166777025 55.000000000000000
-4.510423844182283 -5.881671035831206 -2.416534413596502 53.000000000000000
-4.512799139253211 -5.814124339689013 -2.534020144235494 53.000000000000000
-4.514350549009572 -5.744615126376802 -2.650286809094409 65.000000000000000
-4.506781301824907 -5.665138299437489 -2.761636171867668 2.000000000000000
-4.501015601430745 -5.586756722802439 -2.872453981511065 2.000000000000000
-4.546836381163958 -5.573228184960134 -3.017516614915288 6.000000000000000
-6.117737055183931 -9.236879230287652 -1.083872413483261 27.000000000000000
-6.185891403680773 -9.229671038585353 -1.276626829330731 34.000000000000000
-6.236743662577831 -9.196441268026453 -1.465523964674484 72.000000000000000
-6.312303572508373 -9.199262763536737 -1.663366530835717 75.000000000000000
-6.388911669895442 -9.201653420617339 -1.862825273909231 70.000000000000000
-6.483313053461686 -9.230274798155344 -2.069710849696553 33.000000000000000
-6.556087621618332 -9.225818603242697 -2.272866515597403 28.000000000000000
-6.641311173807829 -9.236585040326624 -2.482180228240839 20.000000000000000
-6.488250735817130 -8.919529262268661 -2.599773861069763 21.000000000000000
-4.516427290348037 -6.136403890365160 -1.930293196721886 27.000000000000000
-4.517239263773922 -6.065931949380895 -2.049857316814842 57.000000000000000
-4.512091893565093 -5.987682177055220 -2.165895863286005 58.000000000000000
-4.512477204137050 -5.917394422554430 -2.283122583232269 53.000000000000000
-4.511685909161864 -5.845361498298307 -2.399194700578104 53.000000000000000
-4.514001725677125 -5.778068760385362 -2.516190338754740 55.000000000000000
-4.522490501822779 -5.717675314001363 -2.636052477585023 7.000000000000000
-4.500820397699935 -5.620887557163505 -2.738586280797571 2.000000000000000
-4.525379254383658 -5.580414647312556 -2.868032595361057 5.000000000000000
-4.564347237596781 -5.558159982113754 -3.008522545681165 6.000000000000000
-6.153891657553156 -9.233184470274493 -1.075093486623183 28.000000000000000
-6.222357295445050 -9.225746281136518 -1.268020206431045 34.000000000000000
-6.275675460468760 -9.195606598201280 -1.457635347399095 61.000000000000000
-6.351588234083179 -9.198150512572091 -1.655703491790099 78.000000000000000
-6.426286967837156 -9.197020767738641 -1.854731464333977 72.000000000000000
-6.518835526700151 -9.222113168133058 -2.061022098372271 30.000000000000000
-6.601045083051369 -9.230181783022061 -2.267406461993747 22.000000000000000
-6.599587541894175 -9.120242473914352 -2.444794775412404 21.000000000000000
-4.487952190101469 -6.130399238795649 -1.782948768848159 0.000000000000000
-4.517834285792280 -6.099153954668242 -1.914961723736148 63.000000000000000
-4.518560152297153 -6.028911564234178 -2.034024459222581 59.000000000000000
-4.515627922429157 -5.953978175456156 -2.150679974419697 58.000000000000000
-4.513612017355580 -5.880872592490421 -2.266307152104116 53.000000000000000
-4.512740466464691 -5.809096029132305 -2.381890175186785 53.000000000000000
-4.519675529564545 -5.748007672413030 -2.500984787106145 56.000000000000000
-4.504702650179686 -5.658358026764707 -2.606910522900917 3.000000000000000
-4.503979318596672 -5.588367557411716 -2.721267046969422 2.000000000000000
-4.552089164156814 -5.576870306270016 -2.865049009809412 8.000000000000000
-4.610017519060488 -5.577193770803438 -3.017987428215482 7.000000000000000
-6.190062417356428 -9.229362753962759 -1.066248763186377 31.000000000000000
-6.256607016443362 -9.218404850768607 -1.258898188543258 31.000000000000000
-6.314642892973044 -9.194630961364851 -1.449672590116771 74.000000000000000
-6.395424814914297 -9.203395801568968 -1.649130424327044 75.000000000000000
-6.475029157295444 -9.208401224760976 -1.849813043524765 71.000000000000000
-6.563478047695856 -9.226660305732400 -2.055130049421847 28.000000000000000
-6.655243871187434 -9.247111689243978 -2.264974706629086 24.000000000000000
-6.488127171698398 -8.909390677621214 -2.382255141118415 29.000000000000000
-4.521463204178969 -6.136952057933136 -1.780947481506938 40.000000000000000
-4.521353243154347 -6.065058308274617 -1.900640041629851 59.000000000000000
-4.517348014746584 -5.988851559097951 -2.017188121310239 59.000000000000000
-4.511978268474465 -5.911136771976784 -2.132184365339460 57.000000000000000
-4.512200585657829 -5.841367284968851 -2.248361651711037 54.000000000000000
-4.513587875364574 -5.772875446106871 -2.364621232903551 57.000000000000000
-4.508736079976579 -5.697184448740964 -2.476764889556849 5.000000000000000
-4.503022563130719 -5.619750694152469 -2.587333363041665 3.000000000000000
-4.525809169969437 -5.579126602647158 -2.715289617822624 5.000000000000000
-4.569374354602822 -5.561740662740267 -2.856115335192102 6.000000000000000
-4.632243891826576 -5.567640084097819 -3.011982141478036 14.000000000000000
-4.549093084664808 -5.399277215208568 -3.073037204523310 53.000000000000000
-6.224021157958878 -9.222113228935791 -1.056959894209648 32.000000000000000
-6.297578286277105 -9.220795461209597 -1.251053472377431 29.000000000000000
-6.355900812231987 -9.196777688155178 -1.442147364078940 70.000000000000000
-6.434799409759132 -9.201986783018073 -1.641310391523852 70.000000000000000
-6.512483890374860 -9.203475869722705 -1.841564957594442 75.000000000000000
-6.612777081020181 -9.237439384182979 -2.050567945784637 21.000000000000000
-6.624431511078113 -9.146235185685661 -2.233703893348657 22.000000000000000
-4.502986056145564 -6.144340139000491 -1.638738793836908 0.000000000000000
-4.522563447876757 -6.099558823698195 -1.766187423852462 60.000000000000000
-4.517699881989818 -6.021682945761043 -1.883433640190112 59.000000000000000
-4.518245388770024 -5.951926800124267 -2.001429981993104 59.000000000000000
-4.515110786763030 -5.877516311780210 -2.117035802251275 55.000000000000000
-4.512911439309904 -5.804942035114368 -2.231621453093706 55.000000000000000
-4.521293019125610 -5.745678187724219 -2.351061802317442 48.000000000000000
-4.504567474922819 -5.655357972713089 -2.456480015049572 4.000000000000000
-4.503479600849360 -5.584133444940046 -2.569148721626618 4.000000000000000
-4.552349326269790 -5.575616194370316 -2.712099493876737 9.000000000000000
-4.615038323395456 -5.580964948862295 -2.864820328251274 9.000000000000000
-4.547691683052466 -5.430539513202026 -2.936999310767190 34.000000000000000
-4.573285565661997 -5.392661516606889 -3.068798608937175 72.000000000000000
-6.255738089306016 -9.211454248967394 -1.047238070921057 27.000000000000000
-6.343107063245870 -9.229585826569348 -1.244010552282649 23.000000000000000
-6.397212812414114 -9.198770488064698 -1.434540254086516 68.000000000000000
-6.478764192511430 -9.206909791560767 -1.634564965944832 74.000000000000000
-6.556823139267908 -9.208068081237071 -1.835172071404749 81.000000000000000
-6.659887707052129 -9.244828771228043 -2.045192587540388 25.000000000000000
-6.486694273910406 -8.899707177289631 -2.167068424235228 15.000000000000000
-4.524789394239263 -6.135159004365808 -1.632090968337558 49.000000000000000
-4.523457962260053 -6.062210910777432 -1.751463084657281 53.000000000000000
-4.516139113409620 -5.981476208274818 -1.867245532374913 60.000000000000000
-4.516590334816974 -5.911976779030176 -1.984676878397556 57.000000000000000
-4.513350901389186 -5.837841857939645 -2.099726192296793 56.000000000000000
-4.513415939025208 -5.768563151453042 -2.214917544526511 62.000000000000000
-4.502838023599222 -5.685641421317495 -2.324088501203820 5.000000000000000
-4.507261336790902 -5.622472007457922 -2.440095852056224 4.000000000000000
-4.525097570835333 -5.574887330826136 -2.563103435878936 6.000000000000000
-4.578905296030525 -5.572011942981313 -2.708860497932152 5.000000000000000
-4.596607673687046 -5.522771244122414 -2.833791043689693 22.000000000000000
-4.569413306270294 -5.421134133267660 -2.931100603118266 73.000000000000000
-4.554573335394474 -5.335706949995424 -3.035923101180956 23.000000000000000
-6.298666252492910 -9.217134199401196 -1.039319291621119 26.000000000000000
-6.388728308751205 -9.238197919222381 -1.236870972347648 28.000000000000000
-6.438578209343873 -9.200609028166367 -1.426851132033675 72.000000000000000
-6.518226063540658 -9.205202777282178 -1.626587474959696 65.000000000000000
-6.601235101484712 -9.212491184628236 -1.828688411969949 46.000000000000000
-6.709401646970880 -9.255223164230033 -2.040420966350879 27.000000000000000
-6.500687900371668 -8.862922022656848 -2.151666805587157 25.000000000000000
-4.520920165463819 -6.091353092541348 -1.616240811107536 59.000000000000000
-4.517125673148773 -6.015558519835865 -1.734079394782823 53.000000000000000
-4.521399067006310 -5.950602372525352 -1.853990798512796 59.000000000000000
-4.517065742209027 -5.875151014791125 -1.968995082259078 58.000000000000000
-4.513728214198420 -5.801264481854834 -2.083551779994604 57.000000000000000
-4.527930877795723 -5.750285719303969 -2.205173941500503 40.000000000000000
-4.507765834032337 -5.655551941369160 -2.309381610736142 5.000000000000000
-4.500250093138405 -5.577822118300571 -2.418624715784717 5.000000000000000
-4.556227902574468 -5.577247399065418 -2.562388485265241 14.000000000000000
-4.607864171380901 -5.571200342154508 -2.706975161629985 11.000000000000000
-4.568247109418036 -5.453312081888767 -2.797005842829036 70.000000000000000
-4.598287543879963 -5.420120818683904 -2.929741622510029 73.000000000000000
-4.571395307157403 -5.320687269551232 -3.026917892070205 39.000000000000000
-6.350693994805590 -9.235777569838710 -1.032779969211454 23.000000000000000
-6.429898710746254 -9.240103440032263 -1.228766449349751 30.000000000000000
-6.479996317155024 -9.202292977794933 -1.419079871072591 73.000000000000000
-6.562316201646950 -9.209802060125499 -1.619669127602934 68.000000000000000
-6.668818488130548 -9.248780721081642 -1.828447195222418 27.000000000000000
-6.749742285453927 -9.252693975052956 -2.032746241903770 29.000000000000000
-6.519160352029745 -8.832451448438155 -2.137803946929214 37.000000000000000
-4.540221689891541 -6.078970406810721 -1.608739195692671 30.000000000000000
-4.519930349851156 -5.981433346953716 -1.720333906090462 53.000000000000000
-4.519417506449808 -5.910495765372705 -1.837879541729087 59.000000000000000
-4.517335764177857 -5.838372796112176 -1.953350118974309 59.000000000000000
-4.518646497148391 -5.770796669436207 -2.069588276404884 70.000000000000000
-4.504289577917322 -5.683937300660819 -2.177020018378788 3.000000000000000
-4.500602996544028 -5.610618475852105 -2.288632121142653 5.000000000000000
-4.519261592260942 -5.565634715282026 -2.411240526526265 5.000000000000000
-4.582625396554831 -5.573664023271755 -2.558935292370010 6.000000000000000
-4.569726813700446 -5.489636494673057 -2.665870215239458 67.000000000000000
-4.599452918290934 -5.455235083503317 -2.796844478361205 73.000000000000000
-4.627197035332735 -5.419000848596629 -2.928326040439651 73.000000000000000
-4.602572950285557 -5.322301173019393 -3.027380461880550 51.000000000000000
-6.393804729893245 -9.241102270806786 -1.024668676443483 27.000000000000000
-6.464278113808120 -9.232081992117847 -1.219289366046759 34.000000000000000
-6.521466448300144 -9.203822008553523 -1.411226345616220 73.000000000000000
-6.604170215735076 -9.211014223392016 -1.612097000204296 44.000000000000000
-6.713472006589380 -9.252800766475213 -1.821743009498449 29.000000000000000
-6.780790209280955 -9.237317178130242 -2.022214501070417 26.000000000000000
-6.542171203106767 -8.808257754144272 -2.125456959290852 71.000000000000000
-4.582992407157147 -6.097819486431013 -1.609470132323729 24.000000000000000
-4.522550381940341 -5.947343148914591 -1.706617564620127 47.000000000000000
-4.521948650645923 -5.876606835462018 -1.823723800996905 58.000000000000000
-4.517400775450316 -5.801642931830536 -1.937742378517245 60.000000000000000
-4.532932656693647 -5.752449317004202 -2.059978734156780 32.000000000000000
-4.501747714335307 -5.644732109146266 -2.159296860658569 3.000000000000000
-4.502755110821141 -5.577640194222603 -2.272779416434099 6.000000000000000
-4.557427688914327 -5.576886987985615 -2.414000907943850 14.000000000000000
-4.565760565490163 -5.517686549159579 -2.531438643111540 47.000000000000000
-4.596067023270575 -5.485918211123104 -2.662586204890395 75.000000000000000
-4.625892692139144 -5.451357043257502 -2.793707069064415 74.000000000000000
-4.571703511602253 -5.319524213026647 -2.873776113239664 24.000000000000000
-4.633805649301452 -5.323795739286114 -3.027778745361185 52.000000000000000
-6.432433848155503 -9.239722055011587 -1.015749543556793 27.000000000000000
-6.500941206340013 -9.227195278497442 -1.210179624760292 34.000000000000000
-6.565292333473599 -9.208427955764833 -1.403783159722858 79.000000000000000
-6.673883158072740 -9.250614196112949 -1.611155047494384 25.000000000000000
-6.732570007840551 -9.221550854853662 -1.808065518965940 60.000000000000000
-6.636228254481805 -8.984169073991525 -1.959790959350415 34.000000000000000
-6.574482526660280 -8.796595170135340 -2.116116471130603 35.000000000000000
-4.625915692353096 -6.116484681635810 -1.610097868626586 22.000000000000000
-4.520245387178545 -5.907093476710910 -1.691157088235888 52.000000000000000
-4.517159136098197 -5.833538159508774 -1.806743446292131 59.000000000000000
-4.522033749342540 -5.771053050451179 -1.924203071062198 78.000000000000000
-4.511235387834001 -5.688804471545312 -2.034172795039859 2.000000000000000
-4.506179473347785 -5.614558574024558 -2.145046053777490 4.000000000000000
-4.526368210681338 -5.571341821252103 -2.267801828225014 6.000000000000000
-4.569199951542218 -5.555748308171721 -2.402733555572411 13.000000000000000
-4.592007575658246 -5.514032606316228 -2.527958631302882 75.000000000000000
-4.624839634415007 -5.484973493400203 -2.660644307802385 75.000000000000000
-4.657188181859753 -5.453053566696059 -2.793424607446788 73.000000000000000
-4.573684769242425 -5.287610559302572 -2.855746173025851 37.000000000000000
-4.657822585874142 -5.316871693875266 -3.023393482395018 49.000000000000000
-6.468808579488006 -9.234937617354879 -1.006400897011809 31.000000000000000
-6.539916550856253 -9.225424202845302 -1.201425730285735 29.000000000000000
-6.609188305180571 -9.212865597807591 -1.396249771136120 41.000000000000000
-6.715955765657831 -9.251436488327043 -1.603370529908259 28.000000000000000
-6.772576556734007 -9.218930947080340 -1.799977493231879 60.000000000000000
-6.624130441506657 -8.912158836564572 -1.937086669653383 24.000000000000000
-6.609128745902185 -8.787967546220877 -2.107477076188021 27.000000000000000
-4.661876898636677 -6.125617934743437 -1.608168119167652 16.000000000000000
-4.520096982390122 -5.869997257995291 -1.676625020961896 58.000000000000000
-4.514514449578145 -5.793610545356398 -1.790764119945804 61.000000000000000
-4.538483466135136 -5.755681618172828 -1.915743442594914 25.000000000000000
-4.510782982107641 -5.652429672863482 -2.018152541722384 2.000000000000000
-4.500809054780576 -5.572477007037206 -2.126264766779254 5.000000000000000
-4.557221638213209 -5.573825006352514 -2.266386934916609 15.000000000000000
-4.585706874238099 -5.540441940531193 -2.393991555366977 70.000000000000000
-4.618269234762018 -5.510285156008553 -2.524429990061608 74.000000000000000
-4.653646624929093 -5.483921933559418 -2.658645767474865 75.000000000000000
-4.669093314019623 -5.432008361897838 -2.781493983680211 71.000000000000000
-4.604671017925886 -5.289263523103871 -2.855850171111260 49.000000000000000
-4.689133881962449 -5.318146215104274 -3.023674630611543 47.000000000000000
-6.502899469962084 -9.226767738676621 -0.996634125485961 33.000000000000000
-6.578922555075557 -9.223510912025722 -1.192597362927028 26.000000000000000
-6.676391999798105 -9.249328502975795 -1.393476267853678 28.000000000000000
-6.760414599354426 -9.255300589089451 -1.596054338183996 30.000000000000000
-6.817311266371409 -9.222521658864217 -1.793049176454978 58.000000000000000
-6.894886949268137 -9.219022995223787 -1.996498176895475 27.000000000000000
-6.653252191530774 -8.791755038972264 -2.101774157847788 17.000000000000000
-4.697929713008351 -6.134604851276450 -1.606158065175632 6.000000000000000
-4.519745137910797 -5.832951253672978 -1.662131029915075 63.000000000000000
-4.528436046451310 -5.775158647125457 -1.781435818022211 87.000000000000000
-4.511557218660878 -5.685686798676521 -1.889131305681120 2.000000000000000
-4.502887249576345 -5.607091317900870 -1.998957070655461 2.000000000000000
-4.531485433863117 -5.575121551461357 -2.124552529149965 5.000000000000000
-4.576004524154417 -5.561452724268574 -2.258922351619011 58.000000000000000
-4.614297806670039 -5.539680377250605 -2.391529441437979 73.000000000000000
-4.646979388308238 -5.509330040825136 -2.522173877015642 74.000000000000000
-4.680049993612285 -5.479909192891675 -2.655207580388200 74.000000000000000
-4.566188875057942 -5.278354026459668 -2.701694640157193 25.000000000000000
-4.635711612509823 -5.290797156759524 -2.855889929893466 46.000000000000000
-4.718055347456728 -5.316547307207145 -3.022326003025391 49.000000000000000
-6.539287205231307 -9.221732411772930 -0.987156610247197 27.000000000000000
-6.634196141686839 -9.244080542272254 -1.186598702852363 21.000000000000000
-6.718189089273161 -9.250151112041692 -1.385242132323764 30.000000000000000
-6.781476252452952 -9.227066511705143 -1.583168792639030 26.000000000000000
-6.857396293782402 -9.219597858558323 -1.784801220440570 62.000000000000000
-6.937678822931732 -9.218956995434816 -1.989147673293264 1.000000000000000
-6.776015944486104 -8.898553390591490 -2.120568667801824 2.000000000000000
-4.734073445022601 -6.143444964978105 -1.604067510866360 1.000000000000000
-4.519190240163479 -5.795956264436729 -1.647675500196501 62.000000000000000
-4.542272956276871 -5.756679456330906 -1.772098763538160 21.000000000000000
-4.518034395241512 -5.658248944455730 -1.876694990130332 2.000000000000000
-4.506843652092620 -5.576835760056419 -1.985160749397488 5.000000000000000
-4.559786923901754 -5.574677191054477 -2.121645923369764 12.000000000000000
-4.604481885334708 -5.560789391949615 -2.256205643554057 73.000000000000000
-4.638043114354896 -5.532991026824933 -2.386500024399729 72.000000000000000
-4.678167440010540 -5.511147358780127 -2.521178334238983 73.000000000000000
-4.713809302992836 -5.484344942869545 -2.655857376185598 75.000000000000000
-4.577415872208374 -5.257587703933798 -2.689947856055759 33.000000000000000
-4.659448983014926 -5.283868206077018 -2.851363174955027 45.000000000000000
-4.739650225703478 -5.306601012273335 -3.016236965911097 46.000000000000000
-4.520918317114681 -4.931026701881290 -3.097201516742282 23.000000000000000
-6.582629141382340 -9.226300641206976 -0.978645014848464 25.000000000000000
-6.677987396902326 -9.248288693186819 -1.178416129508816 26.000000000000000
-6.760034433751987 -9.250816834914273 -1.376924958505029 32.000000000000000
-6.821261241781299 -9.224281191555905 -1.574621087906619 28.000000000000000
-6.902247114906399 -9.222858210434639 -1.777697160650449 69.000000000000000
-6.846900836015148 -8.936106657587514 -2.122706467224125 16.000000000000000
-6.861368170531922 -8.848922932323150 -2.304086319176621 44.000000000000000
-4.530481832945041 -5.774370457683514 -1.637614172748516 89.000000000000000
-4.514914508492725 -5.686395692796672 -1.746847161587223 2.000000000000000
-4.512238104145384 -5.615727921869552 -1.859275987860105 2.000000000000000
-4.534965717304416 -5.576523517590996 -1.982021039400992 4.000000000000000
-4.597879252433963 -5.585980370768116 -2.123188563795172 4.000000000000000
-4.632993000673327 -5.560019581764236 -2.253432516431370 73.000000000000000
-4.674030771063888 -5.540741035933130 -2.387686981971162 73.000000000000000
-4.706954457850766 -5.509971500185275 -2.518804835406037 74.000000000000000
-4.727982259281313 -5.465919443465463 -2.645434632242380 48.000000000000000
-4.610681403711261 -5.262079412596667 -2.691124904012720 49.000000000000000
-4.685642457480253 -5.279633348869356 -2.848292552067811 44.000000000000000
-4.768607783788011 -5.304807047428182 -3.014786558606212 49.000000000000000
-4.526774697446728 -4.972207387038107 -2.972771188443498 31.000000000000000
-6.630686507121593 -9.237176775955355 -0.970724293518357 21.000000000000000
-6.724184477864641 -9.255547250911205 -1.170550380715927 29.000000000000000
-6.783104982892824 -9.225725010880268 -1.364737635838057 30.000000000000000
-6.865806166980851 -9.227710308232725 -1.567077580971412 27.000000000000000
-6.937651192288724 -9.213312384277545 -1.768076594453086 3.000000000000000
-6.853257184750383 -8.889277159522338 -2.104760684938244 21.000000000000000
-6.884522476803151 -8.823927005933600 -2.291165306202917 49.000000000000000
-4.544088917636234 -5.755836156619894 -1.628419493485225 16.000000000000000
-4.508989943711661 -5.643662144539007 -1.730107304708145 2.000000000000000
-4.506199705347429 -5.573286531652692 -1.841912444071502 5.000000000000000
-4.563121745586323 -5.576105651288316 -1.978825333531921 12.000000000000000
-4.626287896097178 -5.585297247975662 -2.120153521370620 20.000000000000000
-4.661537395219129 -5.559143076993421 -2.250602888670004 72.000000000000000
-4.702732036018945 -5.539652227234452 -2.385051068362580 72.000000000000000
-4.733310229875112 -5.505822103776087 -2.515065253493492 66.000000000000000
-4.564426483290966 -5.243398542833465 -2.536293082363304 17.000000000000000
-4.639079840308929 -5.260835904809234 -2.689365690624701 49.000000000000000
-4.714321327643364 -5.278072625835985 -2.846666080896694 49.000000000000000
-4.592339536060385 -5.076028534316894 -2.884360571138317 46.000000000000000
-4.542411830677452 -4.957343228215312 -2.963839887407766 63.000000000000000
-6.681182029232486 -9.251090471371882 -0.963034673702505 26.000000000000000
-6.763421667617649 -9.252985017419149 -1.161376602750728 33.000000000000000
-6.817880713096477 -9.216547463322648 -1.354876908913829 30.000000000000000
-6.908041659469454 -9.227794709060305 -1.558906423898845 27.000000000000000
-6.876240674099803 -8.864235318627765 -2.091982410979512 25.000000000000000
-6.909989185762422 -8.801960522474930 -2.279021810654569 40.000000000000000
-4.513881714524218 -5.682227121824966 -1.603680393120984 2.000000000000000
-4.510137796627005 -5.610106348508893 -1.716206227076663 2.000000000000000
-4.536603872255944 -5.576014809527231 -1.839479314959903 4.000000000000000
-4.603574382453868 -5.590473990177613 -1.980850188773012 5.000000000000000
-4.642434976461368 -5.569757163530672 -2.111470252839687 10.000000000000000
-4.690114592911342 -5.558159662494486 -2.247716679561565 72.000000000000000
-4.728996355548400 -5.535565457614645 -2.381114976995757 76.000000000000000
-4.739887770811495 -5.478702842051840 -2.500834878316583 19.000000000000000
-4.577716956916952 -5.225397817220567 -2.526141150874499 26.000000000000000
-4.662551420386134 -5.253896821032109 -2.684694106635601 48.000000000000000
-4.705803318773144 -5.234988788727065 -2.822651857194863 47.000000000000000
-4.541093816927922 -4.987314099331832 -2.833552720607986 61.000000000000000
-4.567915039876924 -4.953208419328674 -2.961330535951322 63.000000000000000
-6.722427662830797 -9.251897837772670 -0.953901838463814 27.000000000000000
-6.783822517677376 -9.224628395084725 -1.148932992497802 31.000000000000000
-6.864505197750501 -9.223186533205517 -1.347284143658186 30.000000000000000
-6.936012343016816 -9.208720253951084 -1.547458581671712 1.000000000000000
-6.901536324062387 -8.842240810112648 -2.079912936549480 25.000000000000000
-4.507745763243371 -5.706645276835276 -1.473372939324963 1.000000000000000
-4.507630387696981 -5.639347633128799 -1.587668277895407 1.000000000000000
-4.508655883794582 -5.573565974346755 -1.701413662554936 5.000000000000000
-4.564605634958449 -5.575625066277176 -1.835994694329806 11.000000000000000
-4.631845991839477 -5.589810796247546 -1.977522179404048 23.000000000000000
-4.688141254368640 -5.589497932367437 -2.116142822010595 8.000000000000000
-4.723672962015228 -5.562897199298713 -2.247128055532396 73.000000000000000
-4.740397302053199 -5.514080949962881 -2.369693797929005 20.000000000000000
-4.748803704416176 -5.454449164733637 -2.487921157565036 59.000000000000000
-4.608331617453048 -5.227117979160310 -2.525521992682229 46.000000000000000
-4.688506412664626 -5.249665922145211 -2.681406221420011 48.000000000000000
-4.532564559693469 -5.010209693534539 -2.700709784301762 48.000000000000000
-4.566525159553032 -4.983245303959463 -2.830847612948307 66.000000000000000
-4.598417139571780 -4.954352491152537 -2.961984335526293 62.000000000000000
-6.761366556816777 -9.249331116961329 -0.944358074657353 29.000000000000000
-6.820670008064731 -9.218630998387573 -1.139244994131624 29.000000000000000
-6.904069017420938 -9.220100206795149 -1.338207450040657 30.000000000000000
-6.944323633569093 -8.948181586778825 -1.894378938408615 4.000000000000000
-6.931602660972338 -8.826367750890912 -2.069265781970537 18.000000000000000
-4.511130138828996 -5.675858633238765 -1.461215126542855 1.000000000000000
-4.510934793074437 -5.608729547808061 -1.575133058562126 2.000000000000000
-4.536462177036952 -5.573310482010192 -1.697697613660477 4.000000000000000
-4.607431417069341 -5.593085003858105 -1.838355753552610 5.000000000000000
-4.647788881529434 -5.574216149583108 -1.968901427308700 10.000000000000000
-4.709231504915999 -5.579671083350123 -2.109599306677232 21.000000000000000
-4.742397025934358 -5.550056629721817 -2.239428019671504 40.000000000000000
-4.751692437195157 -5.492582930291043 -2.358272192978961 57.000000000000000
-4.598010284944213 -5.248050494111481 -2.391995700414923 33.000000000000000
-4.631508804670114 -5.220276346630663 -2.520761999291412 48.000000000000000
-4.549492591454141 -5.061782631668474 -2.584351707884063 33.000000000000000
-4.560398838037548 -5.008972481735555 -2.699300115815528 67.000000000000000
-4.594472961512985 -4.981798265350432 -2.829636063043715 68.000000000000000
-4.626469971470986 -4.952699344877217 -2.960972948598150 56.000000000000000
-6.786159437869176 -9.227350858255656 -0.932791628643689 27.000000000000000
-6.864655585101243 -9.222082517357721 -1.130664291902498 29.000000000000000
-6.946049800919927 -9.220042724663843 -1.329512812466871 0.000000000000000
-6.971991494549080 -8.929063511516889 -1.882927350492574 9.000000000000000
-4.517490663358688 -5.717191662200904 -1.335837416801736 1.000000000000000
-4.509454074916236 -5.638974782308642 -1.447509361181668 1.000000000000000
-4.514077470561108 -5.578140492626972 -1.562622550166213 5.000000000000000
-4.569235637437983 -5.578974589463908 -1.695757122845937 11.000000000000000
-4.635557031204334 -5.592443350197962 -1.834734963224571 26.000000000000000
-4.695931978421956 -5.597039766110375 -1.973826920125767 9.000000000000000
-4.737759596438589 -5.578567250024003 -2.106342195208009 4.000000000000000
-4.758580124571090 -5.534261936943216 -2.230534467641893 33.000000000000000
-4.782872906278694 -5.494035353590973 -2.356700722594558 64.000000000000000
-4.581015966729416 -5.195837162278664 -2.366425341238163 28.000000000000000
-4.594522140980634 -5.145977883630619 -2.483445573638221 31.000000000000000
-4.554751005033385 -5.035615434383260 -2.569906706312203 61.000000000000000
-4.585755250939993 -5.004889361079068 -2.696358147916155 68.000000000000000
-4.619941719560573 -4.977539314775078 -2.826831596988426 68.000000000000000
-4.657067528926969 -4.953612579094910 -2.961503072300741 60.000000000000000
-6.820350747973405 -9.218126776933243 -0.922480568361710 26.000000000000000
-6.908704625543947 -9.225363560022785 -1.121992683751263 29.000000000000000
-4.508409062565541 -5.670889027465955 -1.320515567020375 1.000000000000000
-4.514955462731064 -5.611316046626357 -1.436191280585034 1.000000000000000
-4.544210403345575 -5.580927206146550 -1.559454818139691 4.000000000000000
-4.609510954109664 -5.593523235263739 -1.696479466574138 4.000000000000000
-4.648806473060993 -5.573821097283610 -1.825204851928226 9.000000000000000
-4.711869971686503 -5.581278918517472 -1.965121625658691 23.000000000000000
-4.776311106271889 -5.589048622853748 -2.107437236901829 14.000000000000000
-4.792222986636998 -5.538683788856775 -2.229779525738615 36.000000000000000
-4.801560594759963 -5.481048150730628 -2.348928058545150 65.000000000000000
-4.603911509055083 -5.189081710041566 -2.361570202916325 46.000000000000000
-4.544478434782029 -5.057922929022273 -2.439530159656125 51.000000000000000
-4.585059521136706 -5.037141727823736 -2.569597711987334 67.000000000000000
-4.616167426313627 -5.006182826876612 -2.696313742153667 66.000000000000000
-4.645423679918085 -4.973188434765417 -2.823979395528908 43.000000000000000
-4.682673631041137 -4.949076427091539 -2.958782550975799 60.000000000000000
-6.864053099408410 -9.221580126459138 -0.913377807807751 28.000000000000000
-6.943232872371520 -9.215753587931411 -1.111695590775121 0.000000000000000
-4.515859074119200 -5.713388593065525 -1.195243743896632 1.000000000000000
-4.518738568171687 -5.649272207500306 -1.310965017871312 1.000000000000000
-4.515377655074015 -5.577574847652844 -1.423333921077072 5.000000000000000
-4.571916779045232 -5.580570652822717 -1.555380388952655 12.000000000000000
-4.634995405800413 -5.589905150720396 -1.691660129623749 29.000000000000000
-4.696891952751296 -5.596785655574871 -1.829267697667968 11.000000000000000
-4.742750423102235 -5.583147115665494 -1.962611196594889 4.000000000000000
-4.794908706386952 -5.576037283044155 -2.099657761521186 10.000000000000000
-4.830962381600219 -5.548744561102372 -2.231273238131180 43.000000000000000
-4.603619173584020 -5.222318525246973 -2.235939114884808 39.000000000000000
-4.551116857667570 -5.097478268051714 -2.318125677049145 37.000000000000000
-4.567119149622004 -5.051205132556615 -2.434866193857415 71.000000000000000
-4.612891384058069 -5.035788372911318 -2.567817077233896 65.000000000000000
-4.644100791902253 -5.004629956424961 -2.694736876562674 55.000000000000000
-4.681045095813862 -4.979517845056549 -2.827195578965198 13.000000000000000
-4.713354851654901 -4.949764537736005 -2.959192637080638 63.000000000000000
-6.903037038443041 -9.218479549258301 -0.903558767203315 27.000000000000000
-4.516303819595011 -5.679320803449091 -1.183308506105611 1.000000000000000
-4.514156622366238 -5.609244260298582 -1.297160289653686 2.000000000000000
-4.542882162331635 -5.577348052594519 -1.419025848738904 4.000000000000000
-4.614580640949757 -5.598216264295466 -1.556284089216824 5.000000000000000
-4.650506746253019 -5.574226362473595 -1.683178975320079 10.000000000000000
-4.712610709692771 -5.580983754030435 -1.820633031705547 26.000000000000000
-4.781214243158169 -5.593708085097238 -1.963129190791891 17.000000000000000
-4.846186257770106 -5.600796276474968 -2.106076879989023 6.000000000000000
-4.867286282309263 -5.555762474329393 -2.231520462571971 50.000000000000000
-4.550589401421998 -5.130012642935382 -2.194335066253310 19.000000000000000
-4.573707759765321 -5.090771268139227 -2.313313905147899 66.000000000000000
-4.599896861965451 -5.055557498411989 -2.435533460975379 68.000000000000000
-4.640755625374293 -5.034329601189820 -2.565980649214019 64.000000000000000
-4.674606787574591 -5.005691926398591 -2.694568559073889 8.000000000000000
-4.709132389214498 -4.977641679975934 -2.825756437950253 10.000000000000000
-4.739004793384127 -4.945029934348450 -2.956368129425026 63.000000000000000
-6.942044878600186 -9.215235210760854 -0.893664877822926 0.000000000000000
-4.514915059609494 -5.710601231462138 -1.056083131071844 1.000000000000000
-4.516569584163842 -5.645297271374484 -1.171406807739245 1.000000000000000
-4.516790071613165 -5.578468180453513 -1.285520987243848 4.000000000000000
-4.567930148001889 -5.573980520159267 -1.413892260343932 13.000000000000000
-4.634915696042024 -5.588574775331020 -1.549569124342990 33.000000000000000
-4.698528939661606 -5.597317767066136 -1.686374696693519 12.000000000000000
-4.743345451034483 -5.582895034908988 -1.817762625135372 5.000000000000000
-4.794577366398605 -5.574796618262321 -1.953288136100048 11.000000000000000
-4.862287218213109 -5.584686780561167 -2.097105760477225 19.000000000000000
-4.903697754458939 -5.562630848339002 -2.231685994494222 55.000000000000000
-4.568029601545605 -5.117648461483982 -2.186956740329756 62.000000000000000
-4.596292328575815 -5.083986619687304 -2.308462882767574 70.000000000000000
-4.627654729909418 -5.054216965980205 -2.433451573700380 67.000000000000000
-4.666103380184466 -5.030018059439359 -2.562688737858151 65.000000000000000
-4.702613521187311 -5.003920695755109 -2.692875738117152 46.000000000000000
-4.737250921018476 -4.975659386321956 -2.824261210054019 63.000000000000000
-4.769767677594554 -4.945491973415126 -2.956657816295422 63.000000000000000
-4.517566346509044 -5.679551207043627 -1.045235089086757 1.000000000000000
-4.519132950467888 -5.614395074441440 -1.160174695501972 1.000000000000000
-4.544135780474458 -5.578256118297816 -1.280918688787384 3.000000000000000
-4.612970364234833 -5.594754476972668 -1.414839482445073 5.000000000000000
-4.650210023176719 -5.572860049572280 -1.541161123383291 9.000000000000000
-4.714033890742732 -5.581474234846748 -1.677809835073945 27.000000000000000
-4.779176072976858 -5.590589059679338 -1.816746000210042 18.000000000000000
-4.845811011833106 -5.599722041122798 -1.958782453403268 7.000000000000000
-4.893541612347998 -5.585912266411252 -2.094633772327482 4.000000000000000
-4.937653526741351 -5.566482865122720 -2.230621026116680 62.000000000000000
-4.593067021720495 -5.113743077004381 -2.183188282391916 69.000000000000000
-4.626525827053760 -5.085539401699982 -2.307390683296068 69.000000000000000
-4.652889273627781 -5.049997741124577 -2.429979469459815 14.000000000000000
-4.696579345325702 -5.031094966333741 -2.562140100148957 64.000000000000000
-4.728091485513935 -4.999336641745363 -2.689670620561714 61.000000000000000
-4.765400214439406 -4.973570757049284 -2.822709818746000 60.000000000000000
-4.798019962942606 -4.943195977208458 -2.955306069786065 62.000000000000000
-4.513887378704776 -5.709655847074785 -0.917358621442251 1.000000000000000
-4.520058649230710 -5.648532876457767 -1.034412949981958 1.000000000000000
-4.514079828518407 -5.574316208034714 -1.147073718034160 4.000000000000000
-4.569015539792039 -5.574893111983446 -1.275564105444491 14.000000000000000
-4.635610907345085 -5.588127011921598 -1.408816529692730 35.000000000000000
-4.700668661463182 -5.599071167745062 -1.544312207315572 13.000000000000000
-4.744623170968338 -5.583421799819402 -1.674576952788918 4.000000000000000
-4.794830367926650 -5.574575776508225 -1.808007371327919 12.000000000000000
-4.864226035230935 -5.586491364727952 -1.950902178480910 20.000000000000000
-4.927390338936809 -5.589904262025411 -2.093178155136911 19.000000000000000
-4.974228374624266 -5.573057728590596 -2.230626734996122 66.000000000000000
-4.620674045122046 -5.112575658632177 -2.180579166986887 65.000000000000000
-4.649125678952624 -5.078578546470088 -2.302448776550106 68.000000000000000
-4.685830171339703 -5.053985491768519 -2.430450627837531 28.000000000000000
-4.727105555959763 -5.032052012042687 -2.561527202844323 63.000000000000000
-4.761289335400965 -5.002759574429384 -2.690773960230060 57.000000000000000
-4.796150075695502 -4.974041203640891 -2.822614843702327 11.000000000000000
-4.826302192370718 -4.940793231919455 -2.953897998803698 61.000000000000000
-4.511360594433961 -5.672324901797966 -0.905964566322084 1.000000000000000
-4.514941843943756 -5.608292243010408 -1.021930654592100 1.000000000000000
-4.543743567478879 -5.577188954884253 -1.142809588037920 3.000000000000000
-4.616462628458478 -5.598794762503586 -1.276398843390522 4.000000000000000
-4.653210049736005 -5.575390810525744 -1.401238574597822 11.000000000000000
-4.715965384101904 -5.583185573201740 -1.535816835154679 29.000000000000000
-4.780330212833640 -5.591177899272719 -1.673053721478839 19.000000000000000
-4.843470358133156 -5.596717088333444 -1.811616052877070 8.000000000000000
-4.900440360170822 -5.593579995798793 -1.950100281269769 4.000000000000000
-4.948525302250385 -5.579350279583331 -2.086260719733070 8.000000000000000
-5.000641465700423 -5.568071748756564 -2.225988753838739 70.000000000000000
-4.645745692744907 -5.108480495154778 -2.176711737682631 63.000000000000000
-4.676860383949243 -5.077122153001125 -2.299996433160575 34.000000000000000
-4.713691639414110 -5.052320906575376 -2.428196982433449 25.000000000000000
-4.755104166726011 -5.030162532501720 -2.559462689745799 63.000000000000000
-4.786818454366679 -4.997969639756255 -2.687460616457352 10.000000000000000
-4.826948926658251 -4.974391032233500 -2.822455299534022 62.000000000000000
-4.857193383712275 -4.940907489874239 -2.954002303608843 61.000000000000000
-4.903244753331302 -4.919437681504868 -3.094856989703897 24.000000000000000
-4.513605786223659 -5.709905709092032 -0.778934913742168 1.000000000000000
-4.516078274568136 -5.644352659111464 -0.896089324540259 1.000000000000000
-4.517088782020905 -5.577359700289394 -1.011173431676633 4.000000000000000
-4.570951670856073 -5.576887869792639 -1.137858739236906 15.000000000000000
-4.636418467489680 -5.589122278587195 -1.269535328110619 37.000000000000000
-4.701075937599224 -5.598705477036026 -1.402682433886007 14.000000000000000
-4.746408864300907 -5.585163962932229 -1.532217478052298 4.000000000000000
-4.803402448500385 -5.583997208335385 -1.667034521251170 12.000000000000000
-4.861667066374729 -5.583468108285641 -1.803739787076980 22.000000000000000
-4.931621682214794 -5.594711875505376 -1.947195576614749 21.000000000000000
-4.992721077609209 -5.594603468699574 -2.088972060419054 10.000000000000000
-5.034776793919318 -5.571526833571514 -2.224710178473615 64.000000000000000
-4.673405321634201 -5.107109089253950 -2.173995273725502 58.000000000000000
-4.707206446933485 -5.078344112972379 -2.298748471709473 17.000000000000000
-4.744167426903167 -5.053302524260906 -2.427209307787310 20.000000000000000
-4.777958997858616 -5.022727775657645 -2.554575797743941 62.000000000000000
-4.827890154118678 -5.009202313509547 -2.692762307017557 50.000000000000000
-4.857796211419261 -4.974619958153804 -2.822231074922552 66.000000000000000
-4.888132671264028 -4.940900689490175 -2.954041869154313 61.000000000000000
-4.515792657449739 -5.678723527895906 -0.768980993682216 1.000000000000000
-4.513188901760354 -5.607121774508420 -0.884768525016963 1.000000000000000
-4.544100223089617 -5.577172061661794 -1.005982582918822 3.000000000000000
-4.615787714194083 -5.597824778217189 -1.137188431999139 3.000000000000000
-4.653821703330126 -5.576360293274330 -1.261956193061746 13.000000000000000
-4.718695562120395 -5.585785283934754 -1.395009302407414 35.000000000000000
-4.781989971194418 -5.592975026812851 -1.530182428615558 22.000000000000000
-4.844340739019694 -5.597391703126815 -1.667127147532908 8.000000000000000
-4.902869680394557 -5.596482756553555 -1.804324153988548 4.000000000000000
-4.952574520004539 -5.584135836293906 -1.940200140609196 9.000000000000000
-5.011306791868793 -5.580984322626610 -2.080883040530074 19.000000000000000
-5.066396185958361 -5.572005773388627 -2.222225314460796 61.000000000000000
-4.703681219460512 -5.108440297258772 -2.172417251597209 50.000000000000000
-4.740192081292869 -5.082223195622970 -2.298692328764386 20.000000000000000
-4.772098679643296 -5.051418446965433 -2.424839348370123 61.000000000000000
-4.811190822566577 -5.026063925824199 -2.555165020576903 60.000000000000000
-4.848300699256193 -4.998826886684465 -2.686448601137273 64.000000000000000
-4.883493402021789 -4.969438248635796 -2.818941589569611 69.000000000000000
-4.921718081374545 -4.943382571544117 -2.955577080508092 26.000000000000000
-4.511215948575300 -5.708354650572907 -0.641898627979942 1.000000000000000
-4.512852375146188 -5.641361874609204 -0.758218728232910 1.000000000000000
-4.517600800595722 -5.579209816280453 -0.874942759485860 5.000000000000000
-4.571141034818545 -5.576880435175104 -1.000736854302456 13.000000000000000
-4.638073443299585 -5.591182035025615 -1.130867890500897 44.000000000000000
-4.701593004964114 -5.599773401161516 -1.262521711225794 12.000000000000000
-4.746448107016928 -5.584792722661942 -1.390295152943300 4.000000000000000
-4.799775065103081 -5.579850310089008 -1.522394771869087 13.000000000000000
-4.867459555529916 -5.590003197825050 -1.660999013722235 24.000000000000000
-4.931339376429680 -5.594734430405695 -1.800117387202065 24.000000000000000
-4.994123462635350 -5.596607633010434 -1.941189800633739 10.000000000000000
-5.050520494523536 -5.590199136030202 -2.081291030568502 4.000000000000000
-5.100651356468530 -5.575192272407692 -2.220802302196507 51.000000000000000
-4.734006121762055 -5.109651468446366 -2.170774956121268 44.000000000000000
-4.762846311270209 -5.074887332374760 -2.293555662922081 52.000000000000000
-4.797456229976227 -5.046689494517909 -2.421099516208464 14.000000000000000
-4.839277907341181 -5.023854395066306 -2.552931717201327 63.000000000000000
-4.879113704403100 -4.999073869458656 -2.685845473440629 65.000000000000000
-4.914416848568930 -4.969438560201644 -2.818596004198334 59.000000000000000
-4.520618292415366 -5.686478129459191 -0.633435661659388 1.000000000000000
-4.519695526985045 -5.616460212903171 -0.749153535816960 1.000000000000000
-4.539429989833723 -5.572871080002789 -0.868494843431297 3.000000000000000
-4.610815491828142 -5.591771038833965 -0.998164890975095 3.000000000000000
-4.652751818923232 -5.575356963811324 -1.122675036503051 14.000000000000000
-4.719015672729161 -5.586828086972390 -1.254847802385998 40.000000000000000
