# This PCD file was generated using the MATLAB® pcwrite function
# from Computer Vision Toolbox®.
# .PCD v.7 - Point Cloud Data file format
VERSION .7
FIELDS x y z intensity
SIZE 8 8 8 8
TYPE F F F F
COUNT 1 1 1 1
WIDTH 636
HEIGHT 1
VIEWPOINT 0 0 0 1 0 0 0
POINTS 636
DATA ascii
6.534012229986486 -1.836464768797410 -1.467384520619215 6.000000000000000
6.546922690742801 -1.787575073234420 -1.579684347896122 88.000000000000000
6.633075125799823 -1.757076381962417 -1.711192848116635 103.000000000000000
6.604713758402235 -1.694886750155941 -1.814456137171151 113.000000000000000
6.585911543222653 -1.634505867065812 -1.919599884187858 97.000000000000000
6.601699712208096 -1.584632114536930 -2.036233280203857 84.000000000000000
6.604472837712994 -1.530205889700764 -2.149407469754480 80.000000000000000
9.499782878696415 -3.083494133619201 -1.361098521622284 1.000000000000000
9.138584498183297 -2.892357451889366 -1.460464905454403 121.000000000000000
9.132643114947857 -2.816790087856637 -1.611020588306702 123.000000000000000
9.135321886334145 -2.743912274370704 -1.762622893196989 108.000000000000000
9.300565372656131 -2.719145266629125 -1.949150781216826 28.000000000000000
6.553073663374831 -1.862441615743899 -1.482336260882948 0.000000000000000
6.607216697897019 -1.824790091923872 -1.605125735712710 61.000000000000000
6.629440078282976 -1.776896285206911 -1.721319215042139 105.000000000000000
6.601097728882110 -1.714612081592043 -1.824613433965140 100.000000000000000
6.600963110258768 -1.658851611251314 -1.935270872217060 99.000000000000000
6.624106634726699 -1.610654357457105 -2.054605517507958 103.000000000000000
6.589678287858238 -1.547273886971878 -2.156130696693651 78.000000000000000
6.634399323152446 -1.502566728151087 -2.285172826813697 0.000000000000000
9.402572187018446 -3.081867798409949 -1.361569366955258 1.000000000000000
9.139672929932017 -2.921738223509522 -1.474818120024060 81.000000000000000
9.137490166320703 -2.847261082651248 -1.626235464996406 123.000000000000000
9.140148251096324 -2.774292617955764 -1.778101914384259 106.000000000000000
9.211189282521239 -2.722117857651486 -1.945267686109228 31.000000000000000
9.422386889470648 -2.707639185468241 -2.146767650783044 26.000000000000000
6.682293791078823 -1.866559040548223 -1.634408467261810 66.000000000000000
6.629474368088029 -1.797733390943079 -1.732420346784267 104.000000000000000
6.608615286176189 -1.737285785125906 -1.837884136750155 129.000000000000000
6.593535435642956 -1.677615557437686 -1.944395150262335 100.000000000000000
6.586905549073736 -1.622179701633919 -2.054495632311860 88.000000000000000
6.589659784649733 -1.567807604446850 -2.167696297456970 82.000000000000000
6.612133269439168 -1.518091422884627 -2.289255787136908 36.000000000000000
9.324269986016461 -3.085950123305252 -1.364535475663746 3.000000000000000
9.136884467795268 -2.949941737571049 -1.488570444116715 47.000000000000000
9.134691991029415 -2.875423005489577 -1.640122180974426 123.000000000000000
9.137333273579870 -2.802425899717693 -1.792128824644489 121.000000000000000
9.144432709744487 -2.731346950514543 -1.945943024055422 84.000000000000000
9.340441056793969 -2.713611740696614 -2.143378684533155 28.000000000000000
6.697188380226917 -1.891847083647862 -1.649147177133272 68.000000000000000
6.621947904987053 -1.816542195593750 -1.741561481907834 96.000000000000000
6.601107363165754 -1.756054356842712 -1.847005867822994 133.000000000000000
6.586042358570676 -1.696360217654360 -1.953505583066615 98.000000000000000
6.586836296923144 -1.642776709261808 -2.065935207368021 106.000000000000000
6.596962972556044 -1.590148937903346 -2.181717189282188 94.000000000000000
6.593524692697714 -1.534371027720591 -2.294567862600096 45.000000000000000
9.231001516493917 -3.084601660187432 -1.365074210603916 5.000000000000000
9.141503628520896 -2.980611043356086 -1.503560181024689 78.000000000000000
9.135543153641922 -2.904794984944003 -1.654690721370718 123.000000000000000
9.138165501303735 -2.831738228361889 -1.806899520398451 123.000000000000000
9.137732046712594 -2.758347470801636 -1.959313214573884 107.000000000000000
9.243577746032830 -2.714751211104351 -2.136309976303560 28.000000000000000
6.704482797806045 -1.915105442341084 -1.662078686055023 78.000000000000000
6.629295147211981 -1.839476740620684 -1.754642747646132 92.000000000000000
6.597261295072373 -1.775806698542076 -1.857162882989287 113.000000000000000
6.582202711589698 -1.716054929458121 -1.963711522251602 99.000000000000000
6.582975929909570 -1.662459912475908 -2.076211681318120 108.000000000000000
6.589375708245562 -1.608943599640227 -2.190847386003882 101.000000000000000
6.574875893455950 -1.550567903626862 -2.299835246684865 57.000000000000000
9.156595026031635 -3.089089897408005 -1.368170725817705 15.000000000000000
9.138492459512701 -3.008866709496316 -1.517325506249173 120.000000000000000
9.136278491786443 -2.934203505688666 -1.669270831148961 122.000000000000000
9.142631831613649 -2.862261114836915 -1.822429285886661 121.000000000000000
9.138426164348525 -2.787627911352561 -1.974293257497090 118.000000000000000
9.150563920415761 -2.716485823048195 -2.129855561197392 59.000000000000000
6.700465403106383 -1.935190789464053 -1.672239214391262 56.000000000000000
6.629081341749170 -1.860382480535233 -1.765763741441815 84.000000000000000
6.615678943400572 -1.801643728633834 -1.873642439987059 115.000000000000000
6.582003640537299 -1.736731230255075 -1.975028280762186 103.000000000000000
6.579041627539519 -1.682144544370537 -2.086484362497493 110.000000000000000
6.581722948006806 -1.627718530380996 -2.199963504591589 104.000000000000000
6.563549643201990 -1.568441292568689 -2.307646418537394 47.000000000000000
9.153464589083200 -3.117446281355394 -1.381824409707453 0.000000000000000
9.142871237783465 -3.039629870785161 -1.532348451868054 120.000000000000000
9.144393180819367 -2.966079424778185 -1.685243662053573 121.000000000000000
9.146973251955485 -2.892841382208351 -1.837980703215828 121.000000000000000
9.139004006123290 -2.816944509806423 -1.989284646483231 119.000000000000000
9.136153079019852 -2.741280630714891 -2.141556308011407 106.000000000000000
6.703838353840758 -1.957456939972271 -1.684271253013609 53.000000000000000
6.658593581464628 -1.889770674774927 -1.784881596532039 107.000000000000000
6.615377357964284 -1.822486712880578 -1.884882116501513 115.000000000000000
6.574301763099941 -1.755448611889141 -1.984112017683857 102.000000000000000
6.575033354812647 -1.701830386518535 -2.096753137263256 108.000000000000000
6.574004767369434 -1.646473544824668 -2.209065455072899 105.000000000000000
6.581581582607022 -1.593395102585298 -2.325828007085914 39.000000000000000
6.723337791836926 -1.568704428008960 -2.492287173341475 27.000000000000000
9.143380813114955 -3.069193148177858 -1.546759427170036 117.000000000000000
9.137400780513449 -2.993128747709291 -1.698464976356113 121.000000000000000
9.143706848863612 -2.921088223532310 -1.852037972716962 120.000000000000000
9.143203367236467 -2.847461038552005 -2.005106934625701 118.000000000000000
9.136595926309010 -2.770555365323591 -2.156752616094453 119.000000000000000
6.718303458135730 -1.983067654407583 -1.699148410952938 19.000000000000000
6.647013270995693 -1.907601254674184 -1.793044346460124 106.000000000000000
6.614992725306490 -1.843351801048126 -1.896127997186593 95.000000000000000
6.570240391821405 -1.775147145769483 -1.994306346714308 95.000000000000000
6.567255379525108 -1.720548987865183 -2.105832842476965 110.000000000000000
6.566221242508770 -1.665208457866823 -2.218153147615237 89.000000000000000
6.603159773393407 -1.619376348187709 -2.345371026078683 72.000000000000000
6.708047592380816 -1.586174041356212 -2.498874428394038 59.000000000000000
9.140034149119348 -3.097524458970075 -1.560542847541920 32.000000000000000
9.137787277527996 -3.022644754857597 -1.713078619497453 120.000000000000000
9.144069464153207 -2.950555139971103 -1.866858859349299 118.000000000000000
9.143543536251268 -2.876859458359803 -2.020125554890927 119.000000000000000
9.140651344544601 -2.801008322186304 -2.172846376649312 120.000000000000000
6.736372899600674 -2.009895682901795 -1.715020554214533 1.000000000000000
6.653962479633859 -1.930783472833831 -1.806227699006012 99.000000000000000
6.633073765618266 -1.869466553911675 -1.912728737608212 92.000000000000000
6.580910241426662 -1.798893521109085 -2.009016300082559 72.000000000000000
6.563103478069076 -1.740226071946231 -2.116088361736387 108.000000000000000
6.565733137619075 -1.685813009499971 -2.229726185559882 89.000000000000000
6.620934124459259 -1.644593775755155 -2.363671430702309 93.000000000000000
6.670776704307873 -1.598326301311606 -2.497216689796649 52.000000000000000
9.141791434873545 -3.053443196616468 -1.728409096918123 116.000000000000000
9.144315183883240 -2.980057152787923 -1.881690512257512 116.000000000000000
9.143766714481609 -2.906292949872063 -2.035154923012521 120.000000000000000
9.137131041470026 -2.829210735212422 -2.187177849824673 119.000000000000000
9.138407412935676 -2.755805155573814 -2.341929097926552 100.000000000000000
6.668235848219090 -1.956207858990598 -1.821465751791472 106.000000000000000
6.639910896032234 -1.892540007024050 -1.926161886905102 110.000000000000000
6.598864113295630 -1.824769302561112 -2.026032923397276 80.000000000000000
6.555190708885505 -1.758914455476353 -2.125144397083986 106.000000000000000
6.568837981140484 -1.707394505306750 -2.242560050650708 94.000000000000000
6.620262428525682 -1.665329129932880 -2.375455380858210 81.000000000000000
6.640811353586372 -1.612063042656519 -2.498210021711412 58.000000000000000
6.767337893204849 -1.584810740181022 -2.665454699859040 2.000000000000000
9.138209853519077 -3.081781748781284 -1.742338063042134 57.000000000000000
9.144443784822693 -3.009593902004206 -1.896532734027214 116.000000000000000
9.143872678777155 -2.935761152828497 -2.050194841437219 118.000000000000000
9.140943229344551 -2.859754572132271 -2.203303126006178 120.000000000000000
9.138466927750610 -2.785119785214814 -2.357356568789132 114.000000000000000
6.660139421010997 -1.975139384453146 -1.830634672641527 73.000000000000000
6.620740721559981 -1.908210416636234 -1.932061413029714 98.000000000000000
6.612997527289444 -1.849738843103069 -2.041966188843344 91.000000000000000
6.554577541956467 -1.779581716434570 -2.136586567638131 105.000000000000000
6.564507924090400 -1.727086332245749 -2.252889814332756 121.000000000000000
6.630484682643246 -1.688881587907686 -2.391203850628319 65.000000000000000
6.621772124605390 -1.628343592773043 -2.503263284929095 83.000000000000000
6.722755073710974 -1.595543264416729 -2.660455207340980 39.000000000000000
9.144455045162561 -3.039165026673272 -1.911385326836796 116.000000000000000
9.143861207410621 -2.965263706000855 -2.065245112204674 118.000000000000000
9.140913046048256 -2.889179368755188 -2.218547105595040 118.000000000000000
9.138408890037139 -2.814468682622794 -2.372794342758278 115.000000000000000
6.711237437489954 -2.011814125422301 -1.856178865945998 91.000000000000000
6.653279793340656 -1.938876795527165 -1.953106439314364 89.000000000000000
6.619635563857563 -1.872726894189965 -2.055655365446688 102.000000000000000
6.557559091331564 -1.801280343403624 -2.149239839608987 96.000000000000000
6.563770534199696 -1.747754594632922 -2.264480128265945 116.000000000000000
6.669833724754342 -1.720057369342104 -2.417585723464950 86.000000000000000
6.628186790112319 -1.650890060244617 -2.517955894047010 64.000000000000000
6.674566902698330 -1.605174083816696 -2.653897666084214 39.000000000000000
9.144348744520260 -3.068770164884551 -1.926248092459841 92.000000000000000
9.147447533995228 -2.996017150995292 -2.081150845985618 116.000000000000000
9.137053919245162 -2.917453137196544 -2.232894280764022 121.000000000000000
9.138233079861887 -2.843851485288473 -2.388242221329424 115.000000000000000
6.710334310264153 -2.033113025502785 -1.867458398471742 39.000000000000000
6.693036060720152 -1.971928419761840 -1.976428748332519 90.000000000000000
6.626171549191434 -1.895777687911323 -2.069370329038182 96.000000000000000
6.567794800364157 -1.825062236962758 -2.164329755726247 67.000000000000000
6.566612130082597 -1.769430438855087 -2.277346055193451 107.000000000000000
6.661546695554948 -1.739094965108230 -2.426797133111082 56.000000000000000
6.659960717663944 -1.679920884265303 -2.542393569411003 57.000000000000000
6.637279962992175 -1.617203243079431 -2.651556592538793 63.000000000000000
6.771731420776992 -1.590320021983581 -2.825703415530327 0.000000000000000
9.140410559693748 -3.097150461097798 -1.940332399760587 0.000000000000000
9.147195907906594 -3.025597836323360 -2.096226312975819 116.000000000000000
9.144205936684076 -2.949326004759696 -2.249977312143375 120.000000000000000
9.137939278724271 -2.873267829744320 -2.403700005596471 115.000000000000000
6.701957207771727 -2.052169643807891 -1.876674009579179 0.000000000000000
6.695735775295333 -1.994249815043158 -1.988915810845333 96.000000000000000
6.643641074196046 -1.922083725574724 -2.086576964584815 67.000000000000000
6.596262841895490 -1.854083465063971 -2.185533121507246 71.000000000000000
6.562045492524417 -1.789153044963631 -2.287677061068134 94.000000000000000
6.660484550130627 -1.760037584309629 -2.438663006503514 59.000000000000000
6.680670020606861 -1.706375187351558 -2.562746143447618 66.000000000000000
6.628946694108310 -1.636189800184623 -2.660739119951880 80.000000000000000
6.727192084219127 -1.601135782472790 -2.819977813406476 49.000000000000000
9.143119983503221 -3.053973840100894 -2.110456052905022 115.000000000000000
9.143817305598011 -2.978862111341358 -2.265256189366058 115.000000000000000
9.144920090976349 -2.905065828390504 -2.421124751510115 114.000000000000000
9.143620229393497 -2.829351901154174 -2.576183401868218 114.000000000000000
6.694658925482821 -2.015503585179516 -2.000317767151440 91.000000000000000
6.672002025971976 -1.951738901427828 -2.107320627260869 100.000000000000000
6.609916951620663 -1.879125644614101 -2.201940213636926 96.000000000000000
6.612201666780488 -1.823990937664789 -2.317206546068357 73.000000000000000
6.681183578217636 -1.786842510040580 -2.458572723851557 90.000000000000000
6.712124020589408 -1.735788535551190 -2.587359521225401 56.000000000000000
6.638616501566842 -1.659671893191009 -2.677193334833362 41.000000000000000
6.715064370475302 -1.619534151436117 -2.827775739464720 71.000000000000000
9.138935108529317 -3.082361737477326 -2.124685200547604 28.000000000000000
9.147007529196973 -3.009647588683221 -2.281466776603855 117.000000000000000
9.144380268536851 -2.934569139682152 -2.436611883090746 114.000000000000000
9.143051292869794 -2.858780692633803 -2.591864581218735 113.000000000000000
6.704530303633307 -2.040134454856161 -2.015040648168524 69.000000000000000
6.667179630608342 -1.971814449629384 -2.117660867427537 105.000000000000000
6.634427703080858 -1.907427536404531 -2.222069586209888 79.000000000000000
6.643901133152578 -1.854049786325140 -2.340455751071055 90.000000000000000
6.643560860696600 -1.798045264857649 -2.457029978600836 64.000000000000000
6.739786061453252 -1.764459245631727 -2.610664171498353 80.000000000000000
6.713139950914235 -1.699683945349343 -2.720004868628164 26.000000000000000
6.699284758155694 -1.637011347193102 -2.834027801258103 48.000000000000000
6.776156768407882 -1.595612404502025 -2.988895532560367 30.000000000000000
9.150069673834459 -3.040486522570081 -2.297696818565209 114.000000000000000
9.143721735255513 -2.964104872048982 -2.452108304237675 114.000000000000000
9.142363588167612 -2.888241833810244 -2.607555010191632 113.000000000000000
6.699596112644075 -2.060329320956056 -2.025357009678335 2.000000000000000
6.654952465750997 -1.989697339793728 -2.125654763740453 67.000000000000000
6.662442856295836 -1.936957559713548 -2.243504980707888 117.000000000000000
6.660856466300475 -1.880201268250359 -2.358639083499827 50.000000000000000
6.627736535946587 -1.815026738181807 -2.463490683920651 84.000000000000000
6.709385989026299 -1.777970778452508 -2.611515950789228 59.000000000000000
6.837846883778688 -1.753086745003447 -2.783573397360180 0.000000000000000
6.658330979608295 -1.648205207970721 -2.829566779280289 51.000000000000000
6.760255779153210 -1.613338620785332 -2.995113402712506 70.000000000000000
9.879686125273787 -4.213022033364193 -0.647956335303901 19.000000000000000
9.138252404362690 -3.066428664086061 -2.310216925362402 51.000000000000000
9.146626495284973 -2.994878325629684 -2.468607617752253 112.000000000000000
9.141556902991043 -2.917734957081924 -2.623254488149968 113.000000000000000
9.144987958750264 -2.842050748754315 -2.780778088200802 71.000000000000000
6.682927343320843 -2.019703804144016 -2.146554138013018 2.000000000000000
6.657448121857778 -1.957017180132928 -2.253904226323048 113.000000000000000
6.717709276924709 -1.917904323379758 -2.391125483340627 40.000000000000000
6.637253474793497 -1.838978623941015 -2.479399913694777 56.000000000000000
6.678975340559369 -1.791335388842189 -2.612292082612786 52.000000000000000
6.800145748549954 -1.765179849570054 -2.781239633176155 39.000000000000000
6.663995946341586 -1.670875740520360 -2.844895127572093 50.000000000000000
6.747874206332030 -1.631863857718715 -3.002883621686038 78.000000000000000
9.789914558787581 -4.207613566023579 -0.656153191452481 22.000000000000000
9.145725099676003 -3.024488248333667 -2.484127057307630 111.000000000000000
9.144301962654742 -2.948443332343327 -2.640022638491722 113.000000000000000
9.144026416468366 -2.871512395090511 -2.796686156823864 112.000000000000000
6.655914274293282 -2.033148529611030 -2.149829814147954 0.000000000000000
6.652377756131561 -1.977074925299596 -2.264297888855967 31.000000000000000
6.687101241345300 -1.930774439403182 -2.392569132155947 0.000000000000000
6.672012059189755 -1.870118343502890 -2.504862563758838 31.000000000000000
6.648554850512165 -1.804553109133152 -2.612992628395464 70.000000000000000
6.766047307995468 -1.778029501664561 -2.780287560159514 58.000000000000000
6.687456879984587 -1.698151057355603 -2.867923894518275 42.000000000000000
6.735434547672594 -1.650345504116049 -3.010628035985584 87.000000000000000
9.714900028924331 -4.208086749733739 -0.665122044982218 20.000000000000000
9.141031751310598 -3.052902916280809 -2.498651297259311 80.000000000000000
9.146917948067999 -2.979203814162950 -2.656809493544551 113.000000000000000
9.146604025405754 -2.902166054820186 -2.813728308255911 118.000000000000000
9.165818139012851 -2.829667803552993 -2.977027706300122 2.000000000000000
6.625389792125078 -1.990568257477669 -2.267211528447914 0.000000000000000
6.721059070695433 -1.905585960484188 -2.535888624413188 1.000000000000000
6.636148469801591 -1.822573930689196 -2.620735346028312 79.000000000000000
6.724767100950359 -1.788801540355809 -2.776285375676713 41.000000000000000
7.157673610792838 -1.840504659981284 -3.083555590215130 10.000000000000000
6.719378005084138 -1.667899984212754 -3.016748724613071 84.000000000000000
9.643611930325347 -4.209774265811381 -0.674155448097010 20.000000000000000
9.827071365784784 -4.206856777133938 -0.857438294255085 1.000000000000000
9.132560872644763 -3.080090680546109 -2.512165063655437 0.000000000000000
9.145743316126346 -3.008811505836361 -2.672544951516621 114.000000000000000
9.145398428115508 -2.931700032557699 -2.829658373394853 118.000000000000000
9.219238078579609 -2.876240973701709 -3.011036883146261 10.000000000000000
6.641684717923284 -1.845552514102702 -2.635594814343340 20.000000000000000
6.676334770212632 -1.797434366344063 -2.769203447696678 58.000000000000000
6.823184142157776 -1.776425626687959 -2.952830194077024 26.000000000000000
6.724598661794069 -1.690751937694636 -3.032450283678076 71.000000000000000
9.416161475322237 -4.222326641245770 -0.508020477228575 22.000000000000000
9.572384096362438 -4.211099974876610 -0.683007842781981 21.000000000000000
9.748155983984983 -4.206013014812421 -0.864877697207116 0.000000000000000
9.148105113623807 -3.039664568185220 -2.689363520056241 108.000000000000000
9.151370634505932 -2.963627741854533 -2.847867643977274 117.000000000000000
9.239626403721855 -2.912826671253578 -3.034443722147393 13.000000000000000
6.636331206148895 -1.865558382995950 -2.646177628566889 0.000000000000000
6.667329951666527 -1.816549209190727 -2.778410388369396 59.000000000000000
6.728399525704988 -1.773426371069871 -2.925047474638120 75.000000000000000
6.729713848237003 -1.713661832356790 -3.048174969579450 60.000000000000000
9.345344858100580 -4.222387411191152 -0.517492060796623 20.000000000000000
9.501218366740357 -4.212064220033467 -0.691679516705218 33.000000000000000
9.676632222421443 -4.207944443718024 -0.872775108821081 0.000000000000000
9.849355362045928 -4.200798297036933 -1.058816612897961 0.000000000000000
9.834539544942599 -3.947659957115731 -1.563571809014605 0.000000000000000
9.143034184704652 -3.068117947033919 -2.704040340011684 18.000000000000000
9.149915074377207 -2.993242895904886 -2.863823859422870 114.000000000000000
9.245292316339350 -2.944934248413531 -3.053115827799137 13.000000000000000
6.740503510580981 -1.858314769715128 -2.822034486058607 44.000000000000000
6.729921630700581 -1.795563202146524 -2.938997725709521 91.000000000000000
6.780802913408837 -1.748511527349640 -3.084886268281484 41.000000000000000
9.278228993785230 -4.223743791462421 -0.526990628916460 20.000000000000000
9.437404149787229 -4.215922890102808 -0.700711851109985 25.000000000000000
9.605171026243358 -4.209513135957801 -0.880491178157850 0.000000000000000
9.770242682343417 -4.200185846557264 -1.064960460531259 0.000000000000000
9.826943843965566 -4.141724340187390 -1.240560428776688 1.000000000000000
9.810954264111070 -4.052836938376070 -1.407463384410165 1.000000000000000
9.791892635059517 -3.963511327272928 -1.572201190066448 1.000000000000000
9.810118014701965 -3.889470784754802 -1.742990978794432 0.000000000000000
9.148339094518567 -3.022887670017014 -2.879787830060108 114.000000000000000
9.239925175861710 -2.973607231582551 -3.068198620812684 13.000000000000000
6.809813965843864 -1.899531428408938 -2.864366963760850 24.000000000000000
6.724235481558478 -1.815816696665341 -2.949841167361625 96.000000000000000
6.771483944795460 -1.767971770419893 -3.094250313787764 35.000000000000000
9.211170167381566 -4.224761442914674 -0.536319772152176 18.000000000000000
9.373635903819368 -4.219461684195327 -0.709583707701921 24.000000000000000
9.533774238368336 -4.210719444820634 -0.888026198281148 0.000000000000000
9.716773795060318 -4.210243814696811 -1.073727170391228 0.000000000000000
9.744084543547618 -4.139859913346331 -1.244980444049024 1.000000000000000
9.735356868491849 -4.054558727781031 -1.411729494656563 1.000000000000000
9.712605680380234 -3.964214192274770 -1.574789108170660 1.000000000000000
9.760079923673249 -3.902511073710953 -1.749738038414253 0.000000000000000
9.866822824564082 -3.863849798538179 -1.937125727204542 0.000000000000000
9.146642493518435 -3.052561689625114 -2.895759352362681 52.000000000000000
9.227195200985358 -2.999930830630054 -3.080857629678471 10.000000000000000
6.714921392359858 -1.835095814177213 -2.959113050766603 99.000000000000000
6.733818791557285 -1.779932697885628 -3.090618720170376 65.000000000000000
9.147795859326298 -4.227116125181817 -0.545696051223113 20.000000000000000
9.306281402066936 -4.221032690470715 -0.718014966083973 24.000000000000000
9.455162096053215 -4.208322819499317 -0.894691446388033 0.000000000000000
9.630500896981824 -4.205708702281802 -1.078685674690899 0.000000000000000
9.661320017788567 -4.137569237181055 -1.249188665258733 1.000000000000000
9.648869895815688 -4.051291000985419 -1.414196223639536 1.000000000000000
9.633404204082289 -3.964510065106416 -1.577174493973187 1.000000000000000
9.684435976411988 -3.904982483883120 -1.751729322510512 0.000000000000000
9.842239565368953 -3.887395094153425 -1.948353078843211 30.000000000000000
9.152823843201363 -3.006006453919545 -3.072830111528889 2.000000000000000
6.716178346208267 -1.857292254637249 -2.973077513753663 49.000000000000000
6.706754736788044 -1.794540035055175 -3.091774080225673 79.000000000000000
9.077230502651723 -4.225781874366542 -0.554470875704327 19.000000000000000
9.235357330427203 -4.220605617720216 -0.725991183825998 24.000000000000000
9.402088543471198 -4.216938399550563 -0.903602542672164 0.000000000000000
9.558900958060347 -4.207139242104566 -1.085076896600782 0.000000000000000
9.575006206556528 -4.133278811235866 -1.252708430957737 1.000000000000000
9.566140154541751 -4.049120999665904 -1.416981888990996 1.000000000000000
9.565247032984017 -3.968945720749321 -1.581168891591321 2.000000000000000
9.597908390437023 -3.902610550109991 -1.751527739702900 0.000000000000000
9.762783848712141 -3.889010467314873 -1.948587464919321 19.000000000000000
9.862428074303635 -3.847429909729665 -2.137708017692100 0.000000000000000
9.150843687752884 -3.035685545452727 -3.089020730173655 1.000000000000000
6.816487277411447 -1.907267052325120 -3.031143940495554 14.000000000000000
6.679673243532789 -1.809021221820824 -3.092863976742924 64.000000000000000
9.017584519383171 -4.229176808747932 -0.563745471050242 19.000000000000000
9.168128117683885 -4.221487404377303 -0.734078274040250 25.000000000000000
9.327250106423287 -4.215449488628573 -0.910256590774212 1.000000000000000
9.483733221814280 -4.206594032295177 -1.090868839464534 0.000000000000000
9.547059887272210 -4.153890504894124 -1.263718790787073 3.000000000000000
9.549114513073338 -4.074517815964732 -1.429376291813358 3.000000000000000
9.551855881319149 -3.995923245224748 -1.594121275430858 3.000000000000000
9.555271849396505 -3.917741228960930 -1.759164445704377 2.000000000000000
9.690713142016229 -3.893149583910115 -1.950087463796029 17.000000000000000
9.368804841715198 -3.220112783764901 -3.017135313121981 9.000000000000000
6.663134576620213 -1.826270512557911 -3.098799385053769 53.000000000000000
8.957982126629679 -4.232274897477827 -0.572871199452574 21.000000000000000
9.108198982773095 -4.225387676035984 -0.742586208742359 25.000000000000000
9.266995876900850 -4.220183595901093 -0.918157848297323 1.000000000000000
9.419540011331609 -4.210535506129533 -1.097739826436744 0.000000000000000
9.548148979461743 -4.187140848815094 -1.278561135881910 4.000000000000000
9.550203257316792 -4.107685930992977 -1.444489541761409 3.000000000000000
9.549296917440966 -4.027473528968550 -1.608890722208946 3.000000000000000
9.556343044652536 -3.950745919404393 -1.774817819729853 2.000000000000000
9.593207494370512 -3.886589813231198 -1.946230611628766 23.000000000000000
9.772715256341709 -3.878622366930010 -2.150848449616158 18.000000000000000
9.315709424787492 -3.232992123825221 -3.017062120707755 28.000000000000000
8.891213782603588 -4.231644422044112 -0.581376777505725 21.000000000000000
9.041086695942472 -4.225612132065018 -0.750344897894912 25.000000000000000
9.199543422840469 -4.221295720713428 -0.925180657795615 1.000000000000000
9.348146246665047 -4.210889020252914 -1.103593861017530 1.000000000000000
9.520056627123273 -4.207599720418065 -1.289484551712069 1.000000000000000
9.554791446716534 -4.142476219952881 -1.460173680381011 3.000000000000000
9.553886807622202 -4.062142463876167 -1.624902911043142 2.000000000000000
9.557278930929265 -3.983797269291909 -1.790486736504322 2.000000000000000
9.557696006685598 -3.904789003397076 -1.954772079485333 53.000000000000000
9.696929406896103 -3.881525231073494 -2.150399488051793 13.000000000000000
9.858658349381264 -3.864768892684566 -2.355742124323632 8.000000000000000
9.262635490437454 -3.245609866669249 -3.016856702706932 20.000000000000000
8.828112991472652 -4.232403324407077 -0.589955175703797 22.000000000000000
8.977648885306527 -4.227197306833479 -0.758239685887146 26.000000000000000
9.128540589782121 -4.220396554193127 -0.931664975221795 1.000000000000000
9.287689360227304 -4.215811654940858 -1.110566719285838 1.000000000000000
9.441153592919648 -4.205331668115083 -1.293391045294814 1.000000000000000
9.555604810137629 -4.175747125659042 -1.475322559654283 3.000000000000000
9.554699288392390 -4.095321526775738 -1.640316768408215 2.000000000000000
9.554446344005450 -4.015368092227507 -1.805484462254405 4.000000000000000
9.551217240033523 -3.934802163238870 -1.969222478506965 54.000000000000000
9.610329410032444 -3.879642582783212 -2.147323464343614 23.000000000000000
9.840821925843642 -3.891262098400252 -2.368256553962992 32.000000000000000
9.249218712852263 -3.271987183136468 -3.029501126458645 14.000000000000000
8.768665909733819 -4.234582250106207 -0.598621191203105 23.000000000000000
8.917871667001126 -4.230173943279151 -0.766285417126440 26.000000000000000
9.064834889660936 -4.222500788158094 -0.938718017931951 1.000000000000000
9.220045618878913 -4.217126586658503 -1.116513384554669 1.000000000000000
9.376827586762055 -4.209160716245734 -1.299103719089347 1.000000000000000
9.541786926211140 -4.202679022132382 -1.488225551357913 2.000000000000000
9.551749728038219 -4.126979506859257 -1.655117301850695 2.000000000000000
9.526095138629254 -4.036205076626537 -1.815647539914676 3.000000000000000
9.555506769547904 -3.969340976571121 -1.985930157089511 52.000000000000000
9.556485673322456 -3.890600444515611 -2.151373923035592 52.000000000000000
9.754029961408628 -3.890229943609604 -2.364044521109109 16.000000000000000
9.253699577459138 -3.304753526299641 -3.048047286467630 14.000000000000000
8.716448451774022 -4.239958044723497 -0.607639832919753 23.000000000000000
8.854545051874801 -4.231134159503430 -0.773867978793967 24.000000000000000
9.008396652360176 -4.227669689427809 -0.946369246562548 1.000000000000000
9.152468994988412 -4.218100965505402 -1.122290310293297 1.000000000000000
9.298096390594869 -4.206126855976753 -1.302629794929378 1.000000000000000
9.462739966105623 -4.200659709243150 -1.490842158314761 1.000000000000000
9.559537858693155 -4.163393446922851 -1.671822638419576 2.000000000000000
9.504937170156836 -4.060018020135404 -1.827139586223976 4.000000000000000
9.498067756146122 -3.978152995980690 -1.989761704382505 18.000000000000000
9.556985825351429 -3.923597196641186 -2.167612274494977 54.000000000000000
9.670972890064711 -3.890205086103278 -2.360493962646292 16.000000000000000
9.254443367020379 -3.336291488160981 -3.065428693125500 15.000000000000000
8.649922286492094 -4.238053346926920 -0.615509761294566 24.000000000000000
8.794871700365352 -4.233506696598826 -0.781611683616321 24.000000000000000
8.948397233886265 -4.230858742968084 -0.953497373686573 1.000000000000000
9.088566355152716 -4.220409261761793 -1.128345368768500 1.000000000000000
9.237513662077147 -4.210918044361741 -1.308513112890630 1.000000000000000
9.391017685096632 -4.201469512723561 -1.494408502336878 1.000000000000000
9.484007095719317 -4.163386128133491 -1.673884511073344 2.000000000000000
8.919459034187774 -3.840783929541677 -1.729197890358555 13.000000000000000
9.418960337274640 -3.977517428793231 -1.988868338652222 5.000000000000000
9.557349250493914 -3.956638965439026 -2.183865243382246 55.000000000000000
9.584408897127066 -3.888286519990777 -2.355843380008427 34.000000000000000
9.251465682514821 -3.366569897466353 -3.081630388402212 13.000000000000000
8.587049298686201 -4.237579718259524 -0.623472913067068 25.000000000000000
8.731662557325471 -4.233843231700845 -0.788883054946291 14.000000000000000
8.884853990761673 -4.232037854944602 -0.960088098646309 1.000000000000000
9.021123800349958 -4.220713790390065 -1.133788550996469 1.000000000000000
9.173374462803295 -4.213753078131557 -1.313729790225201 1.000000000000000
9.322982043237824 -4.203543289423770 -1.498374330868450 1.000000000000000
9.516875366386785 -4.210918608620353 -1.695046823021478 1.000000000000000
8.888159935559223 -3.858144006882684 -1.737720858502624 23.000000000000000
9.415799590854284 -4.008768123040601 -2.003916215953607 4.000000000000000
9.561186380280212 -3.991232577669902 -2.200963769009088 54.000000000000000
9.566529285047997 -3.913972323788454 -2.367943007535656 52.000000000000000
8.531389321571430 -4.240344094886537 -0.631808674155261 25.000000000000000
8.686427328413846 -4.242611035664916 -0.797641440898927 2.000000000000000
8.817784488679786 -4.231177021176474 -0.966127179343543 1.000000000000000
8.960942373567180 -4.224067620771512 -1.139977417652585 1.000000000000000
9.102097355617527 -4.212935945054923 -1.317744456153991 1.000000000000000
9.020848733123737 -4.098874546297218 -1.464162418523526 1.000000000000000
8.799680889988991 -3.924286488597835 -1.581546012536789 20.000000000000000
8.889283157179568 -3.889568245940219 -1.752570629577349 24.000000000000000
9.553160612918207 -4.100411510153974 -2.049137318772215 39.000000000000000
9.546848851914662 -4.018303348137602 -2.213905869959665 42.000000000000000
9.562979085956787 -3.945546451459123 -2.383600260306117 51.000000000000000
8.468636808637754 -4.239261148663515 -0.639468151527377 26.000000000000000
8.609013790613728 -4.235327091922381 -0.803286983245072 1.000000000000000
8.747206501954286 -4.228246328127393 -0.971600432711858 1.000000000000000
8.900813293466799 -4.227122853266979 -1.146017058438811 1.000000000000000
9.030903796659031 -4.211758137911812 -1.321580116081918 1.000000000000000
8.888558211702877 -4.069956774981755 -1.456859899561194 24.000000000000000
8.779218706166471 -3.945889540127273 -1.592108867637792 93.000000000000000
8.890275634623187 -3.921038767854844 -1.767436030357144 22.000000000000000
9.560339963343914 -4.136782446746238 -2.066719810129435 46.000000000000000
9.557616289467672 -4.056030002654641 -2.232709448376019 40.000000000000000
9.562899779892481 -3.978640676039146 -2.400164613250330 47.000000000000000
9.848843925730513 -4.016339657295873 -2.644028949129273 26.000000000000000
9.439717990551678 -3.612406337408643 -3.030997972995838 7.000000000000000
8.416642268351428 -4.243253425879127 -0.647794172839782 28.000000000000000
8.442429116458875 -4.183406297975202 -0.800273927870211 4.000000000000000
8.540751005339780 -4.158752674070206 -0.961588509031514 9.000000000000000
8.833570866031247 -4.226450627423735 -1.150973869709246 0.000000000000000
8.945442715367513 -4.203475645471247 -1.323114176482284 36.000000000000000
8.875065507042825 -4.095022188946707 -1.468829982582320 23.000000000000000
8.769474278085767 -3.972300772022655 -1.604601963908905 65.000000000000000
8.804850261871223 -3.914196347552726 -1.765019778594882 46.000000000000000
9.319277087866670 -4.065024920131125 -2.030288392883189 29.000000000000000
9.564618680913243 -4.092323241167636 -2.250710105394436 54.000000000000000
9.566274726946640 -4.013285197596946 -2.417650465086136 41.000000000000000
9.733311393630744 -4.002960397356444 -2.630220783853300 6.000000000000000
9.335933420890097 -3.604790386150038 -3.014985478012717 23.000000000000000
8.361126732484419 -4.245185403905522 -0.655713847498997 28.000000000000000
8.354676398260979 -4.169741017315165 -0.804379343879761 12.000000000000000
8.484847621580958 -4.161734580980262 -0.968156039089277 21.000000000000000
8.766405686069929 -4.225440086099153 -1.155762703164983 0.000000000000000
8.885191885779294 -4.206626025006154 -1.328180198099151 38.000000000000000
8.951140618969598 -4.161735880023436 -1.495758030016260 22.000000000000000
8.863700522951360 -4.046202957125445 -1.636292965572204 19.000000000000000
8.769814913974219 -3.929429864581492 -1.772543741059841 84.000000000000000
9.549090131529356 -4.198726528865203 -2.096466836306321 34.000000000000000
9.564283139524690 -4.125603883511164 -2.267042263249929 53.000000000000000
9.569500307063944 -4.047992889353413 -2.435159428219693 53.000000000000000
9.589323569202794 -3.977081216012112 -2.608316408408960 21.000000000000000
9.292976570318704 -3.620252920135643 -3.018402765993470 23.000000000000000
8.171543147093017 -4.248934332370460 -0.504594524743130 26.000000000000000
8.305660324642904 -4.246843823356397 -0.663496881433769 29.000000000000000
8.299114412992241 -4.171728057132512 -0.811394464732085 18.000000000000000
8.421858604888813 -4.160916152428863 -0.973760962308953 22.000000000000000
8.699319463243647 -4.224091635901988 -1.160383870938012 1.000000000000000
8.821419873385443 -4.207771362761586 -1.332556781590885 27.000000000000000
8.958819683263252 -4.197047225491809 -1.511425972307732 33.000000000000000
8.885848379158865 -4.087712024667802 -1.654904524734291 8.000000000000000
8.763433535215714 -3.957454549773758 -1.785829264048375 55.000000000000000
8.885558005845384 -3.938203741967367 -1.965824562749988 46.000000000000000
9.345228222069734 -4.063874595268722 -2.231200742058152 43.000000000000000
9.568994924043125 -4.081235855737709 -2.451773650539099 52.000000000000000
9.570866460618427 -4.002803083423516 -2.620321100236468 52.000000000000000
9.260701706490051 -3.639714354577913 -3.025207979708460 12.000000000000000
8.119992977382662 -4.251457463642383 -0.513053098709778 23.000000000000000
8.246697452937113 -4.246402563759500 -0.670854966603991 28.000000000000000
8.240048502412350 -4.171641361745412 -0.817919939154723 21.000000000000000
8.366064689931726 -4.163327031144781 -0.980043690667314 22.000000000000000
8.643015120392457 -4.227640076978635 -1.166281701901995 1.000000000000000
8.754144847483410 -4.206881742966746 -1.336229766908649 33.000000000000000
8.894842361820666 -4.198691595156018 -1.514949585671656 43.000000000000000
9.029430443910670 -4.185772335813565 -1.696440924794324 25.000000000000000
8.796308869281303 -4.003399748990087 -1.807198031757779 11.000000000000000
8.775081280073127 -3.920180498909711 -1.956271296134086 53.000000000000000
9.427243616112412 -4.132693166090695 -2.267052050001285 36.000000000000000
9.568350592781545 -4.114520706487122 -2.468400755449929 52.000000000000000
9.570187543498841 -4.035997807877907 -2.637212178999701 51.000000000000000
9.260396843601436 -3.671726266910636 -3.042455015262351 12.000000000000000
8.068484576287187 -4.253728899423404 -0.521385742445961 21.000000000000000
8.191338955352840 -4.247504786746033 -0.678360674780425 29.000000000000000
8.191693732934187 -4.176689902815143 -0.825372183641273 22.000000000000000
8.306766146030089 -4.163680494713406 -0.985767179972812 22.000000000000000
8.508406827249535 -4.192305277027340 -1.161346514276501 1.000000000000000
8.697649473091577 -4.210833179360469 -1.341384948039464 40.000000000000000
8.820225659263484 -4.194923614525268 -1.516473273080754 46.000000000000000
8.975981705619631 -4.192917965958939 -1.701145305704494 40.000000000000000
8.843244289888814 -4.056127108753812 -1.831628594170043 8.000000000000000
8.761295178341953 -3.945013783644333 -1.968104937450809 32.000000000000000
8.969479972792540 -3.963663813368219 -2.172494923416130 54.000000000000000
9.556857074461769 -4.143203883665693 -2.482258736853904 51.000000000000000
9.569369271041703 -4.069233924642476 -2.654115864272230 50.000000000000000
9.263506045718081 -3.705200788828932 -3.060888572850375 11.000000000000000
8.013492139822789 -4.253876592352112 -0.529359671713981 23.000000000000000
8.139569607833877 -4.250180647873381 -0.686028468556257 27.000000000000000
8.136282946310576 -4.177865617961758 -0.831982389133752 23.000000000000000
8.254632290156417 -4.167324034291112 -0.992197635316012 21.000000000000000
8.381207580061915 -4.159782508056796 -1.157044936714822 20.000000000000000
8.637643042932339 -4.212770509745743 -1.345846683355546 37.000000000000000
8.774224372745099 -4.204438085912402 -1.522757708388011 58.000000000000000
8.911870124039206 -4.194768321543445 -1.703674153361783 43.000000000000000
8.854227474988416 -4.092671850025766 -1.848750104575245 14.000000000000000
9.032820041559090 -4.099331182769927 -2.044512154715290 72.000000000000000
8.776942339829009 -3.909644579821770 -2.141097480916536 43.000000000000000
9.277933789727580 -4.055030090900051 -2.426194459503678 34.000000000000000
8.948797086553411 -3.836847826217749 -2.498065944313983 67.000000000000000
9.262922183752886 -3.737307271838352 -3.078166820301142 10.000000000000000
7.962076638608574 -4.255635527311572 -0.537436377264457 24.000000000000000
8.080783173709261 -4.248891554175882 -0.692964544800208 25.000000000000000
8.080927135084334 -4.178768158490549 -0.838456507544173 23.000000000000000
8.198996565490205 -4.168910761283759 -0.998069328018995 22.000000000000000
8.328841557308438 -4.163855737069313 -1.162824025434157 22.000000000000000
8.591917860066767 -4.221396643607585 -1.352398559302802 19.000000000000000
8.706889667632000 -4.203427821703968 -1.525192074267423 45.000000000000000
8.844269102100579 -4.194610294696896 -1.705357594539003 36.000000000000000
9.011073528641370 -4.197340782785012 -1.896650788782281 0.000000000000000
8.989912105451234 -4.111865954908377 -2.050184066157660 55.000000000000000
8.759361295925860 -3.932915575472976 -2.152060585494308 41.000000000000000
9.038904817773835 -3.982567016603396 -2.379697386956517 70.000000000000000
8.806479266220084 -3.806929507963093 -2.474201821807521 15.000000000000000
9.269279689745765 -3.772336053972836 -3.097823547131651 11.000000000000000
7.914222588729921 -4.259035631748707 -0.545630189351676 24.000000000000000
8.029113258968419 -4.251042842070180 -0.700370637263863 27.000000000000000
8.032692483949340 -4.183076882715862 -0.845538438861241 22.000000000000000
8.143416327980132 -4.170223382060718 -1.003804489380592 22.000000000000000
8.272974136354518 -4.165888780473319 -1.167975003129649 23.000000000000000
8.535563440459475 -4.224536218857831 -1.357147924675102 1.000000000000000
8.650297682218847 -4.207262714360889 -1.529343147023535 42.000000000000000
8.762533052260387 -4.187317969530523 -1.704107605197216 18.000000000000000
8.946813433958578 -4.199454896338991 -1.898210723695552 0.000000000000000
9.544422508753993 -4.399584942868621 -2.193022413217399 40.000000000000000
8.930119563427777 -4.041397456434677 -2.209609735226520 70.000000000000000
8.782742627566007 -3.900902338617921 -2.327861010133589 32.000000000000000
8.881009697436948 -3.870613635826109 -2.511191119008644 57.000000000000000
7.855873416983624 -4.256499064755362 -0.552967058753743 24.000000000000000
7.977489388651365 -4.252942182950214 -0.707650932619688 27.000000000000000
7.977439362216545 -4.183453862639060 -0.851750551117169 23.000000000000000
8.094959700914051 -4.174906825887799 -1.010285323922388 23.000000000000000
8.210084917992097 -4.164057108555061 -1.171978684128140 22.000000000000000
8.475719150656202 -4.225632498407354 -1.361190239313873 1.000000000000000
8.593758227817041 -4.210819868198177 -1.533355653269781 38.000000000000000
8.727066200431217 -4.201820049024645 -1.711700852633300 42.000000000000000
8.900377171790103 -4.209644707373720 -1.903407900991797 0.000000000000000
9.553807493643282 -4.438150732144220 -2.211623035956443 16.000000000000000
8.997264641291592 -4.103941211677919 -2.241984724670452 62.000000000000000
8.768480279220560 -3.925819864202015 -2.339708526025625 45.000000000000000
9.107547889464694 -4.001718864460246 -2.591759551140920 74.000000000000000
9.637534317143428 -4.071977028150755 -3.085676484678080 7.000000000000000
7.808108648288011 -4.259408056648518 -0.560915629562652 25.000000000000000
7.922399564164877 -4.252703951393424 -0.714488801537802 26.000000000000000
7.922245256129848 -4.183558585594059 -0.857827291842810 23.000000000000000
8.043010722982560 -4.177524308404824 -1.016203307746213 18.000000000000000
8.161408259430058 -4.169130151119845 -1.177866293740618 23.000000000000000
8.281512612981325 -4.158923163619454 -1.343280670649581 8.000000000000000
8.530190760102935 -4.210603863391623 -1.535954654879504 32.000000000000000
8.663236912002263 -4.202413864873159 -1.713605530699311 40.000000000000000
8.822057615500691 -4.204412461865000 -1.901618068724765 0.000000000000000
9.513394794664398 -4.453585770747203 -2.218690889567628 17.000000000000000
9.563676507478782 -4.396594159596079 -2.399930719021724 42.000000000000000
8.846205683778816 -3.992252107093261 -2.376264318986589 31.000000000000000
8.791896960182811 -3.894379929627319 -2.517926290669395 23.000000000000000
9.371198589941727 -3.992678239994531 -3.018034701548069 16.000000000000000
7.756883004410996 -4.260165061479978 -0.568492484405125 24.000000000000000
7.877892343213892 -4.257881887828455 -0.722156532916725 26.000000000000000
7.877657257581334 -4.188999140678018 -0.864926778100307 23.000000000000000
7.984066011150378 -4.176204116230942 -1.021094074593047 5.000000000000000
8.102185269420747 -4.168524347642756 -1.182092476539359 23.000000000000000
8.225554795695235 -4.160834523182092 -1.347427316670978 21.000000000000000
8.502053417107446 -4.227649345660381 -1.544819958049783 1.000000000000000
8.599485030171023 -4.202689491918917 -1.715352514901470 40.000000000000000
8.768630638027387 -4.210675202252379 -1.905013142995163 0.000000000000000
9.441122053606994 -4.453814657352604 -2.218182446699718 14.000000000000000
9.554997786104408 -4.426981935519740 -2.414594013518996 21.000000000000000
8.951824940540739 -4.072034539061670 -2.420691832225163 62.000000000000000
8.773849517627744 -3.917777954081837 -2.528769768985252 48.000000000000000
8.819925690281950 -3.863131563542272 -2.699097134352135 0.000000000000000
9.309900245034836 -3.999683108650780 -3.015870762793708 21.000000000000000
7.709201024914674 -4.262603687236116 -0.576206007444879 25.000000000000000
7.822906642084866 -4.257131289991706 -0.728739218786819 27.000000000000000
7.822567908045265 -4.188589971439665 -0.870747595561083 22.000000000000000
7.925193786411786 -4.174591239517970 -1.025839866041398 3.000000000000000
8.050076852662338 -4.171274036202385 -1.187211683371548 24.000000000000000
8.169656005791024 -4.162470719364220 -1.351437108221518 21.000000000000000
8.435056885891296 -4.225131512200969 -1.546505427208119 1.000000000000000
8.560533166243122 -4.214818844554918 -1.721914637035246 9.000000000000000
8.697582406391923 -4.208132931828620 -1.904411066991877 0.000000000000000
9.372476414458808 -4.455360550419397 -2.218330955060571 12.000000000000000
9.525011312000531 -4.447473609245792 -2.423856844230714 28.000000000000000
9.547572298351133 -4.377398835509485 -2.598969534765323 40.000000000000000
8.752200932121649 -3.939530017360035 -2.538555905645599 17.000000000000000
8.731275111116060 -3.855554815654716 -2.688231388382877 12.000000000000000
9.266245074961757 -4.014002640389259 -3.019285513775575 14.000000000000000
7.658072037585543 -4.262871216701003 -0.583538907848061 25.000000000000000
7.767983596504560 -4.256110191298669 -0.735187652208387 28.000000000000000
7.774548817869128 -4.191687488444353 -0.877224417004459 22.000000000000000
7.876926169635628 -4.178271983663265 -1.031820405227594 3.000000000000000
7.994502512109742 -4.171935241651816 -1.191680294095116 23.000000000000000
8.113817621409952 -4.163832081550555 -1.355310297735448 21.000000000000000
8.234263050052524 -4.154720889747974 -1.523256495417457 8.000000000000000
8.503951043265975 -4.218026722498841 -1.724810488726569 1.000000000000000
8.637217326740618 -4.210389825483834 -1.905967042766951 0.000000000000000
9.314495759060058 -4.461632696172002 -2.220832825518646 12.000000000000000
9.438565355448638 -4.441298003479078 -2.418598783431732 20.000000000000000
9.559777742184250 -4.417523514373348 -2.619549487983974 50.000000000000000
8.631919500118672 -3.916479861012014 -2.519526789251964 2.000000000000000
8.491589726549766 -3.780210097967863 -2.630307117272864 9.000000000000000
9.271742217132074 -4.049587565394367 -3.038705778658757 17.000000000000000
7.613959035163715 -4.266791492648986 -0.591288566697384 26.000000000000000
7.720104765743321 -4.258669445764687 -0.742173131861790 27.000000000000000
7.719575120945529 -4.190755736188387 -0.882785541161012 22.000000000000000
7.828698728137640 -4.181720078321802 -1.037684639289030 1.000000000000000
7.938990908971971 -4.172323069818129 -1.196013189025860 23.000000000000000
8.058041018711107 -4.164918944195434 -1.359047140113709 21.000000000000000
