# This PCD file was generated using the MATLAB® pcwrite function
# from Computer Vision Toolbox®.
# .PCD v.7 - Point Cloud Data file format
VERSION .7
FIELDS x y z intensity
SIZE 8 8 8 8
TYPE F F F F
COUNT 1 1 1 1
WIDTH 629
HEIGHT 1
VIEWPOINT 0 0 0 1 0 0 0
POINTS 629
DATA ascii
-4.429703784066131 -7.761027793938249 -2.771084258399265 41.000000000000000
-4.480389805449213 -7.760111381554993 -2.944384916597591 80.000000000000000
-3.084143339464390 -5.158262401766810 -2.313868807032140 1.000000000000000
-3.214039963351079 -4.937533178353465 -3.097264797630472 19.000000000000000
-2.848308656899383 -5.554786943089203 -0.819204377379504 8.000000000000000
-2.876871078812240 -5.545527592264402 -0.928758590446340 34.000000000000000
-2.917436313734669 -5.558995808286133 -1.042414005450557 4.000000000000000
-2.946044390516088 -5.549409002906283 -1.153874415857890 20.000000000000000
-2.974077267512546 -5.537842401601462 -1.265270699056164 3.000000000000000
-3.013770846278566 -5.548807726163838 -1.382466673806602 31.000000000000000
-3.041662136224485 -5.536921885793594 -1.495610738019163 5.000000000000000
-3.070874345411496 -5.526378720709068 -1.609796567889102 0.000000000000000
-4.384429085643204 -7.801680736035562 -2.440232629471520 20.000000000000000
-4.414826239585310 -7.766659033637085 -2.598602072171204 86.000000000000000
-4.461032308263682 -7.759027453736021 -2.766967241728445 74.000000000000000
-4.513892530628960 -7.761203160516926 -2.941632832818222 79.000000000000000
-3.101840193511249 -5.150015659495115 -2.308576643924388 2.000000000000000
-2.932767024843999 -4.304989571374888 -3.073149259040494 8.000000000000000
-2.866802563119033 -5.550469256287459 -0.814698778139437 29.000000000000000
-2.893675061269595 -5.537624531652738 -0.923696479491067 5.000000000000000
-2.936284252459900 -5.554487547900623 -1.037943576969830 24.000000000000000
-2.959469069017635 -5.534410971844249 -1.147274171354817 13.000000000000000
-3.002535860587826 -5.550422263367546 -1.264787375094325 11.000000000000000
-3.031230529166055 -5.540598772540218 -1.377208306966497 14.000000000000000
-3.063019744124271 -5.535467040119737 -1.492151029505031 4.000000000000000
-4.412279097418449 -7.882926711287864 -2.292086305301023 7.000000000000000
-4.417291249402752 -7.803248384444386 -2.436825120646938 29.000000000000000
-4.447845924574374 -7.768067871902191 -2.595416762057321 40.000000000000000
-4.496213468410578 -7.763539198005010 -2.765152358826371 81.000000000000000
-4.547438004554520 -7.762180292667460 -2.938819609785211 79.000000000000000
-3.119506371257552 -5.141718609370517 -2.303260676027890 0.000000000000000
-2.921856755885430 -4.257507575665852 -3.039810247570484 6.000000000000000
-2.879796162576786 -5.535536854063853 -0.808622161030034 30.000000000000000
-2.928881893615338 -5.564693794848020 -0.924429458007578 9.000000000000000
-2.953268726451383 -5.546436887867424 -1.032795080481965 29.000000000000000
-2.993348895851726 -5.557497038948827 -1.148540399715338 3.000000000000000
-3.023585917078833 -5.549113849828254 -1.261110496224184 32.000000000000000
-3.052432784381689 -5.539187134965249 -1.373624395774674 4.000000000000000
-5.126115698751304 -9.197159393408381 -2.474076178143158 31.000000000000000
-4.447073239527342 -7.887845164463672 -2.289331401026697 19.000000000000000
-4.452108675711594 -7.808057011991379 -2.434403014528571 29.000000000000000
-4.477068733940873 -7.762705720408716 -2.589949700265017 37.000000000000000
-4.527605754157192 -7.761321106262856 -2.760920285050148 81.000000000000000
-4.579092820763722 -7.759766978822335 -2.934706352125989 76.000000000000000
-2.918460091550787 -4.221470313599630 -3.014644769358806 6.000000000000000
-2.911131427639829 -5.555717793475870 -0.807644482593241 3.000000000000000
-2.943879163669334 -5.553147661459002 -0.918711336463170 28.000000000000000
-2.973954716689059 -5.545295644893557 -1.028914745645845 5.000000000000000
-3.014253002032084 -5.556224936896998 -1.144735467409193 25.000000000000000
-3.042760862380746 -5.544296364537225 -1.256617744798831 6.000000000000000
-3.071750098528216 -5.534287037898436 -1.369158250291485 1.000000000000000
-5.162941245612553 -9.196803103042223 -2.468820442686281 30.000000000000000
-4.485761867529702 -7.899385916627746 -2.288463809632929 17.000000000000000
-4.488913444270372 -7.816090825668451 -2.432956287061113 28.000000000000000
-4.512082516618948 -7.767221395708609 -2.587757166595816 31.000000000000000
-4.560955866634641 -7.762296495075485 -2.757805414663965 81.000000000000000
-4.610767598138383 -7.757248920755994 -2.930538404011649 60.000000000000000
-3.310339937710529 -4.938677565078970 -3.097536021579782 1.000000000000000
-3.207237568969958 -4.724747294783478 -3.096515166541878 3.000000000000000
-2.928623759010032 -4.205312947460076 -3.003682055758666 6.000000000000000
-2.933346523762927 -5.558225453741421 -0.804054710146604 33.000000000000000
-2.960689773324019 -5.545055648415124 -0.913552364188335 27.000000000000000
-3.002158539691029 -5.557980669342347 -1.027567507162920 7.000000000000000
-3.027619197614400 -5.541065396777129 -1.138056353119586 25.000000000000000
-3.060028276456946 -5.535985173270324 -1.251318947596930 4.000000000000000
-5.140314976939984 -9.195066110703888 -2.269382549864914 30.000000000000000
-5.201718567133784 -9.199713261826989 -2.464407403109373 26.000000000000000
-4.530335454455707 -7.920885149117571 -2.290437321689972 22.000000000000000
-4.521935205969215 -7.817303092074781 -2.429357602259127 24.000000000000000
-4.543276750876349 -7.764976017354632 -2.583289340134751 54.000000000000000
-4.594347593949177 -7.763157256559619 -2.754629484322555 80.000000000000000
-4.648326070331380 -7.764421277807848 -2.930012109975380 18.000000000000000
-3.322582081479203 -4.921107567949004 -3.086423920414750 5.000000000000000
-2.940677159761719 -4.191967615163645 -2.994736942616991 7.000000000000000
-2.948145436583284 -5.546639606622765 -0.798405635624413 26.000000000000000
-2.983095277276094 -5.547375994077517 -0.910086889821811 3.000000000000000
-3.021024608436690 -5.553212775542737 -1.022963432762319 49.000000000000000
-3.048504927496825 -5.539675224742931 -1.134192272675554 4.000000000000000
-3.077264826822385 -5.527624873170380 -1.245996969141556 0.000000000000000
-5.176891560924711 -9.194682790594420 -2.263816721109132 29.000000000000000
-5.248263697992860 -9.216031260967123 -2.463542155760096 26.000000000000000
-4.582827394034863 -7.955657753887729 -2.296192234872704 19.000000000000000
-4.556943233251119 -7.821739858017842 -2.426734011469300 16.000000000000000
-4.576443101216359 -7.765940094198271 -2.579868018843781 65.000000000000000
-4.621902660292982 -7.754042129261801 -2.747897824958156 35.000000000000000
-4.680072093419622 -7.761677460659321 -2.925724559333626 61.000000000000000
-2.956646305650557 -4.184240507852045 -2.989815712670762 7.000000000000000
-2.966639106227820 -5.542014126274993 -0.793742929145349 16.000000000000000
-3.009304913198175 -5.556580808856637 -0.907716725662502 22.000000000000000
-3.034188627242784 -5.537995995225012 -1.016423007995330 16.000000000000000
-3.067493596316408 -5.534771489373303 -1.129589127505336 2.000000000000000
-5.152331514625479 -9.189562361958743 -2.065700742863882 30.000000000000000
-5.217360784126432 -9.200980861912248 -2.259856992595820 23.000000000000000
-5.285255463502551 -9.215269222561137 -2.458069128652383 29.000000000000000
-4.631679759699352 -7.983496407482956 -2.299885152632212 14.000000000000000
-4.593969427528028 -7.829385057944040 -2.425075362412559 29.000000000000000
-4.607687144027174 -7.763481958958333 -2.575288538338020 77.000000000000000
-4.665194148679670 -7.771097326512134 -2.750417040559656 0.000000000000000
-4.703930963916745 -7.745810169230212 -2.916480466067808 28.000000000000000
-4.765245211688001 -7.756496130733648 -3.097847937907624 60.000000000000000
-2.980604530698942 -4.187732897655160 -2.992923956513707 6.000000000000000
-2.996423743667306 -5.558292547317672 -0.792038324085169 5.000000000000000
-3.026109108884603 -5.548304120946443 -0.902463873301507 73.000000000000000
-3.058728355962924 -5.543501028924726 -1.013667197229371 4.000000000000000
-5.130684731546125 -9.192275302635025 -1.870030199233585 31.000000000000000
-5.194439063266217 -9.199409325325181 -2.062126786386831 28.000000000000000
-5.263726451547711 -9.217325984466541 -2.258315642100292 27.000000000000000
-5.275490721373852 -9.133376237995787 -2.430969383581852 32.000000000000000
-4.667034632666158 -7.987671998870793 -2.296716738291883 9.000000000000000
-4.629112595701703 -7.833566906722482 -2.422313376551065 28.000000000000000
-4.638950024241766 -7.760919822576991 -2.570654815434944 89.000000000000000
-4.680901204123036 -7.742114541622192 -2.736627548944448 0.000000000000000
-4.747594094300505 -7.762372183059351 -2.919428781016820 60.000000000000000
-3.301672143323034 -4.725279859218184 -3.097519541515703 11.000000000000000
-3.201863875769224 -4.522653707444155 -3.096897667599906 10.000000000000000
-3.004619746265818 -4.191137771004398 -2.995984039478484 5.000000000000000
-3.014961591099945 -5.553520698780388 -0.787298197895743 60.000000000000000
-3.042882605075819 -5.539979626095085 -0.897188494229818 5.000000000000000
-3.075646903013218 -5.535104193715963 -1.008346018335552 1.000000000000000
-5.166728917299811 -9.191954312759881 -1.863907778639531 30.000000000000000
-5.234702324092526 -9.205687746642830 -2.057704713862110 25.000000000000000
-5.300477103554924 -9.216532727129305 -2.252529903118814 30.000000000000000
-5.190754855210037 -8.923555390866568 -2.369955109121197 19.000000000000000
-4.710326928553230 -8.005108110652779 -2.297321998089812 5.000000000000000
-4.664317111588844 -7.837623411166613 -2.419483653028586 28.000000000000000
-4.672216113394937 -7.761550706838713 -2.567057306509572 93.000000000000000
-4.732304349295227 -7.771991135668060 -2.743622665881473 9.000000000000000
-4.787408620352551 -7.772276691420919 -2.919844128334447 43.000000000000000
-3.313189424052915 -4.707910426970952 -3.086321313791244 8.000000000000000
-3.227014522087674 -4.525590761396675 -3.099338886697665 7.000000000000000
-3.024639799355140 -4.188843527958535 -2.994983803368023 4.000000000000000
-3.029681171536569 -5.541724709035075 -0.781546702447738 54.000000000000000
-3.065376411480243 -5.542005164744791 -0.893567126679676 4.000000000000000
-5.145220850333648 -9.195009446276735 -1.668750336081902 32.000000000000000
-5.206686845230895 -9.198367203369649 -1.859106475614875 26.000000000000000
-5.278943410182888 -9.218637049920732 -2.054723196422198 30.000000000000000
-5.337259705991352 -9.215614515183523 -2.246678423437551 33.000000000000000
-5.193418767222171 -8.865677751046741 -2.349416847402631 19.000000000000000
-5.195285009840889 -8.767477012952565 -2.511249986335671 20.000000000000000
-4.701570408215842 -7.844871306228813 -2.417608298566368 28.000000000000000
-4.705521699998902 -7.762066535396606 -2.563398648457857 95.000000000000000
-4.755905965877723 -7.755935992026994 -2.734376589153168 80.000000000000000
-4.953885882162902 -7.986055576154720 -2.996736057959590 19.000000000000000
-3.320530648874598 -4.684767831231818 -3.071346704190193 3.000000000000000
-3.050783009938793 -4.194883490387553 -2.999956587743019 4.000000000000000
-3.050093151226846 -5.540325676160903 -0.777243315128112 3.000000000000000
-5.121445473771504 -9.194930642987574 -1.475950788418593 30.000000000000000
-5.181024230073713 -9.194648723912925 -1.662311273870044 30.000000000000000
-5.250621344524298 -9.211481840951510 -1.855606043923764 25.000000000000000
-5.313490238469592 -9.214406177897327 -2.047868226819282 31.000000000000000
-5.370129462583882 -9.207808139537649 -2.239116526791926 34.000000000000000
-5.193771459415232 -8.804500016007305 -2.328040698847665 19.000000000000000
-5.201439969204932 -8.716656090414919 -2.491833230412881 21.000000000000000
-4.730910611208042 -7.838735696529882 -2.411582772518362 5.000000000000000
-4.736860001559227 -7.759180669692365 -2.558595056022088 94.000000000000000
-4.904259725683808 -7.941953934997577 -2.796272561359556 25.000000000000000
-4.956212262176526 -7.933892345058352 -2.973746503869406 20.000000000000000
-3.325681857508313 -4.658757012875824 -3.054499513442485 2.000000000000000
-3.070861688571711 -4.192439528496154 -2.998876337824791 5.000000000000000
-3.070515789692336 -5.538858327346300 -0.772904402133023 2.000000000000000
-5.156966718606151 -9.194655544827420 -1.469265011889584 32.000000000000000
-5.218809451249686 -9.197602636800205 -1.656426770815083 27.000000000000000
-5.288786426581755 -9.214177125663682 -1.849955142942863 30.000000000000000
-5.348047024577231 -9.210061534259241 -2.040954570309919 34.000000000000000
-5.406953177571886 -9.206650126043503 -2.233140119242055 32.000000000000000
-5.195765985005533 -8.746747337442221 -2.307607168477104 19.000000000000000
-5.201304026735716 -8.655883042864756 -2.469603443816270 21.000000000000000
-5.604190374929079 -9.221131266056600 -2.831982417972554 33.000000000000000
-4.770232398538487 -7.759471095951857 -2.554817248849998 55.000000000000000
-4.958748641502811 -7.974259415262601 -2.803925585405183 20.000000000000000
-4.960261483599169 -7.885011941948203 -2.952012311908060 20.000000000000000
-4.954147456268606 -7.784433765603250 -3.093677088915920 21.000000000000000
-3.343038490967127 -4.649962438006557 -3.048948502851492 19.000000000000000
-3.090953200400701 -4.189928505508989 -2.997761069807910 5.000000000000000
-5.130936308889971 -9.191886116087455 -1.275750062901513 30.000000000000000
-5.192519209832340 -9.194258728921234 -1.462515190067369 29.000000000000000
-5.266450243726400 -9.217581745630881 -1.653549089977826 28.000000000000000
-5.327003378699797 -9.216737915882113 -1.844232413027699 32.000000000000000
-5.382613307239010 -9.205602991417640 -2.033982189975156 35.000000000000000
-5.439820636613454 -9.198625171079026 -2.225466783276203 30.000000000000000
-5.203440502195368 -8.699101605419900 -2.289869471977335 20.000000000000000
-5.206853244236391 -8.605158145921022 -2.450272755567035 17.000000000000000
-5.640025085676481 -9.215817292578731 -2.825429642151236 34.000000000000000
-4.959776443994851 -8.011858827518832 -2.633892889527281 17.000000000000000
-4.958551720717813 -7.918605391732260 -2.780639761456912 21.000000000000000
-4.966066204804541 -7.839399156136247 -2.931523719888432 17.000000000000000
-4.974143661572086 -7.761501405298045 -3.081459194861861 34.000000000000000
-3.115194312336821 -4.192918604292301 -3.000595603236767 7.000000000000000
-5.168140674451277 -9.195039283938733 -1.269232262395563 29.000000000000000
-5.233978910196837 -9.204073894149047 -1.457337475898674 25.000000000000000
-5.302420117280715 -9.216815347479653 -1.646892756168508 31.000000000000000
-5.359323428134957 -9.208943102824463 -1.836399553905820 34.000000000000000
-5.417188624468723 -9.201030423226603 -2.026951049676614 31.000000000000000
-5.482695254314736 -9.207322474593845 -2.221801430630963 25.000000000000000
-5.228971737952044 -8.681572537419738 -2.280065095829103 16.000000000000000
-5.238409384546460 -8.597629020859777 -2.443244224297951 5.000000000000000
-5.673836670992407 -9.207090341675029 -2.817807813023489 30.000000000000000
-4.965509186100999 -7.965714317860488 -2.614698821849084 19.000000000000000
-4.955981661179955 -7.859775950070222 -2.756271356152311 19.000000000000000
-4.959296091410511 -7.774522391255955 -2.903860855065230 27.000000000000000
-5.008429969286446 -7.760847363951084 -3.078079504529876 33.000000000000000
-3.318187587080560 -4.491004829954536 -3.077967308837039 4.000000000000000
-3.137411011426224 -4.193040934067764 -3.001392322008838 10.000000000000000
-5.203439909989189 -9.194603920458274 -1.262169500909070 25.000000000000000
-5.277500403991453 -9.217173787469326 -1.452617243962923 29.000000000000000
-5.340401518451610 -9.219346563015474 -1.640780476704451 33.000000000000000
-5.393624532607511 -9.204447311392132 -1.829191103482769 38.000000000000000
-5.453776841696505 -9.199724713701212 -2.020603710055493 30.000000000000000
-5.525662584642647 -9.215861004307818 -2.218049356970856 23.000000000000000
-5.276693837875970 -8.700687799453236 -2.279850424428623 17.000000000000000
-5.276055013859812 -8.599941687405808 -2.438984719907956 5.000000000000000
-5.715799534139734 -9.211415797843612 -2.814152569560699 29.000000000000000
-4.960733814100822 -7.903283645196606 -2.590189886708031 19.000000000000000
-4.959231236996968 -7.810742155457340 -2.735367711836040 21.000000000000000
-4.993384847417305 -7.773969955536083 -2.900233593351672 18.000000000000000
-5.042752267999792 -7.760074762767570 -3.074637090754088 34.000000000000000
-3.326739905557162 -4.470988046725145 -3.064745909013403 10.000000000000000
-3.155481404632472 -4.187538461587266 -2.998175901735258 8.000000000000000
-5.246634997864625 -9.207852016204754 -1.256927383286783 24.000000000000000
-5.315195760330437 -9.219806377697090 -1.446189609678268 31.000000000000000
-5.370465117164668 -9.208081534831692 -1.632174890509308 35.000000000000000
-5.417915662890985 -9.182857938500385 -1.818561506004398 89.000000000000000
-5.498453452390410 -9.211795837308859 -2.017147263745303 24.000000000000000
-5.570746907844383 -9.227594546072950 -2.215015526362504 29.000000000000000
-5.296089878835769 -8.672967632229728 -2.267335097772009 12.000000000000000
-5.307622536653398 -8.592195241525516 -2.431844555047717 3.000000000000000
-5.755780778178599 -9.212305846706140 -2.809414284204740 24.000000000000000
-4.970007294255936 -7.863758173814505 -2.573215668926402 14.000000000000000
-4.968396945139848 -7.771455323968539 -2.717898074447620 30.000000000000000
-5.021289798255410 -7.763682917486079 -2.892960476513808 29.000000000000000
-5.077110054714468 -7.759183369179204 -3.071131865578248 34.000000000000000
-3.335175016726082 -4.450967339035985 -3.051529674547029 2.000000000000000
-3.181943488629071 -4.193050222685179 -3.002859548032644 4.000000000000000
-5.289941844236604 -9.220935056207638 -1.251594172963302 27.000000000000000
-5.346971055268135 -9.212020181496404 -1.438085084349218 34.000000000000000
-5.400495215610341 -9.196725620418547 -1.623524957894682 51.000000000000000
-5.454194945575474 -9.181553155273669 -1.811922501803843 74.000000000000000
-5.541217139654677 -9.220327353682235 -2.012861669895975 26.000000000000000
-5.607801543343641 -9.225762343179547 -2.208680836527288 33.000000000000000
-5.313303209209484 -8.641887107548433 -2.253943261795293 4.000000000000000
-5.353559458887293 -8.607468887072736 -2.431184172010259 4.000000000000000
-5.655556034806465 -8.990106110166080 -2.736732004621330 10.000000000000000
-5.005975004403960 -7.866542016790203 -2.570080728957186 8.000000000000000
-5.000193759334667 -7.767683201057525 -2.712847960560888 32.000000000000000
-5.055417692792906 -7.762910761637014 -2.889218658782455 35.000000000000000
-5.113592564741729 -7.761344731850089 -3.068817856309003 31.000000000000000
-3.337152620768870 -4.422540608864859 -3.032557163292511 1.000000000000000
-3.202147743441890 -4.190174657490273 -3.001551293730674 26.000000000000000
-5.323424228037628 -9.216650816118410 -1.243848150734567 28.000000000000000
-5.380733816208363 -9.207555781439146 -1.430461509722766 35.000000000000000
-5.432504260615352 -9.188683353613438 -1.615429257325540 84.000000000000000
-5.492527124045672 -9.183508778855211 -1.805883800334844 74.000000000000000
-5.582035768428026 -9.225335338432965 -2.007757100211589 30.000000000000000
-5.638745831733048 -9.213773776872273 -2.199885050118300 34.000000000000000
-5.357081651851854 -8.653954400139970 -2.251782719467009 5.000000000000000
-5.389308476350966 -8.606076914885868 -2.425777047009910 5.000000000000000
-5.709426650778314 -9.014007774944877 -2.739044934391475 24.000000000000000
-5.033675255680224 -7.856205901504589 -2.562638923749714 19.000000000000000
-5.040356389877569 -7.776690500157870 -2.712236775758100 30.000000000000000
-5.087485961085900 -7.758825838666142 -2.884226794307356 35.000000000000000
-5.148030453813650 -7.760209422693267 -3.065183218430807 29.000000000000000
-3.341073864892275 -4.396939659806029 -3.015528321432024 4.000000000000000
-3.228727170894037 -4.195500994251203 -3.006133108025615 37.000000000000000
-3.225237471579753 -4.134536714769190 -3.093088004914089 7.000000000000000
-5.356914220773353 -9.212255270788736 -1.236044844292207 33.000000000000000
-5.408472244912863 -9.192727126019816 -1.421195258416874 66.000000000000000
-5.466522981330934 -9.183938183919491 -1.607877460668667 71.000000000000000
-5.530907946924020 -9.185328484338291 -1.799772740502623 75.000000000000000
-5.616784948722925 -9.220118293704363 -2.000386335160723 34.000000000000000
-5.675823769227781 -9.211704438581279 -2.193427882764984 31.000000000000000
-5.394775995534768 -8.655908564402587 -2.246947903869568 7.000000000000000
-5.423012430265767 -8.601269925944669 -2.419379226624624 4.000000000000000
-5.848925109716411 -9.171655906220684 -2.781867537970871 13.000000000000000
-5.044614728335503 -7.819849044197927 -2.546709085980825 30.000000000000000
-5.076420142334406 -7.779114167987940 -2.709301994963062 29.000000000000000
-5.121672446579711 -7.757822077995502 -2.880363163927728 32.000000000000000
-5.182502293910551 -7.758954602812318 -3.061485496472162 31.000000000000000
-3.381123380380044 -4.418782511924264 -3.031049620009497 20.000000000000000
-3.253248546825861 -4.197974830141858 -3.008686959135307 43.000000000000000
-5.390411368907125 -9.207748302009731 -1.228184221032723 32.000000000000000
-5.444239393337244 -9.191466775599675 -1.413991492577734 76.000000000000000
-5.504615458819598 -9.185866760100673 -1.601450753598711 75.000000000000000
-5.569336828360860 -9.187011976048783 -1.793589207204267 77.000000000000000
-5.647426906597198 -9.208079570739978 -1.991505951174401 34.000000000000000
-5.712928324479729 -9.209507920250939 -2.186904164839518 29.000000000000000
-5.442904372835654 -8.674276026147821 -2.246326648188928 5.000000000000000
-5.460896991537194 -8.602922871475492 -2.414768335734070 4.000000000000000
-5.671160458990959 -8.832833685754565 -2.674175036936978 10.000000000000000
-5.082682221491298 -7.825571786386015 -2.544474729969915 19.000000000000000
-5.108320894950323 -7.774987827179746 -2.704064703630574 32.000000000000000
-5.160124139370375 -7.763065148918701 -2.878797380839964 28.000000000000000
-5.219129174417255 -7.760734816420332 -3.058968089069894 31.000000000000000
-3.275679940068960 -4.197612703361850 -3.009223242434006 44.000000000000000
-5.419879567020400 -9.196282226187746 -1.219358312924503 29.000000000000000
-5.478002505232459 -9.186676734931188 -1.406201664250519 73.000000000000000
-5.540711752562264 -9.184272054558033 -1.594363855235914 74.000000000000000
-5.605757531014054 -9.185190720118861 -1.786677905645445 83.000000000000000
-5.686300781079090 -9.209338674626819 -1.985467351311042 31.000000000000000
-5.754213630892100 -9.213836607320525 -2.181889196007838 24.000000000000000
-5.487013308107270 -8.685844413972799 -2.243891212361077 6.000000000000000
-5.505121009110868 -8.614281897708347 -2.412841905691384 5.000000000000000
-5.579654748866907 -8.631809772649813 -2.608472528556536 7.000000000000000
-5.125050628021084 -7.837614864195392 -2.544261248528567 31.000000000000000
-5.133875091410954 -7.761141029267022 -2.695433261948480 34.000000000000000
-5.192272738772585 -7.758634658877765 -2.873624198857562 32.000000000000000
-5.257942318150802 -7.765532648368882 -3.057620196511648 29.000000000000000
-3.298142377011660 -4.197171000679608 -3.009717005303657 47.000000000000000
-5.459453342569163 -9.201817837104798 -1.212741395784926 28.000000000000000
-5.515854501032110 -9.188575573566084 -1.399389885738964 64.000000000000000
-5.576834479036087 -9.182552804771110 -1.587211763131963 71.000000000000000
-5.644270431237567 -9.186606551027113 -1.780352598695856 90.000000000000000
-5.725221228463022 -9.210459804358170 -1.979355470212161 30.000000000000000
-5.799741592986167 -9.224656191980726 -2.178361676659302 24.000000000000000
-5.533331921977346 -8.700541657080176 -2.242212459745740 6.000000000000000
-5.536816384724650 -8.605823269360151 -2.405330367825599 4.000000000000000
-5.281719280224172 -8.116075611809929 -2.448040462960596 62.000000000000000
-5.169659324022437 -7.852718508678762 -2.545001865815009 31.000000000000000
-5.170029233552654 -7.763214865573842 -2.692314371529499 34.000000000000000
-5.228706621204308 -7.760439042137514 -2.870741531841905 32.000000000000000
-5.290401897351054 -7.760757385850801 -3.052485636733872 30.000000000000000
-3.322798792244790 -4.199383512669060 -3.012129197059751 55.000000000000000
-5.499094045334232 -9.207208114026846 -1.206046195453473 22.000000000000000
-5.551701420219034 -9.186944317144672 -1.391991901708178 68.000000000000000
-5.617111825499229 -9.187461812944051 -1.581156594247250 70.000000000000000
-5.680753345606478 -9.184528403701126 -1.773306354803945 74.000000000000000
-5.770450806044631 -9.221451481504294 -1.975314169766696 25.000000000000000
-5.841181360504401 -9.228672425488206 -2.173177760039336 30.000000000000000
-5.586106618982473 -8.724934855418585 -2.242972271353809 6.000000000000000
-5.579084643899522 -8.613607963442425 -2.402326453320982 4.000000000000000
-5.297231874732904 -8.085476881723611 -2.434218983663283 65.000000000000000
-5.212271914008908 -7.864426498374726 -2.544602394500039 33.000000000000000
-5.204096362935175 -7.761965353340774 -2.688019884380004 34.000000000000000
-5.263046564522307 -7.758946584471834 -2.866619046713882 32.000000000000000
-5.327178786688442 -7.762148187270891 -3.049760268202054 31.000000000000000
-3.347506408502325 -4.201504635990655 -3.014491605359832 64.000000000000000
-5.546994525879374 -9.226080571783511 -1.201046632243362 24.000000000000000
-5.589635723178652 -9.188578391997941 -1.385039933097076 79.000000000000000
-5.651231740477008 -9.182110686237833 -1.573289280807007 72.000000000000000
-5.717261395134515 -9.182324318341827 -1.766194285035719 74.000000000000000
-5.811591651333500 -9.225609163642078 -1.969755832044695 24.000000000000000
-5.882686936726349 -9.232537521055420 -2.167912665854646 31.000000000000000
-5.649666838123458 -8.765544855330054 -2.247823838161005 10.000000000000000
-5.619315397079400 -8.617970449201980 -2.398327710057110 11.000000000000000
-5.314723092987157 -8.058100315532645 -2.421371873480345 21.000000000000000
-5.255000187707010 -7.875968927884659 -2.544111332900876 35.000000000000000
-5.242498076080546 -7.766970912891679 -2.685866854590219 33.000000000000000
-5.299576104544068 -7.760494039848020 -2.863599373101777 32.000000000000000
-5.361844281524003 -7.760274994448158 -3.045735036281225 30.000000000000000
-3.370080705374304 -4.200811604527640 -3.014850228872030 38.000000000000000
-5.582690690831656 -9.224353793761290 -1.193300355326890 26.000000000000000
-5.627615427765957 -9.190076855412705 -1.378015961002740 76.000000000000000
-5.693695364427308 -9.190106207843057 -1.567659716157644 67.000000000000000
-5.755890913501508 -9.183339575652573 -1.759657361569002 79.000000000000000
-5.840147695990657 -9.209667671140370 -1.959871494809529 21.000000000000000
-5.913663490119988 -9.219734203340085 -2.158698993695693 33.000000000000000
-5.732682096032446 -8.835407415783592 -2.260069862403680 16.000000000000000
-5.852046026991704 -8.915345813130752 -2.475655535461785 32.000000000000000
-5.338517415147431 -8.040394990781691 -2.411427834371229 7.000000000000000
-5.297843380262595 -7.887345220464251 -2.543528433382959 35.000000000000000
-5.274488281984726 -7.762289970827640 -2.680340980546022 34.000000000000000
-5.336157883596498 -7.761909690180695 -2.860509220892311 30.000000000000000
-5.398714869543552 -7.761406687577039 -3.042871667915652 29.000000000000000
-5.620479921246345 -9.225898833537498 -1.185925869604904 33.000000000000000
-5.661475566606225 -9.184683496163151 -1.369912217636201 70.000000000000000
-5.727864361369150 -9.184504449925333 -1.559661459118270 69.000000000000000
-5.794565007545924 -9.184216972966095 -1.753047337297489 79.000000000000000
-5.872882251170924 -9.200282794617776 -1.951357107999879 50.000000000000000
-5.948859609945311 -9.213432181792117 -2.150979491459342 31.000000000000000
-6.015113907188503 -9.209469120225737 -2.349805780730834 26.000000000000000
-5.942763338941235 -8.993671684357569 -2.491892760798690 31.000000000000000
-5.368708486749549 -8.032308787924830 -2.404354532869247 5.000000000000000
-5.340800724035754 -7.898554801926853 -2.542853449787736 33.000000000000000
-5.308660822798461 -7.760676529864595 -2.675854268695057 33.000000000000000
-5.372791324891625 -7.763193228758914 -2.857348468794284 28.000000000000000
-5.433451964159757 -7.759285533818963 -3.038715478263178 24.000000000000000
-5.649998323959996 -9.213748837321930 -1.176747764815389 32.000000000000000
-5.701616357414598 -9.189293597269925 -1.363251295996539 76.000000000000000
-5.766247173489753 -9.185495770037079 -1.552738546199054 66.000000000000000
-5.831165737259774 -9.181622305413610 -1.745730215508374 69.000000000000000
-5.905598812838997 -9.190793426487048 -1.942790481095959 83.000000000000000
-5.988336751380958 -9.213596536417766 -2.144732574511490 29.000000000000000
-6.065660184375388 -9.225715338884260 -2.347953792892606 23.000000000000000
-5.986527609027119 -9.000172293945756 -2.488141849985094 28.000000000000000
-5.390218065190568 -8.011240327035559 -2.393382884574147 5.000000000000000
-5.379520845421053 -7.903205507037132 -2.540031926417126 33.000000000000000
-5.345046520667736 -7.762112773380250 -2.672395738887652 33.000000000000000
-5.407286665213539 -7.761202163643143 -2.852961951247309 32.000000000000000
-5.470414018269304 -7.760157015255713 -3.035713683353588 24.000000000000000
-4.512433847055727 -6.100170656650651 -2.991019012925904 58.000000000000000
-5.681568434019045 -9.204893265570917 -1.167955520987670 29.000000000000000
-5.739718616325603 -9.190389306764869 -1.356014231307051 75.000000000000000
-5.802558123566557 -9.183001879537501 -1.545179505119854 58.000000000000000
-5.876299642452511 -9.192213260450906 -1.740868141618719 66.000000000000000
-5.946853595665202 -9.194428944234373 -1.936958621434394 77.000000000000000
-6.032156111913468 -9.220191995859732 -2.139936494615929 24.000000000000000
-6.109872872899364 -9.231971170485741 -2.343505447898227 29.000000000000000
-6.028207634274137 -9.003268960145761 -2.483408292922220 37.000000000000000
-5.429054055503002 -8.015844534091404 -2.390061184928822 0.000000000000000
-5.416126357975534 -7.904522148596412 -2.536109003333936 34.000000000000000
-5.379290179836851 -7.760253554552679 -2.667779213159009 33.000000000000000
-5.441811678316375 -7.759090246962438 -2.848511926819316 33.000000000000000
-5.507426178241587 -7.760895011591324 -3.032640682685004 29.000000000000000
-4.498130306353174 -6.113829686794811 -2.839494023225536 0.000000000000000
-4.507039127438595 -6.052214252240489 -2.965967792932801 57.000000000000000
-4.508846934824865 -5.979377520656205 -3.086639561690296 56.000000000000000
-5.719417826509585 -9.206071604916758 -1.160390163242407 28.000000000000000
-5.779976507316148 -9.194708949646282 -1.349197875097646 74.000000000000000
-5.843142834203914 -9.187065885257667 -1.538674182218643 65.000000000000000
-5.915124256080174 -9.192663688477023 -1.734030952920947 62.000000000000000
-5.986021975252297 -9.194611484021165 -1.930352447016535 77.000000000000000
-6.080378629312185 -9.233182938553936 -2.136569340648729 23.000000000000000
-6.154168493967429 -9.238061341427404 -2.338967464477260 31.000000000000000
-6.067771730380127 -9.002978992895446 -2.477702863840419 37.000000000000000
-5.966837524519412 -8.752048465189510 -2.604411952622127 66.000000000000000
-5.452781578765976 -7.905706110808273 -2.532115310130867 31.000000000000000
-5.415766729667485 -7.761431680778819 -2.664183363514911 34.000000000000000
-5.478575842673957 -7.759987556218225 -2.845146017941373 33.000000000000000
-5.544487859911841 -7.761499222671121 -3.029496358764237 30.000000000000000
-4.510317209660322 -6.089670362981658 -2.826428406746711 51.000000000000000
-4.510285380745565 -6.016259890968258 -2.946815010915929 54.000000000000000
-4.512037153892519 -5.943702918307172 -3.067008369861468 56.000000000000000
-5.759418616253555 -9.210486448453356 -1.153175002161003 23.000000000000000
-5.818174391158497 -9.195525138807662 -1.341812272869705 56.000000000000000
-5.881654491748851 -9.187644125535909 -1.531532520776512 76.000000000000000
-5.951843105743404 -9.189658711103140 -1.726497152636181 64.000000000000000
-6.025232258120644 -9.194653960937238 -1.923672210727075 76.000000000000000
-6.124384066688167 -9.239437097513036 -2.131587653556852 29.000000000000000
-6.189825169756027 -9.230979441071195 -2.331055324606361 34.000000000000000
-6.100808723038670 -8.992864127927310 -2.469263797477577 37.000000000000000
-5.999371841368044 -8.742189129263437 -2.596290187399783 66.000000000000000
-5.489485926415772 -7.906757095619685 -2.528050730217042 34.000000000000000
-5.452293047912860 -7.762477349028701 -2.660516853075257 34.000000000000000
-5.510948658494413 -7.754503012760884 -2.839421051644337 34.000000000000000
-5.581598477598540 -7.761969350248552 -3.026280595164919 32.000000000000000
-4.502375154455520 -6.113171112069438 -2.681876381025297 7.000000000000000
-4.513412253059217 -6.053476116270001 -2.807787873697650 54.000000000000000
-4.508832043984941 -5.974393791329398 -2.924781773954998 57.000000000000000
-4.506026977053454 -5.896301072978715 -3.041340911317992 57.000000000000000
-5.805838094340153 -9.224853489397100 -1.147136487723616 24.000000000000000
-5.871343085876015 -9.219646660848714 -1.337755514672637 35.000000000000000
-5.922353684671253 -9.191414343520874 -1.524870223782839 67.000000000000000
-5.990741254845879 -9.189836701073791 -1.719516392793270 64.000000000000000
-6.064483838477667 -9.194556100461691 -1.916917809481104 76.000000000000000
-6.159749383458569 -9.232453292580146 -2.123509767650666 32.000000000000000
-6.225481331848150 -9.223778706877461 -2.323082554143124 32.000000000000000
-6.138225961023277 -8.989087396779331 -2.462537273724570 38.000000000000000
-6.080478277611772 -8.802569384668576 -2.608965339667592 67.000000000000000
-5.521805413454682 -7.901330904105125 -2.521890346501191 20.000000000000000
-5.491092568097367 -7.766535881179863 -2.657856056097019 34.000000000000000
-5.550021022307977 -7.758263822814509 -2.837060645729505 34.000000000000000
-5.616520677612849 -7.759215008381994 -3.021789855639692 31.000000000000000
-4.512022727710964 -6.085866086500936 -2.667753527183029 57.000000000000000
-4.509542386880098 -6.008319537618559 -2.785007683077885 56.000000000000000
-4.507126576975418 -5.932588560779833 -2.902795030246906 58.000000000000000
-4.511012175678455 -5.863658106950055 -3.023300639314523 57.000000000000000
-5.845992069525304 -9.228954372696371 -1.139751687752979 28.000000000000000
-5.907551621740601 -9.216803722756731 -1.329716876875550 35.000000000000000
-5.958802472943359 -9.188385598881336 -1.517029721104427 70.000000000000000
-6.031848530960067 -9.193179658257888 -1.713077660396134 61.000000000000000
-6.105956029156342 -9.197601314910466 -1.910771315978595 85.000000000000000
-6.195114068031336 -9.225351402823177 -2.115371640754564 33.000000000000000
-6.263337246851560 -9.219698571505303 -2.315862859235188 28.000000000000000
-6.171243205402461 -8.978749186026183 -2.453985402199472 35.000000000000000
-6.106543975244739 -8.782794795445170 -2.597826064135824 75.000000000000000
-5.605352621110959 -7.968611360289317 -2.538873565515334 15.000000000000000
-5.525492662995227 -7.764170120848394 -2.652971384261603 34.000000000000000
-5.586921255904882 -7.758766513006051 -2.833484970310253 33.000000000000000
-5.653717065406977 -7.759422140428557 -3.018434592790279 32.000000000000000
-4.509737215155294 -6.115681653393957 -2.527602058193483 25.000000000000000
-4.514749938339110 -6.049487923926451 -2.649665800159527 54.000000000000000
-4.509923496362330 -5.969224029085465 -2.765055252169049 58.000000000000000
-4.509699524414761 -5.896768631342093 -2.883752053820368 58.000000000000000
-4.509003658589372 -5.822254644434278 -3.000756714928941 56.000000000000000
-5.881928831446819 -9.226196489909704 -1.131464339417073 28.000000000000000
-5.945933403037091 -9.217171730960395 -1.322091240660902 34.000000000000000
-5.999603518906310 -9.191866652177284 -1.510213582417461 68.000000000000000
-6.073016359715263 -9.196370856178877 -1.706557754737457 69.000000000000000
-6.143108461428508 -9.193938279102507 -1.903186105240137 84.000000000000000
-6.230477638583347 -9.218131333072238 -2.107173253756016 31.000000000000000
-6.310055886559578 -9.228421380522279 -2.311815202825283 24.000000000000000
-6.381884317473790 -9.225092790346908 -2.515398888421394 29.000000000000000
-6.163736950418063 -8.807546799459203 -2.599820413295302 75.000000000000000
-5.597650623774014 -7.905949381796462 -2.514425554005231 14.000000000000000
-5.562164792747399 -7.764816633804547 -2.649092195774527 33.000000000000000
-5.626120486999571 -7.762241224827712 -2.830970758123249 34.000000000000000
-4.490012187142522 -6.122028652431299 -2.378758444676941 0.000000000000000
-4.512303288132426 -6.079094494368930 -2.510040869078163 57.000000000000000
-4.512731655376622 -6.007110694737769 -2.628968259171056 56.000000000000000
-4.512346018235750 -5.933166607981202 -2.746525698705331 57.000000000000000
-4.512062583718038 -5.860987202435883 -2.864741568360839 56.000000000000000
-4.511300944745974 -5.786759298104991 -2.981271643398083 56.000000000000000
-5.917885688257228 -9.223313128791629 -1.123111708148507 32.000000000000000
-5.982192364538360 -9.214070282581231 -1.313917554990560 31.000000000000000
-6.038288634701357 -9.191884312664735 -1.502775148391921 70.000000000000000
-6.112055721437289 -9.196117380606051 -1.699348104468593 79.000000000000000
-6.184680456322779 -9.196689457968979 -1.896883408873959 73.000000000000000
-6.274683423020946 -9.223793403213893 -2.101877064838477 29.000000000000000
-6.356874320397746 -9.236964508913742 -2.307669719811663 24.000000000000000
-6.435752866807145 -9.242891541828651 -2.514287370881849 32.000000000000000
-6.218895198727024 -8.828880885537687 -2.600743896702870 75.000000000000000
-5.722188707118484 -8.029468175032752 -2.549127934463443 78.000000000000000
-5.598884356760547 -7.765329507568767 -2.645141886270724 32.000000000000000
-5.660864080781510 -7.759369249774845 -2.826119371959766 35.000000000000000
-4.515022721643978 -6.116004640792695 -2.373679223661196 44.000000000000000
-4.514659662743719 -6.042546320266811 -2.492512406593952 53.000000000000000
-4.512740404363923 -5.967809547293903 -2.609635846253090 58.000000000000000
-4.512276506812052 -5.894167072563666 -2.726649821076828 55.000000000000000
-4.509644731134373 -5.819346119218052 -2.842882189555838 57.000000000000000
-4.511100104262736 -5.748386884859022 -2.960317562576947 57.000000000000000
-4.540285050484601 -5.713775244009093 -3.097057978355406 3.000000000000000
-5.951703348363517 -9.216960996661246 -1.114289566990495 32.000000000000000
-6.020643451187489 -9.214167466453718 -1.306149430126219 29.000000000000000
-6.079199054873969 -9.195069010513338 -1.495801037276251 70.000000000000000
-6.148935774547659 -9.192436952199962 -1.691459641941439 82.000000000000000
-6.226311496086520 -9.199287128522363 -1.890498738614669 71.000000000000000
-6.312304899531708 -9.219556471354169 -2.094280145266988 23.000000000000000
-6.401560441944972 -9.242106061244330 -2.302623603812863 29.000000000000000
-6.467371839688756 -9.228495672449061 -2.504377190199160 34.000000000000000
-6.530695161548908 -9.211729643500563 -2.707877708090730 30.000000000000000
-6.093665493310344 -8.495467192784369 -2.692191306717121 69.000000000000000
-5.633385634824297 -7.762587186167533 -2.640058799819215 32.000000000000000
-4.498346442130657 -6.125896353903265 -2.228154650782827 1.000000000000000
-4.514971735571074 -6.076175154341541 -2.355485028769420 52.000000000000000
-4.512239631556485 -5.999965118346782 -2.472514526960940 55.000000000000000
-4.514807510819192 -5.931567022013114 -2.591657732729595 56.000000000000000
-4.509684443065389 -5.852244717010939 -2.705439335152716 55.000000000000000
-4.506976524515941 -5.777769808490111 -2.821071187964308 60.000000000000000
-4.517566701725040 -5.718798007400004 -2.943898851187468 15.000000000000000
-4.549138804510298 -5.687206604448500 -3.081798367125272 2.000000000000000
-5.987688895388171 -9.213832116443266 -1.105809848954071 27.000000000000000
-6.067864037610245 -9.227402720168778 -1.300178857272370 23.000000000000000
-6.115776246915477 -9.191501312750619 -1.487677557593746 74.000000000000000
-6.190251121930196 -9.195188909733048 -1.684706491280980 75.000000000000000
-6.265780567967307 -9.198471382198804 -1.883364570377426 75.000000000000000
-6.367793386839469 -9.241092331755564 -2.092480800029489 24.000000000000000
-6.441841606730518 -9.240648590623184 -2.295889008294903 32.000000000000000
-6.507950889960718 -9.226769910982496 -2.497876743085528 32.000000000000000
-6.582860029202759 -9.225573992923998 -2.706259842847504 22.000000000000000
-6.125746712943547 -8.485145405302365 -2.684017634021331 47.000000000000000
-5.672463437034531 -7.765953177372315 -2.637027455747706 31.000000000000000
-4.514053214347552 -6.107504519263697 -2.218435512971255 54.000000000000000
-4.514691277318155 -6.036398478971439 -2.337331827870970 54.000000000000000
-4.514157109437350 -5.963509753868294 -2.455060285784026 56.000000000000000
-4.514367053899304 -5.892365109573210 -2.572403451667873 54.000000000000000
-4.511448250270649 -5.816326094617146 -2.687020924035680 56.000000000000000
-4.513283343393177 -5.748007882061251 -2.805042397186082 70.000000000000000
-4.505391455893315 -5.665992314450541 -2.915543675157500 2.000000000000000
-4.532421186262895 -5.629066052686246 -3.049444140300088 2.000000000000000
-6.023692963765945 -9.210577250573287 -1.097264685250766 25.000000000000000
-6.113009604750724 -9.237137505326530 -1.293641480440120 29.000000000000000
-6.156783474281598 -9.194394426088087 -1.480548678137040 81.000000000000000
-6.231624390964769 -9.197787786411647 -1.677871653634368 76.000000000000000
-6.305287228536010 -9.197513635418852 -1.876155615066343 73.000000000000000
-6.410012597010754 -9.243008362830681 -2.086177104371895 29.000000000000000
-6.477656388424004 -9.232628504554159 -2.287488275468033 34.000000000000000
-6.548566336721608 -9.224898895750064 -2.491299921074480 30.000000000000000
-6.617002763706377 -9.213923640192153 -2.697125428638861 27.000000000000000
-6.501806517200732 -8.948150822353416 -2.825272530801589 21.000000000000000
-4.509404267730418 -6.133884341298526 -2.079519184270117 13.000000000000000
-4.518212504603164 -6.073672037356354 -2.203115917486669 53.000000000000000
-4.514181758312064 -5.996675525819516 -2.319220060916991 56.000000000000000
-4.511257929149917 -5.921047851054749 -2.435152611686163 55.000000000000000
-4.511388661087245 -5.850223272422823 -2.551884795874580 54.000000000000000
-4.510690328005094 -5.777486476778485 -2.667268785758766 58.000000000000000
-4.521739146002313 -5.721193962047628 -2.790462102258341 11.000000000000000
-4.502163042395480 -5.624894761754300 -2.893230522940974 2.000000000000000
-4.522295958239789 -5.579659182912098 -3.021838292932427 4.000000000000000
-6.075033909365451 -9.230471909540043 -1.091406123884278 22.000000000000000
-6.151644515553726 -9.236775172338449 -1.285627539347907 31.000000000000000
-6.193416328284122 -9.190558797005936 -1.472285021088096 76.000000000000000
-6.270826464412132 -9.196964946844876 -1.670361403928823 77.000000000000000
-6.342590455701825 -9.193166306484404 -1.868211865008895 67.000000000000000
-6.447785668739956 -9.238317108967113 -2.078338991636627 33.000000000000000
-6.508943629236995 -9.218082559396988 -2.277443909200886 30.000000000000000
-6.593760273454956 -9.229240784009670 -2.486359589234782 23.000000000000000
-6.498351760740959 -8.990801298540978 -2.626198089221144 66.000000000000000
-6.496479899606055 -8.883490026493794 -2.799658883364148 35.000000000000000
-4.518006859799487 -6.106098448249127 -2.066775206715614 62.000000000000000
-4.515276438642382 -6.030643207917550 -2.184480986742361 55.000000000000000
-4.515752260859161 -5.960054266901521 -2.302327225685862 55.000000000000000
-4.510423844182283 -5.881671035831206 -2.416534413596502 53.000000000000000
-4.512799139253211 -5.814124339689013 -2.534020144235494 53.000000000000000
-4.514350549009572 -5.744615126376802 -2.650286809094409 65.000000000000000
-4.506781301824907 -5.665138299437489 -2.761636171867668 2.000000000000000
-4.501015601430745 -5.586756722802439 -2.872453981511065 2.000000000000000
-4.549168092128657 -5.576086250696011 -3.019064059333193 7.000000000000000
-6.117737055183931 -9.236879230287652 -1.083872413483261 27.000000000000000
-6.190316218704866 -9.236273092261023 -1.277540010181470 34.000000000000000
-6.234517843997327 -9.193159169072839 -1.465000936849833 73.000000000000000
-6.310065166986207 -9.196000613620587 -1.662776684548186 74.000000000000000
-6.384410851529895 -9.195171100490102 -1.861512963043498 70.000000000000000
-6.483313053461686 -9.230274798155344 -2.069710849696553 33.000000000000000
-6.556087621618332 -9.225818603242697 -2.272866515597403 28.000000000000000
-6.643592627319958 -9.239758034157031 -2.483032918116564 20.000000000000000
-6.488250735817130 -8.919529262268661 -2.599773861069763 21.000000000000000
-4.514128854067963 -6.133281038512556 -1.929310859217193 28.000000000000000
-4.517239263773922 -6.065931949380895 -2.049857316814842 57.000000000000000
-4.516717308115134 -5.993820241818987 -2.168116156328840 57.000000000000000
-4.514796051621190 -5.920435221332721 -2.284295821969799 54.000000000000000
-4.514010322304141 -5.848373018905364 -2.400430761732447 53.000000000000000
-4.511672519420326 -5.775087300756680 -2.514891994926693 55.000000000000000
-4.520156915392532 -5.714725017141714 -2.634692285388127 6.000000000000000
-4.505494146814890 -5.626724408209366 -2.741430087942740 2.000000000000000
-4.525379254383658 -5.580414647312556 -2.868032595361057 5.000000000000000
-4.564347237596781 -5.558159982113754 -3.008522545681165 6.000000000000000
-6.153891657553156 -9.233184470274493 -1.075093486623183 28.000000000000000
-6.220135024982392 -9.222451371750399 -1.267567342071606 34.000000000000000
-6.277911183824823 -9.198882553526611 -1.458154633237142 61.000000000000000
-6.351588234083179 -9.198150512572091 -1.655703491790099 78.000000000000000
-6.426286967837156 -9.197020767738641 -1.854731464333977 72.000000000000000
-6.521106897963810 -9.225326447982582 -2.061740224538950 29.000000000000000
-6.603326813118100 -9.233372305587920 -2.268190218116110 22.000000000000000
-6.599587541894175 -9.120242473914352 -2.444794775412404 21.000000000000000
-4.504054530096708 -6.152394520534023 -1.789345817224344 0.000000000000000
-4.517834285792280 -6.099153954668242 -1.914961723736148 64.000000000000000
-4.516244129666556 -6.025821399413966 -2.032981904399812 60.000000000000000
-4.513305068559595 -5.950915429481127 -2.149573657560427 57.000000000000000
-4.515941022524495 -5.883907098472099 -2.267476557239360 53.000000000000000
-4.512740466464691 -5.809096029132305 -2.381890175186785 53.000000000000000
-4.519675529564545 -5.748007672413030 -2.500984787106145 56.000000000000000
-4.502358892297178 -5.655414031953694 -2.605554169871312 3.000000000000000
-4.503979318596672 -5.588367557411716 -2.721267046969422 2.000000000000000
-4.549739092311611 -5.573991178595122 -2.863569893129076 8.000000000000000
-4.612369568815112 -5.580039277829359 -3.019527217719674 6.000000000000000
-6.192280282787225 -9.232669584043002 -1.066630794273151 31.000000000000000
-6.256607016443362 -9.218404850768607 -1.258898188543258 31.000000000000000
-6.319134104134477 -9.201170528193702 -1.450703651702913 74.000000000000000
-6.393166543440104 -9.200146014915871 -1.648548104261957 76.000000000000000
-6.472758810466100 -9.205172472578383 -1.849164441475843 70.000000000000000
