# This PCD file was generated using the MATLAB® pcwrite function
# from Computer Vision Toolbox®.
# .PCD v.7 - Point Cloud Data file format
VERSION .7
FIELDS x y z intensity
SIZE 8 8 8 8
TYPE F F F F
COUNT 1 1 1 1
WIDTH 636
HEIGHT 1
VIEWPOINT 0 0 0 1 0 0 0
POINTS 636
DATA ascii
2.180533997735745 -4.760012518271457 -2.118361704387992 36.000000000000000
2.132974956100175 -4.623482436407381 -2.162603060407047 41.000000000000000
2.126293455279018 -4.576683259349287 -2.246646942808239 50.000000000000000
2.135986742983520 -4.564835662244231 -2.348070699638733 16.000000000000000
2.352999068370570 -4.993635015249320 -2.688234498462353 69.000000000000000
2.370099450031792 -4.992686184317230 -2.809931184546492 68.000000000000000
2.388613013341345 -4.995998957714036 -2.936383198258812 17.000000000000000
2.343037729975642 -4.864002825739827 -2.982595297237888 32.000000000000000
2.264161919158568 -4.663337337719864 -2.981150059701795 15.000000000000000
2.249139710583938 -4.593836367472434 -3.059352544438458 16.000000000000000
1.921289260206484 -4.561698288081164 -0.970305264920578 23.000000000000000
1.969403358242400 -4.645153233218444 -1.081481323215429 24.000000000000000
1.978725086157880 -4.636790412948291 -1.172944030975184 15.000000000000000
1.998515615154174 -4.651496085694836 -1.271974646268764 15.000000000000000
2.014402663735323 -4.657427840689906 -1.369702090639638 12.000000000000000
2.030098870286209 -4.661574282647347 -1.467544815064781 9.000000000000000
2.049718332490879 -4.674378800075335 -1.569852729034503 21.000000000000000
2.112998786898540 -4.786267920442257 -1.709061590555077 8.000000000000000
2.108515094373876 -4.742597382372518 -1.795549544153785 29.000000000000000
2.070973713882980 -4.625681481218881 -1.852283647478005 7.000000000000000
2.089610507656412 -4.634664372251095 -1.958090417442024 6.000000000000000
2.159604608046757 -4.756317217739205 -2.116140463471367 35.000000000000000
2.118493000262331 -4.633136907667861 -2.166408503178794 41.000000000000000
2.108763601031882 -4.579667198073686 -2.247257090288282 50.000000000000000
2.118348262130474 -4.567893839880704 -2.348634179243057 17.000000000000000
2.333680071189556 -4.997386185163641 -2.688970926147826 70.000000000000000
2.349095716972287 -4.993312132267941 -2.808815989389168 70.000000000000000
2.365916356034234 -4.993570824860467 -2.933296134615809 67.000000000000000
2.317642851788422 -4.855239601266990 -2.975413252952064 24.000000000000000
2.252881309426492 -4.682644185236461 -2.991552312781433 12.000000000000000
2.251403318145183 -4.640758972358892 -3.088475879704308 13.000000000000000
1.940424113531467 -4.646894263446503 -0.989217854657712 40.000000000000000
1.951842357403971 -4.643609777676144 -1.081805733260010 32.000000000000000
1.950427164917790 -4.610209651274355 -1.166790832003548 14.000000000000000
1.977615530868368 -4.643001516744373 -1.270114060853459 20.000000000000000
1.993340280280396 -4.649073676402913 -1.367592219336295 16.000000000000000
2.010402691692298 -4.656892282184860 -1.466299863385199 12.000000000000000
2.023742124132385 -4.655811517740417 -1.563723417452021 49.000000000000000
2.046882700213365 -4.677506685107138 -1.670205503028077 8.000000000000000
2.072879081379490 -4.703810514564790 -1.780713047363066 7.000000000000000
2.046256010257288 -4.611161782910172 -1.846187247359975 10.000000000000000
2.009906971398456 -4.497706606529299 -1.899818214437001 6.000000000000000
2.134160135432032 -4.742408934261377 -2.109374792816725 30.000000000000000
2.097890681743719 -4.629347366565661 -2.163925517924416 41.000000000000000
2.088203253183121 -4.575951454687786 -2.244580018118348 51.000000000000000
2.099198646251456 -4.567605129160920 -2.347477886506903 16.000000000000000
2.311341859566863 -4.994554387243987 -2.686168513156954 72.000000000000000
2.328115144754569 -4.993870135722839 -2.807667526666926 73.000000000000000
2.341764675778015 -4.987867819950252 -2.928295206085449 68.000000000000000
2.308800164458060 -4.881179383229425 -2.989500565200556 33.000000000000000
2.254907719209660 -4.730094616610580 -3.019917233263242 10.000000000000000
1.921517259046688 -4.641586104969882 -0.988862909273184 60.000000000000000
1.935811976061599 -4.645618241409788 -1.082943742037005 47.000000000000000
1.946418613616309 -4.640982938488011 -1.175140819319604 38.000000000000000
1.961313526922068 -4.645150255516629 -1.271152371978399 32.000000000000000
1.975370441404969 -4.647749333063843 -1.367538575773325 22.000000000000000
1.989244228626226 -4.648609391453406 -1.463910558937414 17.000000000000000
2.005469135937423 -4.654691218217647 -1.563444660948998 51.000000000000000
2.023858929761630 -4.666052921496092 -1.666087982737378 12.000000000000000
2.039035406656683 -4.668326812382563 -1.767122911172420 9.000000000000000
2.023169140962245 -4.599983147811307 -1.841424901240903 13.000000000000000
1.985554714555139 -4.483154658606496 -1.893259829638483 7.000000000000000
2.096757514578809 -4.701324063210368 -2.090525287514229 25.000000000000000
2.080352421635961 -4.632199701357095 -2.164546079098485 40.000000000000000
2.069196927913090 -4.575491958666691 -2.243501149919801 51.000000000000000
2.078572966122343 -4.563956059233780 -2.344597089883169 16.000000000000000
2.290548610259535 -4.994912991384411 -2.685086082891451 72.000000000000000
2.307158000342848 -4.994360318401964 -2.806485875864303 73.000000000000000
2.322151192899781 -4.991684065855957 -2.928890579040784 69.000000000000000
2.298310601667082 -4.903955779324346 -3.001641233174951 25.000000000000000
2.253650843411149 -4.771347987694615 -3.044299633136456 11.000000000000000
1.907129390092468 -4.647103797590467 -0.990799567958021 84.000000000000000
1.918292896455592 -4.643963789154703 -1.083214054759216 64.000000000000000
1.930271408413191 -4.643005229875025 -1.176201821634241 50.000000000000000
1.945015503987540 -4.647249245623602 -1.272165531013536 40.000000000000000
1.957427319951668 -4.646366012091679 -1.367456459557706 31.000000000000000
1.969658392127693 -4.643786196693178 -1.462600279544228 22.000000000000000
1.984220911412454 -4.646481524682815 -1.560775709541506 42.000000000000000
1.999429706448964 -4.651020305371361 -1.660685089953147 16.000000000000000
2.015956647537645 -4.656966274012546 -1.762659331226114 12.000000000000000
2.004679815037075 -4.599044221578469 -1.840757204834088 20.000000000000000
1.970319048579832 -4.489004643815190 -1.895314262756740 5.000000000000000
2.037190288626937 -4.609232122785862 -2.049008288466161 11.000000000000000
2.061321137586842 -4.631637532435265 -2.163569489495228 41.000000000000000
2.053203259892957 -4.581634438149983 -2.245658533420211 51.000000000000000
2.062467269029301 -4.570141855679052 -2.346769733730438 17.000000000000000
2.271265714464420 -4.998475628041356 -2.685728476628829 72.000000000000000
2.286224550011573 -4.994782804873069 -2.805271116856390 73.000000000000000
2.299582166843608 -4.989028496210798 -2.925695220273547 69.000000000000000
2.286208945766519 -4.923554751682091 -3.011830218237054 29.000000000000000
2.260925011396477 -4.831474789388660 -3.080693014947067 9.000000000000000
1.892723413799410 -4.652581594886446 -0.992714753481289 87.000000000000000
1.903763809588128 -4.649488398604046 -1.085145607072562 78.000000000000000
1.914128474058161 -4.644978258601911 -1.177237937680964 67.000000000000000
1.927235733176432 -4.645716631617066 -1.272172711342481 51.000000000000000
1.939511149941687 -4.644923846925484 -1.367345953120441 44.000000000000000
1.953099715117135 -4.645977260436041 -1.463489254596900 34.000000000000000
1.966024404448491 -4.645232757554941 -1.560436050997118 46.000000000000000
1.981077685039194 -4.649876824466779 -1.660233936265154 21.000000000000000
1.995952980319530 -4.652462505228869 -1.760785148106691 17.000000000000000
1.984728417805437 -4.594597892051104 -1.838680863530991 27.000000000000000
1.952088438492450 -4.487970964326683 -1.894458062788598 7.000000000000000
2.009489485448985 -4.588103650298230 -2.039049019025790 13.000000000000000
2.043800427281143 -4.634378724604771 -2.164134388243041 41.000000000000000
2.031263062766818 -4.574386439301620 -2.241253014224989 51.000000000000000
2.043384129285843 -4.569669868582250 -2.345523948365099 17.000000000000000
2.250508921233157 -4.998704353195759 -2.684581975800279 73.000000000000000
2.263844075537439 -4.991894124626689 -2.802202535537285 73.000000000000000
2.279992637695468 -4.992717536441683 -2.926227122655065 70.000000000000000
2.295913016036161 -4.990791650931452 -3.051137184688466 65.000000000000000
1.881234315274225 -4.665297598173537 -0.996162522639227 69.000000000000000
1.892157018984286 -4.662217810989074 -1.088747398805041 73.000000000000000
1.900934900843517 -4.654112152619989 -1.180077359154886 73.000000000000000
1.909483148879072 -4.644125740010426 -1.272151805060807 64.000000000000000
1.923098064958932 -4.646989348847915 -1.368257221521318 55.000000000000000
1.936545221877304 -4.648117865635601 -1.464352727584214 46.000000000000000
1.949332898276660 -4.647447863858255 -1.561251294448034 57.000000000000000
1.959796750639216 -4.641672262940798 -1.657254144550564 28.000000000000000
1.975999413533479 -4.647889435339967 -1.758878652599567 23.000000000000000
1.963350003455407 -4.586631154980788 -1.835191382960169 30.000000000000000
1.933885275357781 -4.486877431176908 -1.893572987595057 7.000000000000000
1.990803187035687 -4.587248798553841 -2.038099882403923 18.000000000000000
2.024810401576265 -4.633696686688366 -2.163099131672382 41.000000000000000
2.013805945619239 -4.577081617839937 -2.241720204891847 53.000000000000000
2.022860607769018 -4.565824575550589 -2.342549232531655 17.000000000000000
2.231239671576604 -5.002146173765199 -2.685163530265690 72.000000000000000
2.244429793220018 -4.995425191685802 -2.802742595668969 73.000000000000000
2.258949230225422 -4.993132362570300 -2.924845566028591 70.000000000000000
2.276156089584337 -4.994521145818910 -3.051601543422057 67.000000000000000
1.865313846933209 -4.667060582400254 -0.997259130138720 52.000000000000000
1.876110296078379 -4.664043474428795 -1.089791092635130 64.000000000000000
1.886239372061635 -4.659604582299441 -1.181982304393163 66.000000000000000
1.897610288263121 -4.656838582451217 -1.276038248200928 66.000000000000000
1.908153890431504 -4.652575514272430 -1.370194808931836 64.000000000000000
1.919995103943654 -4.650208051743406 -1.465190730360113 56.000000000000000
1.931179315137452 -4.646084367839193 -1.560855694709001 77.000000000000000
1.944454999487973 -4.647409797690614 -1.659244685781909 39.000000000000000
1.956096229614777 -4.643247295506573 -1.756939979981601 28.000000000000000
1.947908184813950 -4.592408885794210 -1.837196322991423 40.000000000000000
1.917174406152440 -4.489153633624608 -1.894106108460932 7.000000000000000
1.972144031143457 -4.586332854915310 -2.037121219846681 20.000000000000000
2.005847184491773 -4.632952682984917 -2.162033882641362 42.000000000000000
1.996352393443994 -4.579723717847111 -2.242160518200931 55.000000000000000
2.006752885718186 -4.571854354255267 -2.344642108966501 18.000000000000000
2.210520329188716 -5.002245398345946 -2.683953212887701 70.000000000000000
2.223569015830896 -4.995645345378966 -2.801428995179121 74.000000000000000
2.237930090786318 -4.993479417519977 -2.923430898030169 70.000000000000000
2.254961732604234 -4.995005545289851 -3.050090357188479 68.000000000000000
1.855177633157727 -4.683364998275234 -1.001451068381137 41.000000000000000
1.864410983524158 -4.676713231713925 -1.093356772890890 48.000000000000000
1.871525853273972 -4.665056251772205 -1.183865342143346 54.000000000000000
1.882770271442031 -4.662337919361657 -1.277937882158797 56.000000000000000
1.894644366810091 -4.661695149494180 -1.373163157274921 61.000000000000000
1.904903677526166 -4.655801906050371 -1.467123236461420 61.000000000000000
1.914508096109237 -4.648193582994200 -1.561618123916257 91.000000000000000
1.926184809898353 -4.646086522548862 -1.658706756213004 49.000000000000000
1.939153166929861 -4.645506319809155 -1.757606334706122 39.000000000000000
1.932447440113624 -4.598143786981225 -1.839178241890725 44.000000000000000
1.903374066587820 -4.498246454417374 -1.897510473742495 6.000000000000000
1.953512259015546 -4.585355955121561 -2.036113115400815 20.000000000000000
1.986911020412646 -4.632146848293110 -2.160938724908918 43.000000000000000
1.978902607172762 -4.582312777335372 -2.242573985846140 54.000000000000000
1.987738354830983 -4.571200095545024 -2.343307474324055 18.000000000000000
2.188386204804616 -4.998989037811386 -2.680946552705302 70.000000000000000
2.202732990658177 -4.995798309562129 -2.800082609860337 75.000000000000000
2.216935484460877 -4.993758828541790 -2.921983199831774 70.000000000000000
2.235218077517925 -4.998611725015615 -3.050492578006623 68.000000000000000
1.843522475020459 -4.696002565260057 -1.004848640923304 31.000000000000000
1.851212358485453 -4.685724037918371 -1.096056131895022 35.000000000000000
1.859671010982379 -4.677702532650372 -1.187563365445432 42.000000000000000
1.867912253604916 -4.667796091430779 -1.279815401398244 48.000000000000000
1.876769346255285 -4.660044297923585 -1.372948637912721 54.000000000000000
1.891236531166313 -4.664912183658641 -1.470154652387012 56.000000000000000
1.899284772102559 -4.653788399998747 -1.563543054250962 72.000000000000000
1.910828819289056 -4.651730371031348 -1.660648601781531 55.000000000000000
1.920771446249459 -4.644224559293010 -1.756926661569116 50.000000000000000
1.912640680586940 -4.593443396067221 -1.836981054363483 48.000000000000000
1.898179611135278 -4.527933946894436 -1.909594809490041 6.000000000000000
1.937787438710950 -4.591140137821143 -2.038104039852163 32.000000000000000
1.969439700222444 -4.634662283363987 -2.161391400545269 44.000000000000000
1.960021925152351 -4.581494885522632 -2.241319849296846 54.000000000000000
1.965887429830999 -4.563835893937676 -2.338536411185115 18.000000000000000
2.170584759317654 -5.005536763541700 -2.683200236927987 68.000000000000000
2.184770442594976 -5.002406255057444 -2.802357181468041 74.000000000000000
2.195965675628432 -4.993970723726299 -2.920502552990901 71.000000000000000
2.214060831485833 -4.998964265063691 -3.048916350295050 68.000000000000000
1.830382364404197 -4.704960579261553 -1.007447441642933 24.000000000000000
1.839398182614495 -4.698341833166984 -1.099588261354037 24.000000000000000
1.847752771190396 -4.690324584340981 -1.191245142732936 32.000000000000000
1.857322510264256 -4.684022327081892 -1.284635330459201 37.000000000000000
1.864642114626280 -4.672668427967597 -1.376929753704544 45.000000000000000
1.877528127168272 -4.673988956682464 -1.473166441547724 49.000000000000000
1.885474789853498 -4.662881517734399 -1.566634854839458 59.000000000000000
1.895454366246943 -4.657331619565742 -1.662567571820325 55.000000000000000
1.906712040110037 -4.653363394447813 -1.760182466482540 55.000000000000000
1.897177526240180 -4.599079716764433 -1.838912502751335 55.000000000000000
1.904240112989303 -4.585177261952131 -1.933288149386852 25.000000000000000
1.919187761538548 -4.590050265830613 -2.037040228642768 39.000000000000000
1.950546663372355 -4.633737464034960 -2.160238141595928 43.000000000000000
1.941168846097272 -4.580615484857766 -2.240036002126447 56.000000000000000
1.951211363996767 -4.573034078840499 -2.342253087685725 19.000000000000000
2.148513021156307 -5.002142931113296 -2.680127216128943 69.000000000000000
2.162548754714702 -4.999168481505063 -2.799120107642445 73.000000000000000
2.175020927961774 -4.994115232001010 -2.918989039449069 72.000000000000000
2.195734423797472 -5.005645875302755 -3.051206271495799 68.000000000000000
1.820023989500716 -4.721206073605414 -1.011595713807278 17.000000000000000
1.828934391090336 -4.714578801777791 -1.103957297595567 8.000000000000000
1.834355799889106 -4.699296163538149 -1.193989265767841 24.000000000000000
1.843811707725385 -4.693017681179371 -1.287462399681089 28.000000000000000
1.852450944864540 -4.685267615856739 -1.380894226461456 36.000000000000000
1.862359092573076 -4.679465408914128 -1.475034269800712 40.000000000000000
1.871623464911444 -4.671940723049540 -1.569706815269727 47.000000000000000
1.881481588616272 -4.666412033272458 -1.665720795159859 52.000000000000000
1.889771247798838 -4.655472219390636 -1.760772286661410 53.000000000000000
1.881695945850710 -4.604673136363431 -1.840820924104777 53.000000000000000
1.891498542995907 -4.597699511530643 -1.938114667277263 53.000000000000000
1.904864928936849 -4.599158129898845 -2.040498492695294 49.000000000000000
1.933095509567157 -4.636142662630662 -2.160635777410706 45.000000000000000
1.922343612038826 -4.579674712709327 -2.238722529261781 57.000000000000000
1.933675916501885 -4.575531079617921 -2.342536400867882 19.000000000000000
2.127895026834503 -5.001975828989346 -2.678787143649030 68.000000000000000
2.143177592002879 -5.002394434590397 -2.799507051235229 73.000000000000000
2.155497552061328 -4.997429160044939 -2.919333501570206 70.000000000000000
2.171820968158411 -4.999465710034064 -3.045664508192103 69.000000000000000
1.812379350653909 -4.744763263104374 -1.017301659498524 12.000000000000000
1.822590825032214 -4.741741926269963 -1.110876315870501 4.000000000000000
1.826534248894004 -4.722755220016788 -1.200404835637291 20.000000000000000
1.833071770500906 -4.709202543431418 -1.292252022297407 21.000000000000000
1.840195903533498 -4.697841616275535 -1.384841935026597 27.000000000000000
1.848580073502907 -4.688470579474608 -1.478005188505444 32.000000000000000
1.859139345746966 -4.684514739840352 -1.573951252521511 38.000000000000000
1.866059026438605 -4.671932082560414 -1.667595372321987 43.000000000000000
1.875651765844744 -4.664533428988047 -1.763984791072900 46.000000000000000
1.836640950483552 -4.537211008714591 -1.813523168147017 51.000000000000000
1.811193841417790 -4.444559553809288 -1.873118053261154 47.000000000000000
1.887690999339710 -4.601383426475891 -2.040899128708924 54.000000000000000
1.915648891505698 -4.638494954309945 -2.161006682848103 46.000000000000000
1.906345797306283 -4.585406049436139 -2.240669779973644 55.000000000000000
1.913351711952274 -4.571301480115564 -2.339377695940217 19.000000000000000
2.105910221461124 -4.998436628380705 -2.675645232688313 69.000000000000000
2.122419693279063 -5.002288356889687 -2.798033209257369 73.000000000000000
2.137360569927047 -5.003925260408473 -2.921540309899408 69.000000000000000
2.149359316751020 -4.996407936541355 -3.042036531529851 70.000000000000000
1.804603975969340 -4.768320107751629 -1.022999433004316 9.000000000000000
1.807749573416117 -4.747003425778659 -1.112654463640679 8.000000000000000
1.814403274858409 -4.735311254072005 -1.204039901017442 15.000000000000000
1.820851085970742 -4.721754953246275 -1.296035294354841 16.000000000000000
1.829272384280898 -4.713985901691218 -1.389832890229508 20.000000000000000
1.836156453082363 -4.701016744499702 -1.482083347095372 23.000000000000000
1.845194041953655 -4.693509790615724 -1.576984715503950 29.000000000000000
1.854808523483327 -4.687999695776647 -1.673226880495191 35.000000000000000
1.862887242684782 -4.677065885561811 -1.768502706573051 35.000000000000000
1.792059354383338 -4.469531425794200 -1.786143360485168 55.000000000000000
1.797490077764390 -4.453374017063750 -1.876386230092313 32.000000000000000
1.871914897627226 -4.606984445121544 -2.042793415509605 56.000000000000000
1.896816380991667 -4.637394530644847 -2.159767483769246 44.000000000000000
1.887553457253255 -4.584351300390951 -2.239300136340614 55.000000000000000
1.894464067010710 -4.570342937638295 -2.337895491929653 19.000000000000000
2.085356226162582 -4.998132973098047 -2.674239367228562 68.000000000000000
2.100310573214793 -4.998837750209265 -2.794694373831408 75.000000000000000
2.115084758823008 -5.000635855058838 -2.918039326002064 70.000000000000000
2.131050183349338 -5.002907613905945 -3.044234636615365 70.000000000000000
1.800828152802491 -4.802891890284103 -1.031053565202686 4.000000000000000
1.803924334927022 -4.781468191178194 -1.121268447165629 7.000000000000000
1.807733151890654 -4.762394795551723 -1.211359840368398 11.000000000000000
1.814097734467699 -4.748759831642595 -1.303776618588073 12.000000000000000
1.816878238880174 -4.726512855175195 -1.393748074419225 14.000000000000000
1.825053534168412 -4.717115987570360 -1.487272791799636 17.000000000000000
1.833978072267850 -4.709584620922838 -1.582388425389859 20.000000000000000
1.840700099296514 -4.696980623339249 -1.676321021888543 27.000000000000000
1.850057937404052 -4.689571615043898 -1.773003016247527 20.000000000000000
1.828222334998234 -4.603770116476734 -1.839445516575415 38.000000000000000
1.801721085978228 -4.507122288865422 -1.898576783159943 51.000000000000000
1.858882607162097 -4.619405583444989 -2.047706890262252 50.000000000000000
1.880770060931412 -4.643040981262414 -2.161668435311439 39.000000000000000
1.868789656608556 -4.583235531329934 -2.237901088901764 55.000000000000000
1.874231800892686 -4.565978046405953 -2.334673346800666 19.000000000000000
2.067567247034770 -5.004391695816503 -2.676346284364542 65.000000000000000
2.082347723666003 -5.005158597764792 -2.796822369934175 73.000000000000000
2.094219330095575 -5.000520405788444 -2.916397961312449 69.000000000000000
2.107295660995593 -4.996495487698938 -3.038584183226342 71.000000000000000
2.515048255871506 -6.771010140746125 -1.454433891433659 49.000000000000000
1.836827016566102 -4.914763056420589 -1.153063142441138 6.000000000000000
1.814603122677854 -4.825906772304375 -1.227941094757625 7.000000000000000
1.807188706726497 -4.775771144400929 -1.311511705852317 7.000000000000000
1.809909146167429 -4.753429104934653 -1.401897509441983 10.000000000000000
1.813863441749339 -4.733197158312787 -1.492447679225303 11.000000000000000
1.822674590249561 -4.725641137280422 -1.587777433931340 15.000000000000000
1.830670598292950 -4.716541559571494 -1.683182960162271 19.000000000000000
1.845402326540671 -4.723135796312817 -1.785456385013863 10.000000000000000
1.804493797578124 -4.588236024470573 -1.832891791201144 38.000000000000000
1.805605765262448 -4.560943264290365 -1.920783267413420 39.000000000000000
1.849892969157402 -4.642107452882644 -2.057170483589879 36.000000000000000
1.861971160857497 -4.641826704252293 -2.160373172353629 39.000000000000000
1.852783328818950 -4.588817081560923 -2.239771356282883 56.000000000000000
1.858135616222156 -4.571591214176566 -2.336554258345037 20.000000000000000
2.045685497499250 -5.000646209587685 -2.673105372382010 62.000000000000000
2.060303223086391 -5.001571040384158 -2.793417576541390 73.000000000000000
2.074729221870590 -5.003591471803039 -2.916620482547591 69.000000000000000
2.088991414691102 -5.002877052600804 -3.040722293453839 72.000000000000000
2.012024704047963 -5.468235151435600 -1.175285888158617 0.000000000000000
1.868910831476837 -5.048293026836609 -1.184927769605146 26.000000000000000
1.865902137764669 -5.009827360828753 -1.275168626879146 67.000000000000000
1.830035340510143 -4.882592902152369 -1.341161140331483 10.000000000000000
1.808226081059450 -4.794782398440021 -1.414297066173208 5.000000000000000
1.809393557705022 -4.767195185622582 -1.503263455124359 7.000000000000000
1.814007363588716 -4.748809340107026 -1.595547284212600 9.000000000000000
1.819168281757583 -4.732549374075958 -1.688768540854674 13.000000000000000
1.832373358079168 -4.735611607692896 -1.789929210244352 12.000000000000000
1.790412052629134 -4.597062713082013 -1.836065111533729 25.000000000000000
1.794192103800353 -4.576696384956858 -1.926947039901018 32.000000000000000
1.842125055601782 -4.668246184329520 -2.068148167326750 26.000000000000000
1.843201175521418 -4.640551539118094 -2.159048595873920 38.000000000000000
1.832701176970479 -4.584204672267754 -2.236665803979109 59.000000000000000
1.840671679358626 -4.573806473117514 -2.336698122410215 19.000000000000000
2.023854366081062 -4.996826813153565 -2.669829826832453 60.000000000000000
2.040992879705431 -5.004489615289109 -2.793651330330110 71.000000000000000
2.053904935377084 -5.003346642704459 -2.914915588721513 70.000000000000000
2.068001429139231 -5.002760953263798 -3.038917065926152 72.000000000000000
1.995060940732972 -5.474033975708081 -1.177208509804124 0.000000000000000
1.849072925109263 -5.042693014453575 -1.184135329938683 25.000000000000000
1.850077326094702 -5.015236572986611 -1.276962021536969 78.000000000000000
1.863001752179426 -5.018645258305726 -1.378843081232171 75.000000000000000
1.864300204962006 -4.991479106923595 -1.472516577469963 50.000000000000000
1.819568256301088 -4.840715654414350 -1.526534412900436 6.000000000000000
1.813307137054958 -4.793389509154724 -1.610502480665890 6.000000000000000
1.812977996885823 -4.762723269600445 -1.699400435451960 8.000000000000000
1.817930137581463 -4.744537451222317 -1.793052812613695 32.000000000000000
1.801915477081377 -4.672301989414030 -1.865752055652705 22.000000000000000
1.806944657527294 -4.654912736782314 -1.959396442166659 24.000000000000000
1.834197742340329 -4.694389184559760 -2.079118280878217 20.000000000000000
1.824460343233474 -4.639215627400580 -2.157694792701379 36.000000000000000
1.816694081247377 -4.589685176123812 -2.238484442481136 59.000000000000000
1.823213252892135 -4.575968905406428 -2.336815356683531 20.000000000000000
2.003407975147705 -4.996260145609207 -2.668296280871305 58.000000000000000
2.021685962985648 -5.007350217055165 -2.793855699713998 72.000000000000000
2.033107495899929 -5.003035254129444 -2.913178359807969 71.000000000000000
2.047038057229166 -5.002577819657227 -3.037079246665947 72.000000000000000
1.970091460071560 -5.457660055067857 -1.174345078020014 0.000000000000000
1.833286233176671 -5.048039700862597 -1.185899138105751 24.000000000000000
1.831565001769128 -5.013293842604791 -1.276870585453102 75.000000000000000
1.844331484344519 -5.016793127243179 -1.378632690132195 76.000000000000000
1.854931997621926 -5.014995817550311 -1.479644631035173 77.000000000000000
1.865413542176257 -5.011407789765362 -1.580443064885438 73.000000000000000
1.863195549877243 -4.973792462074519 -1.671081951050972 38.000000000000000
1.829356094924836 -4.853264502902316 -1.731561128816907 7.000000000000000
1.804783716674860 -4.756953695295386 -1.797488046369389 42.000000000000000
1.788865447708046 -4.684635931118699 -1.870307622523080 17.000000000000000
1.797814022114231 -4.677650284546775 -1.968478741914405 20.000000000000000
1.824777048891434 -4.717087646997029 -2.088553770528091 14.000000000000000
1.808412248012941 -4.644659552567508 -2.159492250965533 36.000000000000000
1.798011344150126 -4.588338773850031 -2.236972620013903 61.000000000000000
1.801783089421263 -4.567994681491609 -2.331758625702912 20.000000000000000
1.981667131090104 -4.992297646165134 -2.664953206653201 56.000000000000000
2.002382689956896 -5.010152883333508 -2.794030717187253 71.000000000000000
2.014964233709172 -5.009188325876923 -2.915209675610171 71.000000000000000
2.027410410030061 -5.005559264347246 -3.037169649593053 72.000000000000000
1.953158790175520 -5.463341597212520 -1.176209731522171 1.000000000000000
1.814838554697832 -5.045992238562649 -1.185912032466063 24.000000000000000
1.815728246450533 -5.018607388070898 -1.278614413903536 75.000000000000000
1.827014843354776 -5.018520270410646 -1.379393728287459 75.000000000000000
1.836149637613389 -5.013169658478695 -1.479285125863440 78.000000000000000
1.849148846647380 -5.016867189303997 -1.582235174627233 78.000000000000000
1.860174668361806 -5.015031674045566 -1.684895104006408 79.000000000000000
1.871683587504439 -5.015035961121021 -1.789120134851061 74.000000000000000
1.787594500375137 -4.758751113984152 -1.797903706371162 36.000000000000000
1.779726522148254 -4.707457588958119 -1.879042456817484 13.000000000000000
1.784576332114681 -4.689946026907228 -1.973159288945835 15.000000000000000
1.819186686498699 -4.750137553341439 -2.102562489915885 15.000000000000000
1.791026615531249 -4.646634723836789 -2.159674374921571 38.000000000000000
1.780675363875600 -4.590327174899730 -2.237086425658063 61.000000000000000
1.785685784892246 -4.573404921895085 -2.333535878879852 21.000000000000000
1.959977774953513 -4.988261909170913 -2.661575895442928 54.000000000000000
1.983083277379634 -5.012897652426682 -2.794176415560103 72.000000000000000
1.995499276937678 -5.012021602459885 -2.915312348997384 70.000000000000000
2.007786232394535 -5.008481895968611 -3.037230241974029 74.000000000000000
1.936207670408151 -5.468976120862801 -1.178049254694012 2.000000000000000
1.796419681640186 -5.043885592839866 -1.185896476830167 25.000000000000000
1.797250512968496 -5.016553522347139 -1.278468361384431 75.000000000000000
1.809703977463144 -5.020195294828773 -1.380128514209137 75.000000000000000
1.821338561537254 -5.022153688179596 -1.482104644268237 76.000000000000000
1.832866422072659 -5.022281425337403 -1.584003145056685 79.000000000000000
1.842435788122360 -5.016913111262261 -1.685475956722838 77.000000000000000
1.855111048954934 -5.020548109544182 -1.790920343230729 83.000000000000000
1.762525505855096 -4.739291766319754 -1.790283048823291 33.000000000000000
1.766512269148577 -4.719747406387794 -1.883565454886885 11.000000000000000
1.775210213145236 -4.712662752752060 -1.982216556778855 12.000000000000000
1.809458627879195 -4.772837364484256 -2.111979868790544 47.000000000000000
1.771031135164524 -4.641701118884124 -2.156644486517823 38.000000000000000
1.762040388667750 -4.588864044642082 -2.235517937412878 62.000000000000000
1.769570909028895 -4.578770464179889 -2.335289239959909 21.000000000000000
1.938340198724049 -4.984153171682232 -2.658164486110738 51.000000000000000
1.962493421016269 -5.012278311103448 -2.792450841914649 67.000000000000000
1.976038207153576 -5.014796553307304 -2.915385486141834 70.000000000000000
1.985595394030529 -5.004866960083273 -3.033334410029921 74.000000000000000
1.915347920229477 -5.463466482089832 -1.177472013915227 3.000000000000000
1.779328624632504 -5.045402679191521 -1.186718774761077 25.000000000000000
1.780102246450426 -5.018105921009836 -1.279228266459186 76.000000000000000
1.791097412583033 -5.018171317790324 -1.379834295828624 76.000000000000000
1.801277013954552 -5.016591311288383 -1.480620388386189 77.000000000000000
1.812657032246700 -5.016830536729621 -1.582334303863682 79.000000000000000
1.815579124163950 -4.993647505766576 -1.677599783038645 68.000000000000000
1.835914641492328 -5.018890189794843 -1.790154935176055 82.000000000000000
1.638610412689723 -4.450843583829779 -1.681062553180609 9.000000000000000
1.757138429536067 -4.742547798036370 -1.892275065308398 7.000000000000000
1.765708615476388 -4.735374248524319 -1.991262868544784 9.000000000000000
1.794400910403721 -4.781691108390970 -2.115263462710268 44.000000000000000
1.756274000204868 -4.650427621572983 -2.159959391450549 38.000000000000000
1.746022260525465 -4.594146904779914 -2.237235008453669 63.000000000000000
1.750858137256928 -4.577344984227090 -2.333579370531952 22.000000000000000
1.914181868083339 -4.973287145976185 -2.651155736573963 50.000000000000000
1.943214249590381 -5.014903488199338 -2.792536729254425 39.000000000000000
1.955303266235532 -5.014235939045195 -2.913524855675032 68.000000000000000
1.967275846774279 -5.010907565768952 -3.035297532371091 73.000000000000000
1.895824227836479 -5.461590026207306 -1.177660767276003 4.000000000000000
1.760956522410469 -5.043181847573297 -1.186647790410962 24.000000000000000
1.761671509765232 -5.015937448619026 -1.279026584251765 79.000000000000000
1.773810309003668 -5.019738445627437 -1.380515456328600 73.000000000000000
1.783849774034225 -5.018223497508505 -1.481248430457075 77.000000000000000
1.796374748213214 -5.022142828753940 -1.584050242756614 84.000000000000000
1.661022433770918 -4.614999000499907 -1.550330513114736 7.000000000000000
1.749604114310843 -4.831745893816072 -1.723228673385540 38.000000000000000
1.661201309204773 -4.558403067326683 -1.721416767108719 3.000000000000000
1.665084550644658 -4.540263762431493 -1.811185911704235 4.000000000000000
1.758648280828409 -4.765061745064852 -2.003233084306165 7.000000000000000
1.775442333534898 -4.780115616897009 -2.113929802379793 42.000000000000000
1.736338862699091 -4.645373585854522 -2.156871716566825 39.000000000000000
1.727424058680303 -4.592571374242501 -2.235611391539419 62.000000000000000
1.733454004429285 -4.579236189495624 -2.333561470229929 22.000000000000000
1.892672493998448 -4.969025358171509 -2.647674039663911 48.000000000000000
1.922668834034060 -5.014156870399817 -2.790748901935897 45.000000000000000
1.934596405503550 -5.013609318656412 -2.911632248017309 52.000000000000000
1.946413817421247 -5.010402927715787 -3.033301790671136 73.000000000000000
1.876328585109705 -5.459651635721936 -1.177819620000870 6.000000000000000
1.741338197394236 -5.037211956987647 -1.185679966380671 25.000000000000000
1.744547515867035 -5.017383012554761 -1.279733437169269 77.000000000000000
1.756529578574175 -5.021253621142375 -1.381170486130740 75.000000000000000
1.766428843964716 -5.019803317060067 -1.481850126444044 78.000000000000000
1.778795545845256 -5.023795654363044 -1.584602041297458 80.000000000000000
1.633110526871086 -4.583959336787554 -1.539832070617136 21.000000000000000
1.647915917356263 -4.597738460320036 -1.639596956516389 8.000000000000000
1.657512644512311 -4.595228777587702 -1.735044758763196 6.000000000000000
1.611470077522979 -4.439583696369755 -1.770648692478534 13.000000000000000
1.769276473818708 -4.843684362810462 -2.035759944752091 7.000000000000000
1.757788575367522 -4.781946946654434 -2.114099979586999 42.000000000000000
1.721547563739278 -4.654010901335445 -2.160139003868543 38.000000000000000
1.710126028576590 -4.594346715647076 -2.235618756140629 64.000000000000000
1.716056595036679 -4.581074906614783 -2.333517187126650 22.000000000000000
1.866165278679150 -4.951291376118240 -2.637021968325163 44.000000000000000
1.903410818054521 -5.016662748451860 -2.790775183709438 72.000000000000000
1.915172085670654 -5.016201835921452 -2.911614504629031 64.000000000000000
1.925579912592076 -5.009831976727649 -3.031273917873314 73.000000000000000
1.856861231625448 -5.457651448034581 -1.177948656883000 7.000000000000000
1.724300994994405 -5.038563944918004 -1.186421279155774 25.000000000000000
1.726164647202302 -5.015100372458782 -1.279476402640055 77.000000000000000
1.737988660270404 -5.019058684222784 -1.380793011678198 73.000000000000000
1.749014419814252 -5.021330815773830 -1.482425511734718 77.000000000000000
1.758686797307891 -5.018159704163690 -1.582844885793519 80.000000000000000
1.616831021908276 -4.585168269387368 -1.540158884011090 40.000000000000000
1.625117776752001 -4.581161074870352 -1.633505254897379 26.000000000000000
1.633321308748682 -4.575288619556574 -1.727232338205716 12.000000000000000
1.607927648443476 -4.476088233592983 -1.784825706465893 9.000000000000000
1.676951193113215 -4.639041332549318 -1.949242471016682 20.000000000000000
1.737615821809000 -4.776782167802414 -2.111174880762817 41.000000000000000
1.701673655704814 -4.648836886607391 -2.156993827343675 36.000000000000000
1.692835016066286 -4.596069905077061 -2.235599927541776 64.000000000000000
1.697411551792163 -4.579476499868194 -2.331723184899413 23.000000000000000
1.847310617712455 -4.953577750210399 -2.637039050584445 40.000000000000000
1.882910806325985 -5.015789281900047 -2.788925379962224 73.000000000000000
1.895752547549721 -5.018736253497596 -2.911567395113437 70.000000000000000
1.906012058304049 -5.012449689694798 -3.031182300997102 73.000000000000000
1.838673204325122 -5.459303413147586 -1.178849901765240 8.000000000000000
1.706018026037682 -5.036167158553517 -1.186265925474340 25.000000000000000
1.710319646162108 -5.020119854373681 -1.281069613906709 79.000000000000000
1.719477828495751 -5.016804497308899 -1.380387131602129 73.000000000000000
1.731606697356177 -5.022806040071102 -1.482974622000149 79.000000000000000
1.694663341473734 -4.885696039732167 -1.541073121694910 48.000000000000000
1.600559529893951 -4.586328033173123 -1.540461087920112 41.000000000000000
1.608724772820799 -4.582382525577886 -1.633753651745300 35.000000000000000
1.614300940171969 -4.569466316839164 -1.724745214178670 23.000000000000000
1.624223937490051 -4.569070814347066 -1.821507204039049 18.000000000000000
1.638651416830104 -4.580996662028197 -1.924347971809467 18.000000000000000
1.719999267682103 -4.778499774395423 -2.111289280339368 40.000000000000000
1.684351691553148 -4.650490219212048 -2.157015553994712 37.000000000000000
1.674305453533608 -4.594322596198688 -2.233892819793680 64.000000000000000
1.678797466655447 -4.577818134476272 -2.329900468606208 24.000000000000000
1.827222765300450 -4.952450060613242 -2.635241044591495 36.000000000000000
1.863674856437689 -5.018176159490965 -2.788892264286748 75.000000000000000
1.875107622083809 -5.017920014647864 -2.909581779603313 73.000000000000000
1.885223262003261 -5.011750309754255 -3.029091627052558 73.000000000000000
1.820490891461925 -5.460901089559102 -1.179723782991759 10.000000000000000
1.689006226995893 -5.037413265314212 -1.186954742020737 26.000000000000000
1.694458426793655 -5.025095313572445 -1.282639360607738 79.000000000000000
1.702240732123873 -5.018156768448822 -1.380961671144297 74.000000000000000
1.712961891027537 -5.020583007182554 -1.482420934781056 77.000000000000000
1.662628592171920 -4.843541920282771 -1.527777415383506 36.000000000000000
1.584296235325920 -4.587438679288995 -1.540738719736528 43.000000000000000
1.591095886693083 -4.579973597918415 -1.632700744692241 41.000000000000000
1.554302434784723 -4.446199642076780 -1.677931072487364 16.000000000000000
1.601398226149775 -4.552706949943302 -1.814585117657007 12.000000000000000
1.619377050786429 -4.575364161857416 -1.921473589143765 33.000000000000000
1.703628746896275 -4.783643444156577 -2.112913744554289 39.000000000000000
1.667037080913345 -4.652091404915548 -2.157011110581210 37.000000000000000
1.657040989566284 -4.595937879548924 -2.233820531337405 64.000000000000000
1.660214572399991 -4.576099958562336 -2.328049128097707 24.000000000000000
1.801030298193989 -4.934451729325054 -2.624473279716952 33.000000000000000
1.844444313255864 -5.020505525526346 -2.788830120939161 74.000000000000000
1.855710225106143 -5.020334611250144 -2.909474858375712 72.000000000000000
1.865677186638022 -5.014247364523839 -3.028939748926045 73.000000000000000
1.801086760717668 -5.458723509598538 -1.179766131961657 14.000000000000000
1.669542812584906 -5.031198632857053 -1.185871457487450 29.000000000000000
1.674889251625447 -5.018963592369492 -1.281361172058474 79.000000000000000
1.686242542057247 -5.023126533319288 -1.382520133531538 74.000000000000000
1.695579886298755 -5.021950180950931 -1.482916460636270 78.000000000000000
1.643210861458090 -4.837539300863425 -1.525875347919338 35.000000000000000
1.566808585499836 -4.584892947912590 -1.539780345564069 42.000000000000000
1.574731166489155 -4.581092469932447 -1.632898507322466 46.000000000000000
1.544405634760616 -4.465051040021169 -1.684751152344325 20.000000000000000
1.560242385127233 -4.483221083100013 -1.786492770682275 7.000000000000000
1.605074322223550 -4.583705151076604 -1.924463433825757 33.000000000000000
1.684787449198479 -4.781776185283982 -2.111438316616010 38.000000000000000
1.648505274973185 -4.650185674683896 -2.155379212424176 38.000000000000000
1.639784140484350 -4.597501191197493 -2.233722178238295 63.000000000000000
1.644100611192818 -4.581113987538066 -2.329623105452571 24.000000000000000
1.777417060761836 -4.923082568910196 -2.617241030513877 33.000000000000000
1.824008230103245 -5.019444459144737 -2.786888461721571 75.000000000000000
1.833905237441962 -5.016091148411481 -2.905515646302895 75.000000000000000
1.844934467656075 -5.013419987366650 -3.026786553479972 73.000000000000000
1.782928032606539 -5.460209188333415 -1.180584283389004 14.000000000000000
1.652568830293183 -5.032335609651942 -1.186506878603087 25.000000000000000
1.659031021078708 -5.023840110132915 -1.282880594177899 79.000000000000000
1.669008287588130 -5.024379050074526 -1.383043924513730 74.000000000000000
1.679425693400829 -5.026918539512163 -1.484464663592245 79.000000000000000
1.626289920470128 -4.838736629169525 -1.526234886284022 34.000000000000000
1.549353126052066 -4.582290933153701 -1.538795208833870 48.000000000000000
1.557154621542388 -4.578573778164672 -1.631792769475359 39.000000000000000
1.525861014132037 -4.458940373941659 -1.682145923273293 27.000000000000000
1.575625457635717 -4.576347817402963 -1.823192000695860 33.000000000000000
1.587080922287089 -4.581470126708723 -1.923008482609458 37.000000000000000
1.667192580379301 -4.783335087054966 -2.111473027267237 36.000000000000000
1.632430700167681 -4.655137533992677 -2.156923862532616 38.000000000000000
1.621325156468523 -4.595583041816885 -2.231932177008831 63.000000000000000
1.626763677671832 -4.582683622145082 -2.329445160618909 25.000000000000000
1.755108769575718 -4.914996580173844 -2.611761440836018 28.000000000000000
1.803601896607446 -5.018318601905611 -2.784915547789940 78.000000000000000
1.814542846085065 -5.018382547644664 -2.905347976614327 71.000000000000000
1.824221120975859 -5.012526936125420 -3.024601629372484 72.000000000000000
1.761161761548084 -5.450456495775958 -1.178955994647176 16.000000000000000
1.635602462553246 -5.033421726918164 -1.187116802794880 29.000000000000000
1.641949760945393 -5.024977719754924 -1.283432857027576 80.000000000000000
1.651781580753838 -5.025579931341793 -1.383541818369424 76.000000000000000
1.659629206956490 -5.020871418285823 -1.482749168422452 81.000000000000000
1.606958696835073 -4.832610592750840 -1.524275108206681 34.000000000000000
1.533139175970062 -4.583247334681840 -1.538997120282445 50.000000000000000
1.539610487488044 -4.575998576008521 -1.630660166676310 44.000000000000000
1.507372919780591 -4.452766613399086 -1.679511943187834 10.000000000000000
1.556611367152384 -4.570411366483317 -1.820412313947607 45.000000000000000
1.569119781585757 -4.579177318574025 -1.921526007134298 40.000000000000000
1.648402121793011 -4.781351148351063 -2.109941146342774 36.000000000000000
1.617541013439198 -4.663506864382789 -2.160048331796466 38.000000000000000
1.605294063973136 -4.600472100998816 -2.233447428551687 66.000000000000000
1.608239837967518 -4.580797862060030 -2.327511884077174 26.000000000000000
1.722160041933494 -4.876481222591895 -2.590125803059821 20.000000000000000
1.785600030089479 -5.023808695036624 -2.786617075993553 77.000000000000000
1.795186351770298 -5.020616161797241 -2.905151169615442 72.000000000000000
1.804715411576236 -5.014841749548883 -3.024359190010461 73.000000000000000
1.743050614613322 -5.451823509661025 -1.179716480517021 19.000000000000000
1.617449328031132 -5.030741567657837 -1.186824734613834 23.000000000000000
1.623680652511487 -5.022365818816239 -1.283014700089659 79.000000000000000
1.633366009062861 -5.023049336958387 -1.383000664829910 77.000000000000000
1.643478443465312 -5.025739303896263 -1.484246291939836 79.000000000000000
1.590077577728079 -4.833699230200765 -1.524581597935292 33.000000000000000
1.516934181363317 -4.584154894413153 -1.539174646828465 42.000000000000000
1.524492221020721 -4.580557844246257 -1.632062898163362 48.000000000000000
1.516448155406706 -4.528674741919929 -1.707827296262731 26.000000000000000
1.541237947298475 -4.575050206184214 -1.821840059033990 52.000000000000000
1.549997900133842 -4.573306242613732 -1.918539163230957 46.000000000000000
1.628452130753190 -4.775813594469272 -2.106839378957940 43.000000000000000
1.596667189348026 -4.654509920745268 -2.155127672353391 39.000000000000000
1.588061224257788 -4.601879801418619 -2.233271107882825 67.000000000000000
1.592113773705895 -4.585666560547129 -2.329010933219474 26.000000000000000
1.689505723071294 -4.837823279428738 -2.568435385351698 15.000000000000000
1.765229980567644 -5.022560924664338 -2.784584147362056 78.000000000000000
1.774665345640501 -5.019481032584416 -2.903010346951585 74.000000000000000
1.785215643967368 -5.017098400478436 -3.024087423414028 71.000000000000000
1.724946235856333 -5.453136587476178 -1.180449847191202 20.000000000000000
1.601693329659712 -5.035441581227368 -1.188260308084894 22.000000000000000
1.607810809931306 -5.027099521813523 -1.284460508248614 79.000000000000000
1.616166707302858 -5.024143596104161 -1.383445806647803 76.000000000000000
1.624941576522561 -5.023234456633134 -1.483555346652763 80.000000000000000
1.574390410578499 -4.838380581781315 -1.526011854777011 32.000000000000000
1.501923742226348 -4.588635320106216 -1.540543725965126 37.000000000000000
1.510544030542726 -4.588674049990792 -1.634725418757789 41.000000000000000
1.508456329575051 -4.554632901674390 -1.717292820910308 53.000000000000000
1.519935460521467 -4.561895747237813 -1.816178236622979 32.000000000000000
1.534476448092128 -4.577943165392885 -1.919956875735270 47.000000000000000
1.601482260189276 -4.749225747016726 -2.094453001184910 12.000000000000000
1.581758050509540 -4.662786216072042 -2.158203459560018 37.000000000000000
1.568488737818718 -4.596354963764695 -2.229730953817409 65.000000000000000
1.572459480368878 -4.580259030561978 -2.325291894699136 27.000000000000000
1.662981461969013 -4.815921969409505 -2.555658083880996 12.000000000000000
1.746053662980538 -5.024596232007338 -2.784375210220401 76.000000000000000
1.754174641204734 -5.018281046491596 -2.900838269634735 73.000000000000000
1.765722034069982 -5.019296934054159 -3.023786365832464 75.000000000000000
1.706848825719212 -5.454395775962635 -1.181156130789625 22.000000000000000
1.584750943203541 -5.036375418877981 -1.188793963703182 21.000000000000000
1.590753500278763 -5.028083815015120 -1.284935971375173 80.000000000000000
1.598975541428767 -5.025186402496467 -1.383865180600045 77.000000000000000
1.607609793958411 -5.024338149166760 -1.483919442960611 80.000000000000000
1.556340779466098 -4.835724623151033 -1.525118601034575 30.000000000000000
1.484551788956726 -4.585823705011715 -1.539456700416744 39.000000000000000
1.494211844161645 -4.589550268541112 -1.634801302085749 38.000000000000000
1.487413753632841 -4.541226903194816 -1.711909617708680 27.000000000000000
1.469465389500325 -4.459822135847345 -1.775121963603257 8.000000000000000
1.518940095283370 -4.582536941334544 -1.921351651375873 39.000000000000000
1.578214216777639 -4.733030967134847 -2.086653241461914 18.000000000000000
1.564479657442169 -4.664079125251020 -2.158043863049893 39.000000000000000
1.552458888690626 -4.601096019193212 -2.231170728808052 68.000000000000000
1.556338264350134 -4.585027383188470 -2.326740016059273 27.000000000000000
1.636632795365469 -4.793916073525518 -2.542838133489408 12.000000000000000
1.725732799678639 -5.023223316005107 -2.782281405907029 75.000000000000000
1.734861123679874 -5.020334482313476 -2.900552114208341 73.000000000000000
1.746234797507690 -5.021437396060691 -3.023456053825904 71.000000000000000
1.686442043078581 -5.448117444652766 -1.180214194376234 23.000000000000000
1.566657300783992 -5.033532815226071 -1.188422609992978 23.000000000000000
1.573704554830345 -5.029017104462978 -1.285385909804923 77.000000000000000
1.581792703038730 -5.026177807365119 -1.384258824556955 76.000000000000000
1.590286290738718 -5.025390025312423 -1.484257594549848 81.000000000000000
1.539485477838796 -4.836661483767982 -1.525349191155503 31.000000000000000
1.468374755535581 -4.586585065520086 -1.539561305714695 38.000000000000000
1.477889082834855 -4.590377383463710 -1.634852695573032 39.000000000000000
1.444432506645511 -4.459684369331124 -1.680842068633880 11.000000000000000
1.474167901879421 -4.524681641246420 -1.800507995660121 13.000000000000000
1.502231651707884 -4.583556279892064 -1.921243319746104 37.000000000000000
1.558540577959467 -4.727261682764219 -2.083450083280848 29.000000000000000
1.547209965459180 -4.665320212626304 -2.157858344851267 38.000000000000000
