# This PCD file was generated using the MATLAB® pcwrite function
# from Computer Vision Toolbox®.
# .PCD v.7 - Point Cloud Data file format
VERSION .7
FIELDS x y z intensity
SIZE 8 8 8 8
TYPE F F F F
COUNT 1 1 1 1
WIDTH 629
HEIGHT 1
VIEWPOINT 0 0 0 1 0 0 0
POINTS 629
DATA ascii
-6.015113907188503 -9.209469120225737 -2.349805780730834 26.000000000000000
-5.942763338941235 -8.993671684357569 -2.491892760798690 32.000000000000000
-5.366551512668894 -8.029081665069096 -2.403388540690513 5.000000000000000
-5.340800724035754 -7.898554801926853 -2.542853449787736 33.000000000000000
-5.308660822798461 -7.760676529864595 -2.675854268695057 33.000000000000000
-5.372791324891625 -7.763193228758914 -2.857348468794284 28.000000000000000
-5.433451964159757 -7.759285533818963 -3.038715478263178 24.000000000000000
-5.652077057706853 -9.217138737556411 -1.177180711012892 33.000000000000000
-5.703708693692548 -9.192665815103785 -1.363751571701493 75.000000000000000
-5.764141935383331 -9.182142175378431 -1.552171646401245 66.000000000000000
-5.833283081390950 -9.184956227819354 -1.746364104475517 71.000000000000000
-5.905598812838997 -9.190793426487048 -1.942790481095959 81.000000000000000
-5.988336751380958 -9.213596536417766 -2.144732574511490 29.000000000000000
-6.065660184375388 -9.225715338884260 -2.347953792892606 23.000000000000000
-5.988686472211045 -9.003417938480174 -2.489039124363019 28.000000000000000
-5.392385422675566 -8.014461573648761 -2.394345241986521 5.000000000000000
-5.379520845421053 -7.903205507037132 -2.540031926417126 32.000000000000000
-5.342863978192985 -7.758943270410310 -2.671304519721098 33.000000000000000
-5.407286665213539 -7.761202163643143 -2.852961951247309 32.000000000000000
-5.470414018269304 -7.760157015255713 -3.035713683353588 24.000000000000000
-4.514646909266151 -6.103162402926595 -2.992485917787564 56.000000000000000
-5.685746057867588 -9.211661569442658 -1.168814311811925 30.000000000000000
-5.737616155293982 -9.187022863795359 -1.355517522797415 75.000000000000000
-5.802558123566557 -9.183001879537501 -1.545179505119854 57.000000000000000
-5.876299642452511 -9.192213260450906 -1.740868141618719 66.000000000000000
-5.946853595665202 -9.194428944234373 -1.936958621434394 77.000000000000000
-6.030006377019700 -9.216906111328065 -2.139173865786772 24.000000000000000
-6.112032601733899 -9.235234504232817 -2.344333834412153 29.000000000000000
-6.026038433973932 -9.000029208810695 -2.482514659135634 37.000000000000000
-5.435587213211189 -8.025490556394763 -2.392937311505150 0.000000000000000
-5.416126357975534 -7.904522148596412 -2.536109003333936 35.000000000000000
-5.383676066652861 -7.766580707878854 -2.669954328701741 34.000000000000000
-5.441811678316375 -7.759090246962438 -2.848511926819316 33.000000000000000
-5.507426178241587 -7.760895011591324 -3.032640682685004 28.000000000000000
-4.502570711393997 -6.119865056673188 -2.842297077542639 0.000000000000000
-4.511486132004396 -6.058185849924001 -2.968894253507968 57.000000000000000
-4.508846934824865 -5.979377520656205 -3.086639561690296 56.000000000000000
-5.721516695436744 -9.209449979817645 -1.160815994494973 28.000000000000000
-5.779976507316148 -9.194708949646282 -1.349197875097646 75.000000000000000
-5.843142834203914 -9.187065885257667 -1.538674182218643 65.000000000000000
-5.915124256080174 -9.192663688477023 -1.734030952920947 63.000000000000000
-5.981723216203641 -9.188008531429405 -1.928966197503417 78.000000000000000
-6.078218636903905 -9.229902944614841 -2.135810346211553 24.000000000000000
-6.154168493967429 -9.238061341427404 -2.338967464477260 31.000000000000000
-6.065592214672376 -8.999745164234206 -2.476812884363465 37.000000000000000
-5.964649465287832 -8.748839059811734 -2.603456906068176 66.000000000000000
-5.452781578765976 -7.905706110808273 -2.532115310130867 31.000000000000000
-5.417970052177522 -7.764589301478892 -2.665267246087536 34.000000000000000
-5.480785836963054 -7.763117845672125 -2.846293717020816 33.000000000000000
-5.546703882237946 -7.764601340665796 -3.030707188643839 29.000000000000000
-4.508086587894912 -6.086658656570687 -2.825030568761179 51.000000000000000
-4.512519301191700 -6.019239712608163 -2.948274552773738 54.000000000000000
-4.512037153892519 -5.943702918307172 -3.067008369861468 56.000000000000000
-5.759418616253555 -9.210486448453356 -1.153175002161003 23.000000000000000
-5.818174391158497 -9.195525138807662 -1.341812272869705 56.000000000000000
-5.881654491748851 -9.187644125535909 -1.531532520776512 76.000000000000000
-5.953991010148219 -9.192975080179686 -1.727120211875674 63.000000000000000
-6.027391839575167 -9.197949535833631 -1.924361698974647 77.000000000000000
-6.124384066688167 -9.239437097513036 -2.131587653556852 29.000000000000000
-6.189825169756027 -9.230979441071195 -2.331055324606361 34.000000000000000
-6.102998532343423 -8.996092004498715 -2.470150108962674 37.000000000000000
-5.999371841368044 -8.742189129263437 -2.596290187399783 67.000000000000000
-5.493898696453083 -7.913113009683689 -2.530082925337795 33.000000000000000
-5.452293047912860 -7.762477349028701 -2.660516853075257 34.000000000000000
-5.510948658494413 -7.754503012760884 -2.839421051644337 34.000000000000000
-5.579372072142776 -7.758873231640553 -3.025073462897202 31.000000000000000
-4.504611803811930 -6.116207958126104 -2.683208659406333 7.000000000000000
-4.511171234065642 -6.050470418099063 -2.806393738705745 54.000000000000000
-4.508832043984941 -5.974393791329398 -2.924781773954998 57.000000000000000
-4.508274372054478 -5.899241871518853 -3.042857789578001 57.000000000000000
-5.805838094340153 -9.224853489397100 -1.147136487723616 23.000000000000000
-5.873475793135687 -9.222995606239506 -1.338241441121846 35.000000000000000
-5.920207904350721 -9.188084120932643 -1.524317734571325 67.000000000000000
-5.990741254845879 -9.189836701073791 -1.719516392793270 63.000000000000000
-6.066653600137230 -9.197845744862574 -1.917603647695587 76.000000000000000
-6.164110267977832 -9.238989542698787 -2.125013137397676 32.000000000000000
-6.225481331848150 -9.223778706877461 -2.323082554143124 32.000000000000000
-6.138225961023277 -8.989087396779331 -2.462537273724570 38.000000000000000
-6.082686951159761 -8.805766830867150 -2.609913020502925 66.000000000000000
-5.519588711161043 -7.898158952718489 -2.520877945719777 21.000000000000000
-5.488868553286473 -7.763390261138881 -2.656779565187299 34.000000000000000
-5.552251738152955 -7.761382096055189 -2.838200943416695 34.000000000000000
-5.616520677612849 -7.759215008381994 -3.021789855639692 31.000000000000000
-4.512022727710964 -6.085866086500936 -2.667753527183029 56.000000000000000
-4.511793780982384 -6.011319197896950 -2.786398101292103 56.000000000000000
-4.509381267609222 -5.935556338949308 -2.904247153823818 59.000000000000000
-4.511012175678455 -5.863658106950055 -3.023300639314523 58.000000000000000
-5.848120981422436 -9.232315244645644 -1.140166746634172 28.000000000000000
-5.911837114393295 -9.223489833545818 -1.330681488320509 34.000000000000000
-5.960958334908967 -9.191709906261540 -1.517578574114956 70.000000000000000
-6.029680361107097 -9.189875136454056 -1.712461888411807 61.000000000000000
-6.103776109117371 -9.194317630042594 -1.910089141285278 84.000000000000000
-6.195114068031336 -9.225351402823177 -2.115371640754564 33.000000000000000
-6.265537997816722 -9.222938100167113 -2.316676584765489 28.000000000000000
-6.173453536063422 -8.981965070405131 -2.454864336799114 36.000000000000000
-6.106543975244739 -8.782794795445170 -2.597826064135824 76.000000000000000
-5.603125623645282 -7.965445443976130 -2.537864875183385 15.000000000000000
-5.525492662995227 -7.764170120848394 -2.652971384261603 34.000000000000000
-5.589162299328831 -7.761878733829561 -2.834621546712303 33.000000000000000
-5.653717065406977 -7.759422140428557 -3.018434592790279 32.000000000000000
-4.505231983172122 -6.109572081312645 -2.525076981212271 25.000000000000000
-4.512492563369941 -6.046463179964488 -2.648340967259448 56.000000000000000
-4.512185243351480 -5.972217621878388 -2.766441939858201 58.000000000000000
-4.509699524414761 -5.896768631342093 -2.883752053820368 58.000000000000000
-4.511271769081620 -5.825183343953610 -3.002266149896210 57.000000000000000
-5.884067714658256 -9.229551470451488 -1.131875780995043 29.000000000000000
-5.941627875591010 -9.210497457440511 -1.321133897257093 35.000000000000000
-5.999603518906310 -9.191866652177284 -1.510213582417461 68.000000000000000
-6.073016359715263 -9.196370856178877 -1.706557754737457 69.000000000000000
-6.145298517920996 -9.197215975458693 -1.903864602960366 85.000000000000000
-6.230477638583347 -9.218131333072238 -2.107173253756016 31.000000000000000
-6.305633983345451 -9.221954371846371 -2.310195150125335 25.000000000000000
-6.384104875691420 -9.228302634741601 -2.516274114200246 29.000000000000000
-6.165966150038467 -8.810732169006929 -2.600760673842605 75.000000000000000
-5.599887894207177 -7.909109233667684 -2.515430520253835 14.000000000000000
-5.559920174186969 -7.761683132338121 -2.648023151304885 33.000000000000000
-5.623869138265277 -7.759135085882202 -2.829837916683424 35.000000000000000
-4.474210233743829 -6.100483051341796 -2.370386745776619 0.000000000000000
-4.514566228597888 -6.082143187696095 -2.511299665903178 57.000000000000000
-4.512731655376622 -6.007110694737769 -2.628968259171056 56.000000000000000
-4.510073940683768 -5.930179112206791 -2.745142755251803 57.000000000000000
-4.509787211764574 -5.858031586095773 -2.863296918049008 56.000000000000000
-4.511300944745974 -5.786759298104991 -2.981271643398083 55.000000000000000
-5.920034521114257 -9.226662189477466 -1.123519519226267 33.000000000000000
-5.980029605187479 -9.210739093035830 -1.313442530567207 31.000000000000000
-6.038288634701357 -9.191884312664735 -1.502775148391921 70.000000000000000
-6.112055721437289 -9.196117380606051 -1.699348104468593 79.000000000000000
-6.184680456322779 -9.196689457968979 -1.896883408873959 73.000000000000000
-6.274683423020946 -9.223793403213893 -2.101877064838477 28.000000000000000
-6.354653190306761 -9.233737058002172 -2.306863406142965 24.000000000000000
-6.433522103248460 -9.239687766597514 -2.513415867460399 32.000000000000000
-6.218895198727024 -8.828880885537687 -2.600743896702870 75.000000000000000
-5.724436228213190 -8.032621933153349 -2.550129163031575 78.000000000000000
-5.596629469786420 -7.762202109458591 -2.644076585470776 33.000000000000000
-5.660864080781510 -7.759369249774845 -2.826119371959766 35.000000000000000
-4.512755005560781 -6.112932815257389 -2.372487019128970 44.000000000000000
-4.512386420214644 -6.039503749108571 -2.491257365100199 54.000000000000000
-4.512740404363923 -5.967809547293903 -2.609635846253090 57.000000000000000
-4.514558892500879 -5.897148441846702 -2.728029006621125 56.000000000000000
-4.509644731134373 -5.819346119218052 -2.842882189555838 57.000000000000000
-4.508811367527950 -5.745470402421244 -2.958815625711103 59.000000000000000
-4.540285050484601 -5.713775244009093 -3.097057978355406 3.000000000000000
-5.949544587627803 -9.213617884221396 -1.113885399574103 32.000000000000000
-6.022816184298709 -9.217492680263337 -1.306620794049037 29.000000000000000
-6.079199054873969 -9.195069010513338 -1.495801037276251 73.000000000000000
-6.148935774547659 -9.192436952199962 -1.691459641941439 84.000000000000000
-6.224101232864623 -9.196021495888878 -1.889827635051086 71.000000000000000
-6.316747056392743 -9.226044547688687 -2.095753952547260 23.000000000000000
-6.401560441944972 -9.242106061244330 -2.302623603812863 28.000000000000000
-6.469612786272154 -9.231693349397238 -2.505244957763331 35.000000000000000
-6.532944798187402 -9.214902819402562 -2.708810494073538 29.000000000000000
-6.091407743961211 -8.492319557662922 -2.691193829389698 69.000000000000000
-5.635650767769542 -7.765708451622364 -2.641120343365583 32.000000000000000
-4.505162118558129 -6.135178015045542 -2.231530642677953 0.000000000000000
-4.514971735571074 -6.076175154341541 -2.355485028769420 53.000000000000000
-4.512239631556485 -5.999965118346782 -2.472514526960940 56.000000000000000
-4.512519215071183 -5.928560652513867 -2.590344170776868 56.000000000000000
-4.511977114363336 -5.855219930390203 -2.706814749151268 55.000000000000000
-4.509272488104589 -5.780713145122047 -2.822508310321906 59.000000000000000
-4.517566701725040 -5.718798007400004 -2.943898851187468 15.000000000000000
-4.546837773248531 -5.684329919266685 -3.080239541446402 2.000000000000000
-5.983351561889158 -9.207157844718207 -1.105008827694416 27.000000000000000
-6.067864037610245 -9.227402720168778 -1.300178857272370 23.000000000000000
-6.117972216842556 -9.194801672288410 -1.488211732659309 74.000000000000000
-6.192459559718969 -9.198469390970914 -1.685307528202594 75.000000000000000
-6.263560234668948 -9.195211824657273 -1.882697183924422 76.000000000000000
-6.365562204853890 -9.237854387700990 -2.091747625257229 24.000000000000000
-6.439600186547244 -9.237433333632710 -2.295090160344905 32.000000000000000
-6.505699782769448 -9.223578361376482 -2.497012724841638 32.000000000000000
-6.585119850702658 -9.228741028280307 -2.707188871286519 23.000000000000000
-6.125746712943547 -8.485145405302365 -2.684017634021331 46.000000000000000
-5.670188080661874 -7.762838073811395 -2.635969683001719 32.000000000000000
-4.516335344385140 -6.110592236411961 -2.219557067831200 54.000000000000000
-4.514691277318155 -6.036398478971439 -2.337331827870970 54.000000000000000
-4.514157109437350 -5.963509753868294 -2.455060285784026 56.000000000000000
-4.512068496336219 -5.889364923672206 -2.571093673942992 55.000000000000000
-4.511448250270649 -5.816326094617146 -2.687020924035680 56.000000000000000
-4.510977117872792 -5.745070729336641 -2.803609059221245 70.000000000000000
-4.505391455893315 -5.665992314450541 -2.915543675157500 2.000000000000000
-4.539355027955290 -5.637677576479238 -3.054109276669746 2.000000000000000
-6.023692963765945 -9.210577250573287 -1.097264685250766 25.000000000000000
-6.113009604750724 -9.237137505326530 -1.293641480440120 30.000000000000000
-6.154577532513672 -9.191100124968026 -1.480018205661893 82.000000000000000
-6.229405941555382 -9.194513387057279 -1.677274333714954 77.000000000000000
-6.305287228536010 -9.197513635418852 -1.876155615066343 73.000000000000000
-6.410012597010754 -9.243008362830681 -2.086177104371895 29.000000000000000
-6.477656388424004 -9.232628504554159 -2.287488275468033 34.000000000000000
-6.546305091439592 -9.221713502484960 -2.490439665576872 30.000000000000000
-6.617002763706377 -9.213923640192153 -2.697125428638861 27.000000000000000
-6.504084655433807 -8.951286123973018 -2.826262465115114 21.000000000000000
-4.507118710574954 -6.130775428809271 -2.078465195834096 13.000000000000000
-4.515920159344613 -6.070590519326239 -2.201998151927315 54.000000000000000
-4.514181758312064 -5.996675525819516 -2.319220060916991 56.000000000000000
-4.511257929149917 -5.921047851054749 -2.435152611686163 56.000000000000000
-4.516006254394395 -5.856211218453961 -2.554496755747532 53.000000000000000
-4.513003502532277 -5.780449290356319 -2.668636615905308 58.000000000000000
-4.517106216549442 -5.715332082988152 -2.787603022235535 11.000000000000000
-4.499843535418459 -5.621996825246441 -2.891739935345436 2.000000000000000
-4.519974451074368 -5.576794881483499 -3.020287041242010 4.000000000000000
-6.072845496573894 -9.227146811589922 -1.091012966058672 22.000000000000000
-6.156049559961568 -9.243389404470451 -1.286548146250412 31.000000000000000
-6.195632219635923 -9.193847011244580 -1.472811777804049 76.000000000000000
-6.273054903098846 -9.200233235738565 -1.670954993624605 77.000000000000000
-6.342590455701825 -9.193166306484404 -1.868211865008895 68.000000000000000
-6.445534346928246 -9.235091439585492 -2.077613314614406 33.000000000000000
-6.511205249678010 -9.221285506776905 -2.278235237869823 30.000000000000000
-6.596031634210538 -9.232419991995895 -2.487216068597247 22.000000000000000
-6.500631884165779 -8.993955965663270 -2.627119562234904 67.000000000000000
-6.494191600944695 -8.880360935255156 -2.798672740749368 34.000000000000000
-4.515711124606501 -6.102995755948188 -2.065725016061795 62.000000000000000
-4.515276438642382 -6.030643207917550 -2.184480986742361 55.000000000000000
-4.515752260859161 -5.960054266901521 -2.302327225685862 55.000000000000000
-4.512738068832966 -5.884688824972217 -2.417774297851810 55.000000000000000
-4.512799139253211 -5.814124339689013 -2.534020144235494 54.000000000000000
-4.514350549009572 -5.744615126376802 -2.650286809094409 66.000000000000000
-4.504454620719164 -5.662213602328849 -2.760210443332888 2.000000000000000
-4.501015601430745 -5.586756722802439 -2.872453981511065 2.000000000000000
-4.546836381163958 -5.573228184960134 -3.017516614915288 6.000000000000000
-6.117737055183931 -9.236879230287652 -1.083872413483261 27.000000000000000
-6.188103811192820 -9.232972065423189 -1.277083419756100 34.000000000000000
-6.234517843997327 -9.193159169072839 -1.465000936849833 72.000000000000000
-6.312303572508373 -9.199262763536737 -1.663366530835717 74.000000000000000
-6.384410851529895 -9.195171100490102 -1.861512963043498 71.000000000000000
-6.485574411345698 -9.233494287097844 -2.070432757910608 33.000000000000000
-6.553815934985754 -9.222621853899923 -2.272078966562199 28.000000000000000
-6.641311173807829 -9.236585040326624 -2.482180228240839 20.000000000000000
-6.492831216393068 -8.925826141380746 -2.601609211483508 21.000000000000000
-4.511830417787888 -6.130158186659954 -1.928328521712500 28.000000000000000
-4.519545154158696 -6.069028392438261 -2.050903696251705 57.000000000000000
-4.516717308115134 -5.993820241818987 -2.168116156328840 57.000000000000000
-4.512477204137050 -5.917394422554430 -2.283122583232269 54.000000000000000
-4.514010322304141 -5.848373018905364 -2.400430761732447 53.000000000000000
-4.511672519420326 -5.775087300756680 -2.514891994926693 55.000000000000000
-4.522490501822779 -5.717675314001363 -2.636052477585023 6.000000000000000
-4.503157272257414 -5.623805982686435 -2.740008184370156 2.000000000000000
-4.527719160926773 -5.583300073707237 -2.869515549133219 5.000000000000000
-4.566689129458041 -5.561011783028127 -3.010066169357759 6.000000000000000
-6.156099727756798 -9.236497417698343 -1.075479239578556 27.000000000000000
-6.220135024982392 -9.222451371750399 -1.267567342071606 34.000000000000000
-6.275675460468760 -9.195606598201280 -1.457635347399095 61.000000000000000
-6.351588234083179 -9.198150512572091 -1.655703491790099 78.000000000000000
-6.424026578471051 -9.193785797366591 -1.854079079014127 73.000000000000000
-6.521106897963810 -9.225326447982582 -2.061740224538950 30.000000000000000
-6.601045083051369 -9.230181783022061 -2.267406461993747 22.000000000000000
-6.597296018442129 -9.117075723055354 -2.443945888337608 21.000000000000000
-4.501754195811674 -6.149252337428541 -1.788431953170604 0.000000000000000
-4.520142836781445 -6.102270538191322 -1.915940242756963 65.000000000000000
-4.518560152297153 -6.028911564234178 -2.034024459222581 60.000000000000000
-4.515627922429157 -5.953978175456156 -2.150679974419697 58.000000000000000
-4.513612017355580 -5.880872592490421 -2.266307152104116 53.000000000000000
-4.512740466464691 -5.809096029132305 -2.381890175186785 53.000000000000000
-4.522014906132644 -5.750982831663762 -2.502279292689534 56.000000000000000
-4.500015134414670 -5.652470037142683 -2.604197816841707 3.000000000000000
-4.499285228634611 -5.582543307742710 -2.718430916644284 2.000000000000000
-4.552089164156814 -5.576870306270016 -2.865049009809412 8.000000000000000
-4.612369568815112 -5.580039277829359 -3.019527217719674 7.000000000000000
-6.194498148218023 -9.235976414123249 -1.067012825359925 31.000000000000000
-6.258839127401778 -9.221693614539840 -1.259347313833498 31.000000000000000
-6.319134104134477 -9.201170528193702 -1.450703651702913 75.000000000000000
-6.390908271965912 -9.196896228262775 -1.647965784196869 75.000000000000000
-6.475029157295444 -9.208401224760976 -1.849813043524765 71.000000000000000
-6.563478047695856 -9.226660305732400 -2.055130049421847 28.000000000000000
-6.655243871187434 -9.247111689243978 -2.264974706629086 26.000000000000000
-6.490428742174347 -8.912551156754818 -2.383100212115619 29.000000000000000
-4.519152798862576 -6.133816160100774 -1.780037441914957 40.000000000000000
-4.519034600465550 -6.061948021962681 -1.899665354429015 60.000000000000000
-4.519674146577041 -5.991935416749393 -2.018226838159523 59.000000000000000
-4.511978268474465 -5.911136771976784 -2.132184365339460 57.000000000000000
-4.512200585657829 -5.841367284968851 -2.248361651711037 54.000000000000000
-4.511243154390359 -5.769876549771230 -2.363392858237107 58.000000000000000
-4.508736079976579 -5.697184448740964 -2.476764889556849 5.000000000000000
-4.507730375533365 -5.625626021590159 -2.590038363943956 3.000000000000000
-4.525809169969437 -5.579126602647158 -2.715289617822624 5.000000000000000
-4.571734568628960 -5.564613462669368 -2.857590601377635 6.000000000000000
-4.632243891826576 -5.567640084097819 -3.011982141478036 14.000000000000000
-4.549093084664808 -5.399277215208568 -3.073037204523310 53.000000000000000
-6.226248796168599 -9.225413913699191 -1.057338190521105 32.000000000000000
-6.297578286277105 -9.220795461209597 -1.251053472377431 29.000000000000000
-6.355900812231987 -9.196777688155178 -1.442147364078940 69.000000000000000
-6.434799409759132 -9.201986783018073 -1.641310391523852 70.000000000000000
-6.512483890374860 -9.203475869722705 -1.841564957594442 74.000000000000000
-6.608194421920375 -9.231037832288187 -2.049146900777163 22.000000000000000
-6.622129762811579 -9.143057202646853 -2.232927762739433 23.000000000000000
-4.505297650630237 -6.147494317716610 -1.639580035517522 0.000000000000000
-4.520242994594111 -6.096429239899478 -1.765281221993123 61.000000000000000
-4.517699881989818 -6.021682945761043 -1.883433640190112 60.000000000000000
-4.515909170885448 -5.948849278510965 -2.000395116438816 60.000000000000000
-4.519796942224123 -5.883616484392332 -2.119233037126471 55.000000000000000
-4.515260690449575 -5.807963868552740 -2.232783150882927 55.000000000000000
-4.521293019125610 -5.745678187724219 -2.351061802317442 48.000000000000000
-4.506927122631003 -5.658320444149816 -2.457766803952165 4.000000000000000
-4.503479600849360 -5.584133444940046 -2.569148721626618 4.000000000000000
-4.554716642612105 -5.578515630768845 -2.713509842027479 9.000000000000000
-4.612667990409634 -5.578098505642540 -2.863348925925515 8.000000000000000
-4.550063979183426 -5.433372345498948 -2.938531391784803 34.000000000000000
-4.575658832691400 -5.395459991706320 -3.070391135459716 72.000000000000000
-6.260212866193931 -9.218043272035324 -1.047987168253618 27.000000000000000
-6.345358787442974 -9.232862214864188 -1.244452160572419 23.000000000000000
-6.397212812414114 -9.198770488064698 -1.434540254086516 69.000000000000000
-6.478764192511430 -9.206909791560767 -1.634564965944832 74.000000000000000
-6.556823139267908 -9.208068081237071 -1.835172071404749 81.000000000000000
-6.662188981311649 -9.248023252489697 -2.045899288503601 25.000000000000000
-6.486694273910406 -8.899707177289631 -2.167068424235228 15.000000000000000
-4.520146203480681 -6.128863305028337 -1.630416170011917 50.000000000000000
-4.523457962260053 -6.062210910777432 -1.751463084657281 53.000000000000000
-4.518477870071148 -5.984573813768486 -1.868212516078887 60.000000000000000
-4.516590334816974 -5.911976779030176 -1.984676878397556 59.000000000000000
-4.513350901389186 -5.837841857939645 -2.099726192296793 55.000000000000000
-4.513415939025208 -5.768563151453042 -2.214917544526511 63.000000000000000
-4.502838023599222 -5.685641421317495 -2.324088501203820 5.000000000000000
-4.507261336790902 -5.622472007457922 -2.440095852056224 4.000000000000000
-4.525097570835333 -5.574887330826136 -2.563103435878936 7.000000000000000
-4.578905296030525 -5.572011942981313 -2.708860497932152 5.000000000000000
-4.594227245062660 -5.519911186512822 -2.832323518550548 21.000000000000000
-4.576560459512636 -5.429613488012085 -2.935685223456825 73.000000000000000
-4.556956680938897 -5.338499052010074 -3.037511757958131 23.000000000000000
-6.300913368530189 -9.220422509854066 -1.039690079809353 26.000000000000000
-6.388728308751205 -9.238197919222381 -1.236870972347648 29.000000000000000
-6.440853325318907 -9.203860126762892 -1.427355319712838 72.000000000000000
-6.518226063540658 -9.205202777282178 -1.626587474959696 65.000000000000000
-6.601235101484712 -9.212491184628236 -1.828688411969949 45.000000000000000
-6.709401646970880 -9.255223164230033 -2.040420966350879 27.000000000000000
-6.498366226121535 -8.859756693363041 -2.150898353156590 26.000000000000000
-4.523251738524913 -6.094494584595264 -1.617074354589283 59.000000000000000
-4.519466152772167 -6.018675389535263 -1.734977881515871 54.000000000000000
-4.521399067006310 -5.950602372525352 -1.853990798512796 60.000000000000000
-4.517065742209027 -5.875151014791125 -1.968995082259078 57.000000000000000
-4.513728214198420 -5.801264481854834 -2.083551779994604 58.000000000000000
-4.527930877795723 -5.750285719303969 -2.205173941500503 40.000000000000000
-4.503015817347372 -5.649592455656443 -2.306948121156863 5.000000000000000
-4.500250093138405 -5.577822118300571 -2.418624715784717 5.000000000000000
-4.556227902574468 -5.577247399065418 -2.562388485265241 13.000000000000000
-4.607864171380901 -5.571200342154508 -2.706975161629985 12.000000000000000
-4.568247109418036 -5.453312081888767 -2.797005842829036 72.000000000000000
-4.598287543879963 -5.420120818683904 -2.929741622510029 74.000000000000000
-4.571395307157403 -5.320687269551232 -3.026917892070205 39.000000000000000
-6.348437173911913 -9.232495488257390 -1.032412954297022 22.000000000000000
-6.432169957200069 -9.243367340929485 -1.229200489070468 30.000000000000000
-6.479996317155024 -9.202292977794933 -1.419079871072591 72.000000000000000
-6.562316201646950 -9.209802060125499 -1.619669127602934 68.000000000000000
-6.666508540611279 -9.245577125404093 -1.827813857087599 27.000000000000000
-6.749742285453927 -9.252693975052956 -2.032746241903770 29.000000000000000
-6.519160352029745 -8.832451448438155 -2.137803946929214 37.000000000000000
-4.537880162459930 -6.075835300876316 -1.607909521017223 30.000000000000000
-4.517579892050922 -5.978322877194510 -1.719439296674918 53.000000000000000
-4.519417506449808 -5.910495765372705 -1.837879541729087 59.000000000000000
-4.517335764177857 -5.838372796112176 -1.953350118974309 59.000000000000000
-4.518646497148391 -5.770796669436207 -2.069588276404884 72.000000000000000
-4.509048468121144 -5.689942517037640 -2.179320092354888 3.000000000000000
-4.505373111007773 -5.616565077310348 -2.291057804365910 5.000000000000000
-4.521651471474194 -5.568577938293808 -2.412515640501160 5.000000000000000
-4.580231130412431 -5.570751973102857 -2.557598335581938 5.000000000000000
-4.569726813700446 -5.489636494673057 -2.665870215239458 68.000000000000000
-4.599452918290934 -5.455235083503317 -2.796844478361205 74.000000000000000
-4.629599526005285 -5.421814452360178 -2.929846458944552 72.000000000000000
-4.602572950285557 -5.322301173019393 -3.027380461880550 51.000000000000000
-6.391538226975877 -9.237826445825997 -1.024305447561369 27.000000000000000
-6.466559087031059 -9.235339607499681 -1.219719602238025 34.000000000000000
-6.521466448300144 -9.203822008553523 -1.411226345616220 74.000000000000000
-6.606477752498085 -9.214232607117870 -1.612660276584521 45.000000000000000
-6.711152216676944 -9.249603530550376 -1.821113519861441 29.000000000000000
-6.778459239803718 -9.234141751118168 -2.021519343111988 26.000000000000000
-6.542171203106767 -8.808257754144272 -2.125456959290852 72.000000000000000
-4.582992407157147 -6.097819486431013 -1.609470132323729 24.000000000000000
-4.522550381940341 -5.947343148914591 -1.706617564620127 48.000000000000000
-4.521948650645923 -5.876606835462018 -1.823723800996905 59.000000000000000
-4.515024446794108 -5.798591041808532 -1.936723050595878 60.000000000000000
-4.532932656693647 -5.752449317004202 -2.059978734156780 33.000000000000000
-4.506526639722076 -5.650724393763195 -2.161589107856720 3.000000000000000
-4.502755110821141 -5.577640194222603 -2.272779416434099 6.000000000000000
-4.557427688914327 -5.576886987985615 -2.414000907943850 14.000000000000000
-4.568164862786367 -5.520592123961664 -2.532771680838297 47.000000000000000
-4.593659444945133 -5.483044498073799 -2.661191450461433 76.000000000000000
-4.625892692139144 -5.451357043257502 -2.793707069064415 74.000000000000000
-4.574116020051647 -5.322331349814523 -2.875292617784909 24.000000000000000
-4.631392208859108 -5.321022929005236 -3.026201777264643 52.000000000000000
-6.434710010168297 -9.242991595724613 -1.016108973685441 27.000000000000000
-6.500941206340013 -9.227195278497442 -1.210179624760292 34.000000000000000
-6.562987913560130 -9.205195794320195 -1.403290431341067 79.000000000000000
-6.673883158072740 -9.250614196112949 -1.611155047494384 25.000000000000000
-6.732570007840551 -9.221550854853662 -1.808065518965940 60.000000000000000
-6.636228254481805 -8.984169073991525 -1.959790959350415 33.000000000000000
-6.572131138059903 -8.793449034523704 -2.115359634052231 36.000000000000000
-4.623554326507075 -6.113362433202100 -1.609275970786552 22.000000000000000
-4.517875043504094 -5.903995892297322 -1.690270272772733 53.000000000000000
-4.517159136098197 -5.833538159508774 -1.806743446292131 59.000000000000000
-4.524420046835595 -5.774098461031892 -1.925218481653787 78.000000000000000
-4.516021844478918 -5.694840338358622 -2.036331068562447 2.000000000000000
-4.508578929936363 -5.617548221827555 -2.146188250824231 4.000000000000000
-4.523963126616152 -5.568381490847612 -2.266596832567084 6.000000000000000
-4.566790035955960 -5.552818061173741 -2.401466291038882 13.000000000000000
-4.589593270939184 -5.511133535545294 -2.526629525818496 75.000000000000000
-4.624839634415007 -5.484973493400203 -2.660644307802385 75.000000000000000
-4.654767605881657 -5.450219339270540 -2.791972723555184 74.000000000000000
-4.573684769242425 -5.287610559302572 -2.855746173025851 38.000000000000000
-4.657822585874142 -5.316871693875266 -3.023393482395018 49.000000000000000
-6.466522781403382 -9.231674388514826 -1.006045278320285 31.000000000000000
-6.539916550856253 -9.225424202845302 -1.201425730285735 29.000000000000000
-6.611502446744011 -9.216091391084138 -1.396738654109207 40.000000000000000
-6.718282846657714 -9.254642114275875 -1.603926098352442 28.000000000000000
-6.772576556734007 -9.218930947080340 -1.799977493231879 61.000000000000000
-6.621779791953250 -8.908996253584954 -1.936399271970753 24.000000000000000
-6.609128745902185 -8.787967546220877 -2.107477076188021 27.000000000000000
-4.661876898636677 -6.125617934743437 -1.608168119167652 17.000000000000000
-4.520096982390122 -5.869997257995291 -1.676625020961896 57.000000000000000
-4.516903081562049 -5.796675947761349 -1.791711614189162 61.000000000000000
-4.538483466135136 -5.755681618172828 -1.915743442594914 25.000000000000000
-4.513186169631406 -5.655441089844230 -2.019227742863419 2.000000000000000
-4.503218481469430 -5.575460131773307 -2.127403024149050 5.000000000000000
-4.559636700024663 -5.576778808687624 -2.267587987876289 15.000000000000000
-4.583286976151429 -5.537518224467587 -2.392728235284989 70.000000000000000
-4.618269234762018 -5.510285156008553 -2.524429990061608 75.000000000000000
-4.653646624929093 -5.483921933559418 -2.658645767474865 74.000000000000000
-4.671523867540716 -5.434836060160148 -2.782941924327624 72.000000000000000
-4.602238545121909 -5.286469406081629 -2.854341533936874 49.000000000000000
-4.684267110938097 -5.312626603049158 -3.020536410963788 48.000000000000000
-6.502899469962084 -9.226767738676621 -0.996634125485961 31.000000000000000
-6.578922555075557 -9.223510912025722 -1.192597362927028 26.000000000000000
-6.678715839686652 -9.252547900296705 -1.393961292659752 27.000000000000000
-6.760414599354426 -9.255300589089451 -1.596054338183996 30.000000000000000
-6.814962089504982 -9.219343670697825 -1.792431309750479 59.000000000000000
-6.892526494989031 -9.215866876430489 -1.995814678717832 27.000000000000000
-6.650881110920821 -8.788621840455168 -2.101025129281199 17.000000000000000
-4.697929713008351 -6.134604851276450 -1.606158065175632 6.000000000000000
-4.519745137910797 -5.832951253672978 -1.662131029915075 63.000000000000000
-4.526037510409759 -5.772099770723379 -1.780492260915208 88.000000000000000
-4.513963382510831 -5.688719164969148 -1.890138842377483 2.000000000000000
-4.510126618144795 -5.616105934167592 -2.002170828003782 2.000000000000000
-4.526646688071486 -5.569168405117031 -2.122283919935710 5.000000000000000
-4.576004524154417 -5.561452724268574 -2.258922351619011 58.000000000000000
-4.614297806670039 -5.539680377250605 -2.391529441437979 75.000000000000000
-4.646979388308238 -5.509330040825136 -2.522173877015642 74.000000000000000
-4.682487519650627 -5.482763312262973 -2.656590501002986 75.000000000000000
-4.566188875057942 -5.278354026459668 -2.701694640157193 26.000000000000000
-4.638154031694497 -5.293584721120304 -2.857394613734295 46.000000000000000
-4.715612025163897 -5.313794046043391 -3.020760841967376 49.000000000000000
-6.539287205231307 -9.221732411772930 -0.987156610247197 26.000000000000000
-6.631876492686250 -9.240848346278455 -1.186183808201017 21.000000000000000
-6.718189089273161 -9.250151112041692 -1.385242132323764 30.000000000000000
-6.781476252452952 -9.227066511705143 -1.583168792639030 26.000000000000000
-6.859755219236060 -9.222769374849536 -1.785415187148668 61.000000000000000
-6.937678822931732 -9.218956995434816 -1.989147673293264 1.000000000000000
-6.773635053430416 -8.895426702822483 -2.119823562858815 2.000000000000000
-4.734073445022601 -6.143444964978105 -1.604067510866360 1.000000000000000
-4.519190240163479 -5.795956264436729 -1.647675500196501 63.000000000000000
-4.542272956276871 -5.756679456330906 -1.772098763538160 21.000000000000000
-4.508370150545808 -5.646145738157429 -1.872680669295829 2.000000000000000
-4.509266686314175 -5.579834058852148 -1.986228040122971 5.000000000000000
-4.557357628790458 -5.571707197878636 -2.120515584572017 12.000000000000000
-4.602046939863881 -5.557848731245253 -2.255012515239116 73.000000000000000
-4.640482905577597 -5.535901595487124 -2.387755416311564 72.000000000000000
-4.678167440010540 -5.511147358780127 -2.521178334238983 74.000000000000000
-4.711361842295539 -5.481497411746560 -2.654478426353726 76.000000000000000
-4.574965435445950 -5.254773149488438 -2.688507841143524 33.000000000000000
-4.664353666154941 -5.289430172609730 -2.854364609876032 45.000000000000000
-4.742103460809950 -5.309347700167886 -3.017798165168816 46.000000000000000
-4.523371338447896 -4.933702245398318 -3.098882038455110 24.000000000000000
-6.580314574173697 -9.223056512992768 -0.978300906193453 25.000000000000000
-6.680316656545473 -9.251514465315589 -1.178827157108923 26.000000000000000
-6.760034433751987 -9.250816834914273 -1.376924958505029 32.000000000000000
-6.821261241781299 -9.224281191555905 -1.574621087906619 27.000000000000000
-6.899878464558112 -9.219693193890221 -1.777087106717488 69.000000000000000
-6.844510158348943 -8.932986508614896 -2.121965298764900 15.000000000000000
-6.863768929164017 -8.852019126491214 -2.304892507531827 45.000000000000000
-4.530481832945041 -5.774370457683514 -1.637614172748516 89.000000000000000
-4.512496236126098 -5.683349953271875 -1.745911517687069 2.000000000000000
-4.509812169680790 -5.612708713309406 -1.858276377113943 2.000000000000000
-4.534965717304416 -5.576523517590996 -1.982021039400992 4.000000000000000
-4.597879252433963 -5.585980370768116 -2.123188563795172 4.000000000000000
-4.630548149485636 -5.557085534491537 -2.252243369984704 72.000000000000000
-4.671581069401906 -5.537837083608219 -2.386435573699690 73.000000000000000
-4.704500362721543 -5.507098730894250 -2.517491589923551 74.000000000000000
-4.725524888044681 -5.463078528993807 -2.644059666217306 47.000000000000000
-4.610681403711261 -5.262079412596667 -2.691124904012720 49.000000000000000
-4.688104697342302 -5.282407722673282 -2.849789290140365 44.000000000000000
-4.766144659932748 -5.302066961143353 -3.013229334144123 50.000000000000000
-4.526774697446728 -4.972207387038107 -2.972771188443498 31.000000000000000
-6.633010617358929 -9.240414482501430 -0.971064540379036 21.000000000000000
-6.724184477864641 -9.255547250911205 -1.170550380715927 29.000000000000000
-6.780752188934137 -9.222524967518879 -1.364264261701449 30.000000000000000
-6.863440279259630 -9.224530532109970 -1.566537581804985 28.000000000000000
-6.940029543743059 -9.216470873267701 -1.768682722870793 3.000000000000000
-6.853257184750383 -8.889277159522338 -2.104760684938244 22.000000000000000
-6.886933023888869 -8.827016616229795 -2.291967534951588 48.000000000000000
-4.546508560297383 -5.758901032102653 -1.629286596516900 15.000000000000000
-4.513846152590188 -5.649740402099092 -1.731970640523663 2.000000000000000
-4.511071272596453 -5.579311706281506 -1.843903700767795 5.000000000000000
-4.563121745586323 -5.576105651288316 -1.978825333531921 12.000000000000000
-4.626287896097178 -5.585297247975662 -2.120153521370620 21.000000000000000
-4.661537395219129 -5.559143076993421 -2.250602888670004 72.000000000000000
-4.702732036018945 -5.539652227234452 -2.385051068362580 73.000000000000000
-4.733310229875112 -5.505822103776087 -2.515065253493492 65.000000000000000
-4.561959225732431 -5.240564273350852 -2.534922113129594 17.000000000000000
-4.639079840308929 -5.260835904809234 -2.689365690624701 49.000000000000000
-4.716793441606471 -5.280840361874703 -2.848158826612948 50.000000000000000
-4.589866547618781 -5.073295077917155 -2.882807334427957 48.000000000000000
-4.542411830677452 -4.957343228215312 -2.963839887407766 62.000000000000000
-6.683515659001690 -9.254321728958807 -0.963371046274528 26.000000000000000
-6.765770077918905 -9.256197859439085 -1.161779858515572 33.000000000000000
-6.820243111125963 -9.219741000212229 -1.355346374232233 30.000000000000000
-6.905666129325208 -9.224621464662418 -1.558370348787464 27.000000000000000
-6.873830495104323 -8.861128331134378 -2.091249153912922 25.000000000000000
-6.912409497211024 -8.805043520906620 -2.279820066980542 40.000000000000000
-4.511452284107357 -5.679168872566717 -1.602817271273234 2.000000000000000
-4.510137796627005 -5.610106348508893 -1.716206227076663 2.000000000000000
-4.536603872255944 -5.576014809527231 -1.839479314959903 4.000000000000000
-4.603574382453868 -5.590473990177613 -1.980850188773012 5.000000000000000
-4.642434976461368 -5.569757163530672 -2.111470252839687 10.000000000000000
-4.690114592911342 -5.558159662494486 -2.247716679561565 71.000000000000000
-4.731465805342419 -5.538456092318360 -2.382358379072517 77.000000000000000
-4.739887770811495 -5.478702842051840 -2.500834878316583 19.000000000000000
-4.577716956916952 -5.225397817220567 -2.526141150874499 26.000000000000000
-4.665031500928894 -5.256691447000742 -2.686122135415726 48.000000000000000
-4.705803318773144 -5.234988788727065 -2.822651857194863 47.000000000000000
-4.541093816927922 -4.987314099331832 -2.833552720607986 62.000000000000000
-4.570397602398596 -4.955900380426135 -2.962939954720860 63.000000000000000
-6.722427662830797 -9.251897837772670 -0.953901838463814 27.000000000000000
-6.786180467805177 -9.227834730988475 -1.149332343555328 31.000000000000000
-6.864505197750501 -9.223186533205517 -1.347284143658186 30.000000000000000
-6.940782640364144 -9.215053624139497 -1.548522858550440 1.000000000000000
-6.901536324062387 -8.842240810112648 -2.079912936549480 26.000000000000000
-4.507745763243371 -5.706645276835276 -1.473372939324963 1.000000000000000
-4.512508775562455 -5.645450823207944 -1.589386533607415 2.000000000000000
-4.513551275633665 -5.579617620355816 -1.703261017237405 5.000000000000000
-4.564605634958449 -5.575625066277176 -1.835994694329806 11.000000000000000
-4.631845991839477 -5.589810796247546 -1.977522179404048 23.000000000000000
-4.690609996472046 -5.592441322537194 -2.117257167888431 8.000000000000000
-4.723672962015228 -5.562897199298713 -2.247128055532396 74.000000000000000
-4.735438727469461 -5.508313082860409 -2.367215038726150 20.000000000000000
-4.748803704416176 -5.454449164733637 -2.487921157565036 60.000000000000000
-4.605844660293063 -5.224297084406312 -2.524159055827031 47.000000000000000
-4.688506412664626 -5.249665922145211 -2.681406221420011 47.000000000000000
-4.537548138098850 -5.015718445259150 -2.703679228814464 48.000000000000000
-4.566525159553032 -4.983245303959463 -2.830847612948307 69.000000000000000
-4.595924772558463 -4.951667205249473 -2.960378923962322 62.000000000000000
-6.761366556816777 -9.249331116961329 -0.944358074657353 30.000000000000000
-6.823037474225115 -9.221830800886146 -1.139640428006713 28.000000000000000
-6.908832086767210 -9.226461090000939 -1.339130670082079 30.000000000000000
-6.937067287034537 -8.938831344786369 -1.892399441085304 4.000000000000000
-6.931602660972338 -8.826367750890912 -2.069265781970537 18.000000000000000
-4.511130138828996 -5.675858633238765 -1.461215126542855 1.000000000000000
-4.510934793074437 -5.608729547808061 -1.575133058562126 2.000000000000000
-4.541377087304597 -5.579348738220387 -1.699536939352417 4.000000000000000
-4.607431417069341 -5.593085003858105 -1.838355753552610 5.000000000000000
-4.650261109657908 -5.577181158173312 -1.969948715301949 10.000000000000000
-4.709231504915999 -5.579671083350123 -2.109599306677232 21.000000000000000
-4.744881256958944 -5.552963940685528 -2.240601109257502 40.000000000000000
-4.751692437195157 -5.492582930291043 -2.358272192978961 57.000000000000000
-4.600503782929541 -5.250896508479220 -2.393292878126644 33.000000000000000
-4.631508804670114 -5.220276346630663 -2.520761999291412 48.000000000000000
-4.544493149045950 -5.056220233172135 -2.581511760952322 33.000000000000000
-4.560398838037548 -5.008972481735555 -2.699300115815528 68.000000000000000
-4.596975397766533 -4.984511663098444 -2.831177259156483 69.000000000000000
-4.623967824379872 -4.950020762213682 -2.959371557062942 57.000000000000000
-6.783797391423693 -9.224139110654452 -0.932466953520597 27.000000000000000
-6.867032543406333 -9.225275759226612 -1.131055796158696 29.000000000000000
-6.943658733862812 -9.216868871746575 -1.329055148848121 0.000000000000000
-6.969563075359060 -8.925953423216114 -1.882271506761994 9.000000000000000
-4.510172913904004 -5.707930552596907 -1.333673533297197 1.000000000000000
-4.511903533946609 -5.642037777844931 -1.448295623735270 1.000000000000000
-4.511618822701325 -5.575102289744278 -1.561771448559369 5.000000000000000
-4.566768447568956 -5.575962184178020 -1.694841487250448 11.000000000000000
-4.630607157172081 -5.586471707538913 -1.832775822847396 26.000000000000000
-4.690967991129754 -5.591123233588059 -1.971740422324365 9.000000000000000
-4.737759596438589 -5.578567250024003 -2.106342195208009 4.000000000000000
-4.758580124571090 -5.534261936943216 -2.230534467641893 33.000000000000000
-4.777875128947159 -5.488294459804567 -2.354238130407938 64.000000000000000
-4.581015966729416 -5.195837162278664 -2.366425341238163 29.000000000000000
-4.597028699704574 -5.148785291095775 -2.484800426651662 32.000000000000000
-4.557260509719354 -5.038389878148762 -2.571322632872155 62.000000000000000
-4.590777983964023 -5.010371167608180 -2.699311442711243 68.000000000000000
-4.619941719560573 -4.977539314775078 -2.826831596988426 69.000000000000000
-4.654555626268433 -4.950940727649875 -2.959905713577817 60.000000000000000
-6.820350747973405 -9.218126776933243 -0.922480568361710 26.000000000000000
-6.908704625543947 -9.225363560022785 -1.121992683751263 28.000000000000000
-4.510857953962915 -5.673969358279353 -1.321232848697192 1.000000000000000
-4.510037210593011 -5.605203501913257 -1.434626802065879 2.000000000000000
-4.544210403345575 -5.580927206146550 -1.559454818139691 4.000000000000000
-4.607034054080590 -5.590517580650486 -1.695567870944598 4.000000000000000
-4.651291137129973 -5.576800157196643 -1.826180375633158 9.000000000000000
-4.714361706203524 -5.584230414508227 -1.966160822710864 23.000000000000000
-4.776311106271889 -5.589048622853748 -2.107437236901829 14.000000000000000
-4.792222986636998 -5.538683788856775 -2.229779525738615 35.000000000000000
-4.801560594759963 -5.481048150730628 -2.348928058545150 66.000000000000000
-4.603911509055083 -5.189081710041566 -2.361570202916325 47.000000000000000
-4.544478434782029 -5.057922929022273 -2.439530159656125 52.000000000000000
-4.585059521136706 -5.037141727823736 -2.569597711987334 66.000000000000000
-4.618688544514782 -5.008916951850329 -2.697786332946760 66.000000000000000
-4.645423679918085 -4.973188434765417 -2.823979395528908 42.000000000000000
-4.680151997421835 -4.946411334777542 -2.957189237808876 60.000000000000000
-6.864053099408410 -9.221580126459138 -0.913377807807751 27.000000000000000
-6.943232872371520 -9.215753587931411 -1.111695590775121 0.000000000000000
-4.513411454024826 -5.710291905481207 -1.194595915309155 1.000000000000000
-4.513821551231347 -5.643125012497585 -1.309538505338264 1.000000000000000
-4.515377655074015 -5.577574847652844 -1.423333921077072 5.000000000000000
-4.569438775370954 -5.577545953281891 -1.554537364351597 13.000000000000000
-4.632508820282281 -5.586906274566577 -1.690752586635753 30.000000000000000
-4.696891952751296 -5.596785655574871 -1.829267697667968 11.000000000000000
-4.742750423102235 -5.583147115665494 -1.962611196594889 5.000000000000000
-4.792400908946374 -5.573120945553022 -2.098559614156374 10.000000000000000
-4.830962381600219 -5.548744561102372 -2.231273238131180 43.000000000000000
-4.601100782351206 -5.219461677038413 -2.234715953443405 39.000000000000000
-4.551116857667570 -5.097478268051714 -2.318125677049145 38.000000000000000
-4.572171272575126 -5.056792748853692 -2.437559629912567 70.000000000000000
-4.612891384058069 -5.035788372911318 -2.567817077233896 66.000000000000000
-4.646631637020456 -5.007357275202305 -2.696205398021292 55.000000000000000
-4.683576758926796 -4.982210932046845 -2.828724619299955 13.000000000000000
-4.710823511777536 -4.947106232398875 -2.957603382173505 64.000000000000000
-6.905427286725049 -9.221671543562062 -0.903871633812458 27.000000000000000
-4.513846635797626 -5.676230857418922 -1.182664703871603 1.000000000000000
-4.516624723307937 -5.612311096963591 -1.297869507964048 2.000000000000000
-4.542882162331635 -5.577348052594519 -1.419025848738904 4.000000000000000
-4.614580640949757 -5.598216264295466 -1.556284089216824 5.000000000000000
-4.648010500012410 -5.571234292499106 -1.682275497609226 10.000000000000000
-4.712610709692771 -5.580983754030435 -1.820633031705547 26.000000000000000
-4.783725385092602 -5.596645956990673 -1.964160246039155 16.000000000000000
-4.843668758415420 -5.597886771915761 -2.104982814077340 6.000000000000000
-4.867286282309263 -5.555762474329393 -2.231520462571971 49.000000000000000
-4.550589401421998 -5.130012642935382 -2.194335066253310 19.000000000000000
-4.571175252700113 -5.087952457913237 -2.312033000438514 67.000000000000000
-4.599896861965451 -5.055557498411989 -2.435533460975379 70.000000000000000
-4.640755625374293 -5.034329601189820 -2.565980649214019 66.000000000000000
-4.674606787574591 -5.005691926398591 -2.694568559073889 8.000000000000000
-4.709132389214498 -4.977641679975934 -2.825756437950253 11.000000000000000
-4.736463772047192 -4.942378443767030 -2.954782945441420 63.000000000000000
-6.937245677163200 -9.208864498551549 -0.893047065947487 1.000000000000000
-4.514915059609494 -5.710601231462138 -1.056083131071844 1.000000000000000
-4.516569584163842 -5.645297271374484 -1.171406807739245 1.000000000000000
-4.514312402895879 -5.575408132082449 -1.284815819395662 5.000000000000000
