# This PCD file was generated using the MATLAB® pcwrite function
# from Computer Vision Toolbox®.
# .PCD v.7 - Point Cloud Data file format
VERSION .7
FIELDS x y z intensity
SIZE 8 8 8 8
TYPE F F F F
COUNT 1 1 1 1
WIDTH 631
HEIGHT 1
VIEWPOINT 0 0 0 1 0 0 0
POINTS 631
DATA ascii
-1.746786814102508 -4.109048703462048 -3.037178720236014 78.000000000000000
-1.750657895407108 -5.528943857091080 -0.993696512212641 6.000000000000000
-1.777821895508292 -5.546608910011353 -1.102571044075607 14.000000000000000
-1.775613260241627 -5.472932280853482 -1.192302729698292 25.000000000000000
-1.791810028917200 -5.457253008478421 -1.294739518870477 19.000000000000000
-1.811408257689712 -5.450849053920391 -1.399567331480946 20.000000000000000
-1.832444717114857 -5.450195593457595 -1.506203954241673 18.000000000000000
-1.851912111848826 -5.443796591345087 -1.612539674565328 19.000000000000000
-1.869920813192781 -5.431809454476523 -1.717806218014101 21.000000000000000
-1.888199362224389 -5.421617990756050 -1.824647234619817 18.000000000000000
-1.941457630622983 -5.509479365646984 -1.967555688667006 13.000000000000000
-1.967910219951466 -5.519549351051182 -2.085738317124425 5.000000000000000
-1.996571296579831 -5.534183527845031 -2.207979107193329 11.000000000000000
-2.017199473467765 -5.525487136356388 -2.322256271431177 11.000000000000000
-2.037540920367594 -5.514408982725030 -2.437255950668511 7.000000000000000
-2.066227085416051 -5.525304942549921 -2.563656553309452 6.000000000000000
-2.092396060562187 -5.526496862159419 -2.688080199377603 8.000000000000000
-2.112141254170666 -5.511691232223058 -2.807029583575105 7.000000000000000
-2.143847224216390 -5.524378211088711 -2.942213530671760 5.000000000000000
-2.165281183481246 -5.511155377633528 -3.066096508599020 7.000000000000000
-2.052149421926144 -5.098777369376625 -3.087323774342590 7.000000000000000
-1.999177284679728 -4.902868506019301 -3.092991205468366 3.000000000000000
-1.765201960912091 -4.110745894279218 -3.038469060210859 77.000000000000000
-1.773521584600717 -5.542975571518159 -0.993609079320583 9.000000000000000
-1.792460004931445 -5.534327207045390 -1.097592591118546 12.000000000000000
-1.797476917127030 -5.483040464600653 -1.192060399454391 22.000000000000000
-1.815039137442357 -5.470964377531852 -1.295625605385298 19.000000000000000
-1.832336257489402 -5.457056997457737 -1.398874106554012 20.000000000000000
-1.849811216565431 -5.445308639269627 -1.502647093020937 17.000000000000000
-1.869412324577512 -5.438873228219505 -1.608956049143313 19.000000000000000
-1.890056004639284 -5.434094231316407 -1.716485998923591 20.000000000000000
-1.940110241441123 -5.513740029846828 -1.853663166360053 12.000000000000000
-1.963462353587624 -5.515081339603256 -1.967655814314104 5.000000000000000
-1.993960681994581 -5.535658859912942 -2.090009039532376 9.000000000000000
-2.013889979162740 -5.525436800998500 -2.202769917626296 12.000000000000000
-2.033363997408918 -5.513238291615968 -2.315489234244173 9.000000000000000
-2.066754181670849 -5.536807320837246 -2.445630357284012 5.000000000000000
-2.087904392702951 -5.526808685749252 -2.562936011307802 10.000000000000000
-2.107757134147275 -5.510877567204437 -2.679176795721810 8.000000000000000
-2.140665217921748 -5.529830797328919 -2.815070119498386 4.000000000000000
-2.164775919705402 -5.522200092970629 -2.939974719391102 8.000000000000000
-2.183730764446620 -5.502298968937036 -3.060216006239396 7.000000000000000
-2.019909162785404 -4.904175635467888 -3.093319949597632 3.000000000000000
-1.781012353933874 -4.106310858010354 -3.035238068508168 75.000000000000000
-1.789203355161625 -5.534414170606973 -0.989449918926229 15.000000000000000
-1.807033629137930 -5.522010358105178 -1.092600141013956 27.000000000000000
-1.815719060280119 -5.481917103116609 -1.189354938062260 20.000000000000000
-1.833403821869710 -5.469791215221301 -1.292964998691547 20.000000000000000
-1.853315416681077 -5.463196389716127 -1.398142758692733 19.000000000000000
-1.870928403219618 -5.451355835727858 -1.502092694310813 19.000000000000000
-1.889421237977663 -5.441179552181457 -1.607498823141515 19.000000000000000
-1.936908763989433 -5.512272347021457 -1.739095745565346 13.000000000000000
-1.960704053853180 -5.515797391237946 -1.852354920639229 7.000000000000000
-1.991935453081951 -5.538454729761661 -1.974076076835918 6.000000000000000
-2.012397948648850 -5.530418883708767 -2.086206477554744 13.000000000000000
-2.029870320957192 -5.513128174166136 -2.196139388862356 12.000000000000000
-2.061157239138955 -5.532344049185930 -2.321882029083757 4.000000000000000
-2.083092831424225 -5.524505407423050 -2.438669362382380 12.000000000000000
-2.104373716396188 -5.514527267710753 -2.555821643897608 10.000000000000000
-2.133529754743003 -5.522411273229033 -2.683472473296336 4.000000000000000
-2.161436115774118 -5.527669823161707 -2.812771630178090 9.000000000000000
-2.181747468726263 -5.509959834042384 -2.932382070935875 7.000000000000000
-2.211393508243467 -5.516488765009813 -3.067154130007028 4.000000000000000
-2.102665068417207 -5.120545762390435 -3.099217111678919 9.000000000000000
-2.040668648131812 -4.905418191091987 -3.093614041705218 3.000000000000000
-1.802121662547715 -4.113966713011791 -3.040955671759657 73.000000000000000
-1.803619309618462 -5.522062720870812 -0.984603825272011 21.000000000000000
-1.826479105478533 -5.524589930312767 -1.090541232204041 4.000000000000000
-1.840182484029179 -5.499317775315674 -1.190643704711552 20.000000000000000
-1.854277012018062 -5.475957909667926 -1.292020794819744 20.000000000000000
-1.870563987313829 -5.458232819488617 -1.394553999536028 21.000000000000000
-1.889560251417962 -5.450018386756476 -1.499487125745878 18.000000000000000
-1.934968268081431 -5.516147408804156 -1.627464151943490 13.000000000000000
-1.958628392109670 -5.517973415198450 -1.738795045652316 12.000000000000000
-1.989059671261943 -5.539330069214683 -1.858237877251831 5.000000000000000
-2.011510405455596 -5.536766027684496 -1.971545546880086 14.000000000000000
-2.028213119518393 -5.518047812620273 -2.079710527801909 16.000000000000000
-2.054927732362633 -5.525369033155722 -2.199280123633816 3.000000000000000
-2.079915678555731 -5.526955495442627 -2.317983977833885 12.000000000000000
-2.101995858980864 -5.519075319256494 -2.434741265350618 11.000000000000000
-2.128698007561876 -5.522761667686820 -2.558212726598629 4.000000000000000
-2.159399818394983 -5.533856634587870 -2.687717093025885 12.000000000000000
-2.176896693998366 -5.511994939371578 -2.803599217434813 8.000000000000000
-2.205308773625716 -5.514327262298027 -2.933629843256675 4.000000000000000
-2.235173329881656 -5.520694183653443 -3.068539704152578 9.000000000000000
-2.083929785579503 -5.024868410069826 -3.040683822803170 24.000000000000000
-2.062794962228280 -4.909784195007923 -3.095883735261391 3.000000000000000
-1.819285086445430 -4.112459479958495 -3.039911643442413 69.000000000000000
-1.821678552610362 -5.520913462361710 -0.981742222822595 7.000000000000000
-1.850934029695481 -5.542026106491785 -1.091387123196326 9.000000000000000
-1.863510487206696 -5.512917725369817 -1.191078006418528 24.000000000000000
-1.872673461908174 -5.474667787225780 -1.289298539740594 19.000000000000000
-1.890337682444264 -5.460569822508229 -1.392816089741820 20.000000000000000
-1.929952967155633 -5.510748883401272 -1.513919511948644 14.000000000000000
-1.957840321791311 -5.525525514229047 -1.628031039621765 16.000000000000000
-1.982987310033523 -5.530823903609172 -1.740727513286160 4.000000000000000
-2.008477426969717 -5.537651189524873 -1.855643750429180 15.000000000000000
-2.027167678293194 -5.524333427909816 -1.965183803454918 15.000000000000000
-2.051837347898755 -5.526854683997165 -2.081188314340247 5.000000000000000
-2.078764531548382 -5.534014020092000 -2.200974976641398 12.000000000000000
-2.097330173730873 -5.518032483447883 -2.312601058110112 10.000000000000000
-2.120878019386938 -5.513591772443379 -2.430787155167234 5.000000000000000
-2.153095911707471 -5.530914735090207 -2.560557788480980 11.000000000000000
-2.176010628530835 -5.521472229307480 -2.680385450920655 8.000000000000000
-2.200304922050063 -5.516443202714304 -2.804663373959419 4.000000000000000
-2.228919415492360 -5.518618747884742 -2.934835830968444 9.000000000000000
-2.250924724208892 -5.505068052285566 -3.058906279317811 8.000000000000000
-2.113090517523909 -5.045313889648948 -3.052433819047669 17.000000000000000
-2.080918171290270 -4.904524227890739 -3.092090176955825 3.000000000000000
-1.837806704296257 -4.113927913983242 -3.041078696152604 75.000000000000000
-1.847225517817759 -5.542162968110564 -0.982834432255407 7.000000000000000
-1.866708222738021 -5.533290950447102 -1.087056423955295 18.000000000000000
-1.884401742084929 -5.519017554262593 -1.189865248744000 26.000000000000000
-1.892349056963953 -5.477013120473896 -1.287415366058849 20.000000000000000
-1.928110258217080 -5.514242182850127 -1.404132465629342 18.000000000000000
-1.955247839164449 -5.527496082338875 -1.516221932030782 17.000000000000000
-1.979487076591719 -5.531196658250616 -1.627485926625354 4.000000000000000
-2.006137191763159 -5.539982653701459 -1.741476891753537 17.000000000000000
-2.023960757557406 -5.525164830004518 -1.849421653693069 16.000000000000000
-2.046713837222596 -5.522537967409471 -1.962600536798669 5.000000000000000
-2.075535261434336 -5.535581934952986 -2.082620949660514 11.000000000000000
-2.096025112126950 -5.525050100880476 -2.195658468909464 12.000000000000000
-2.117370249838541 -5.516019292428852 -2.310110471525418 6.000000000000000
-2.149118070481007 -5.532197829086397 -2.437444296590952 9.000000000000000
-2.169502019568761 -5.518471359543497 -2.553364611837726 8.000000000000000
-2.193901096836568 -5.512435259950566 -2.674681192619607 6.000000000000000
-2.227817922686613 -5.530884174759957 -2.810802652045528 7.000000000000000
-2.249868397929256 -5.516188036186170 -2.932466835521896 7.000000000000000
-2.276089577498669 -5.512430016533004 -3.062049566553071 4.000000000000000
-2.158752752695935 -5.104272133079654 -3.087479318828581 13.000000000000000
-2.104473187322251 -4.911938231634513 -3.096293172884141 3.000000000000000
-1.856357284086171 -4.115337963729583 -3.042214173608799 75.000000000000000
-1.864102304765230 -5.537145961444830 -0.979241134258653 24.000000000000000
-1.879903326166086 -5.517068988912289 -1.081248008484654 34.000000000000000
-1.905342696542912 -5.525048529006714 -1.188614302812873 12.000000000000000
-1.927492029899856 -5.523543635207940 -1.295879695275140 23.000000000000000
-1.953281294711259 -5.531077380986835 -1.406022471110230 17.000000000000000
-1.972843989524449 -5.522267396048596 -1.512476578177632 4.000000000000000
-2.002494295070739 -5.540422747386604 -1.627966946362925 13.000000000000000
-2.021453768033479 -5.527443198566454 -1.735394004347343 18.000000000000000
-2.043349633308472 -5.523380075999158 -1.846775246778466 8.000000000000000
-2.072915426083711 -5.538458235331893 -1.966297538977384 7.000000000000000
-2.093961372776828 -5.530112785695806 -2.078702082262477 14.000000000000000
-2.113241204877355 -5.516040585953943 -2.190321406578812 9.000000000000000
-2.146840619922226 -5.538267321087202 -2.317767553666578 6.000000000000000
-2.168040516971085 -5.526583024356516 -2.433420718179687 10.000000000000000
-2.191263335011895 -5.519650483030234 -2.552473220587566 7.000000000000000
-2.221267951067485 -5.527043040966718 -2.680445469108044 6.000000000000000
-2.244541635551193 -5.518407305810189 -2.803260539703349 8.000000000000000
-2.268084624919818 -5.507055892767206 -2.926537805691277 5.000000000000000
-2.305436024706112 -5.529564796816275 -3.070619138512212 7.000000000000000
-2.185644220038348 -5.118030932534083 -3.095180562913459 14.000000000000000
-2.123977536136079 -4.909739698157552 -3.094442683638703 3.000000000000000
-1.872185400441931 -4.110648847113126 -3.038852395576269 75.000000000000000
-1.880959866199314 -5.532081212529272 -0.975624640795893 23.000000000000000
-1.901969933635855 -5.526854529635502 -1.080520883552355 5.000000000000000
-1.928911823323520 -5.538414704722291 -1.188914520206823 24.000000000000000
-1.948657677317405 -5.529406747818798 -1.294762632225638 14.000000000000000
-1.968116561296867 -5.518506869030820 -1.400419629114307 9.000000000000000
-1.999622837480479 -5.542496807554683 -1.515682567714181 7.000000000000000
-2.017641377949422 -5.527836002983923 -1.622026015235601 17.000000000000000
-2.039362091579867 -5.522066544751015 -1.731554023058070 14.000000000000000
-2.069421215901589 -5.539417821679791 -1.850070817031798 5.000000000000000
-2.091183652081356 -5.532976748603560 -1.962382030258142 14.000000000000000
-2.112366523351129 -5.524591512043963 -2.074757888544412 14.000000000000000
-2.142594187669580 -5.538474111631266 -2.197457317390894 5.000000000000000
-2.164250716555055 -5.529167728288802 -2.312294762425538 10.000000000000000
-2.184214584289012 -5.514030757789298 -2.426341989896057 10.000000000000000
-2.215785682283411 -5.527585757881377 -2.554699492984409 5.000000000000000
-2.241894307938380 -5.524648763413146 -2.677958542052339 10.000000000000000
-2.265322340597995 -5.515936799511930 -2.800803441332098 6.000000000000000
-2.298665317773603 -5.527719135787448 -2.936440517482697 6.000000000000000
-2.321108726144833 -5.513774151780836 -3.060906546199645 7.000000000000000
-2.146257678311121 -4.913831468284974 -3.096562978462230 3.000000000000000
-1.893544390806194 -4.117982303539137 -3.044390150388892 76.000000000000000
-1.896516605603769 -5.523236854557299 -0.971328684395325 7.000000000000000
-1.929273814206673 -5.551427641633864 -1.082649384389934 15.000000000000000
-1.947372557513162 -5.536902946480415 -1.185997421372047 16.000000000000000
-1.965943288793561 -5.524159064507545 -1.291026574190738 15.000000000000000
-1.993432790790048 -5.535187734254512 -1.402221970716975 5.000000000000000
-2.017259909616144 -5.537143984292955 -1.511871341835608 16.000000000000000
-2.035389099426058 -5.522450852665528 -1.618191519515337 18.000000000000000
-2.066637538931480 -5.541812938485108 -1.735573287855713 4.000000000000000
-2.088874004452890 -5.537499044417675 -1.847352085173343 15.000000000000000
-2.106723018206583 -5.520348016236899 -1.955927377022952 15.000000000000000
-2.133470059944250 -5.526062224863511 -2.073431404763129 4.000000000000000
-2.161191862208716 -5.532836978391413 -2.193442204679072 13.000000000000000
-2.181615736844557 -5.520022166170594 -2.306801261864031 11.000000000000000
-2.211321464520629 -5.528946484139127 -2.431343693531611 4.000000000000000
-2.237621267830633 -5.528621543047012 -2.553730388178928 11.000000000000000
-2.261138298198345 -5.518815385615835 -2.673803720528235 9.000000000000000
-2.294427507323369 -5.533477329841586 -2.808502635527888 4.000000000000000
-2.318286328662594 -5.521770779279103 -2.932203942333405 7.000000000000000
-2.340868216159545 -5.507784162774082 -3.056640248846604 5.000000000000000
-2.165790939588258 -4.911509160117003 -3.094647536648426 3.000000000000000
-1.910781631293483 -4.116202966219989 -3.043202704124914 90.000000000000000
-1.923666151956526 -5.547907716604215 -0.972899020381964 8.000000000000000
-1.943712953051136 -5.538773578109080 -1.077493019272964 17.000000000000000
-1.961899351473733 -5.524250153621172 -1.180682503852495 23.000000000000000
-1.991136374892317 -5.540923216184280 -1.292412414413739 3.000000000000000
-2.014877479091685 -5.540804963392004 -1.401195597302410 17.000000000000000
-2.033538649036282 -5.528104348240662 -1.507044418004453 24.000000000000000
-2.058497912395171 -5.531476864770117 -1.618564190626275 4.000000000000000
-2.085938791442894 -5.539902685369219 -1.732790118563895 18.000000000000000
-2.104251126953805 -5.524814879183753 -1.841035509017535 15.000000000000000
-2.130388221927771 -5.528947175665641 -1.956984709334837 4.000000000000000
-2.158713593915982 -5.538021878114103 -2.076026323766609 16.000000000000000
-2.177013997622077 -5.520164096013039 -2.186635407937521 11.000000000000000
-2.205846082048310 -5.528149554907648 -2.308519343840652 4.000000000000000
-2.234386687864130 -5.533461257928690 -2.431760398579146 12.000000000000000
-2.253916555193707 -5.515969269001978 -2.546437351605084 11.000000000000000
-2.288733384307151 -5.533170867837161 -2.679425244875493 4.000000000000000
-2.313882124432765 -5.527519183712706 -2.804271240076204 8.000000000000000
-2.335079680355926 -5.509149311184760 -2.924427594156053 7.000000000000000
-2.352174056715497 -5.482089201933674 -3.041445575537524 7.000000000000000
-2.183916697728092 -4.905961198890337 -3.090706807894742 3.000000000000000
-1.930844521839294 -4.120391292839040 -3.046439073144155 102.000000000000000
-1.941848569229727 -5.546400344767625 -0.969847075441294 22.000000000000000
-1.958086521309105 -5.526085414383119 -1.072323257236247 31.000000000000000
-1.985626512063991 -5.537404239054709 -1.180864788147877 4.000000000000000
-2.011116095037941 -5.542902860516142 -1.290323963646849 21.000000000000000
-2.029663469380109 -5.528082742281763 -1.395518325050031 27.000000000000000
-2.052472444995314 -5.526288684986788 -1.504176263847411 5.000000000000000
-2.084392826025845 -5.547647457135567 -1.621002849519170 13.000000000000000
-2.102513510457329 -5.530756297292234 -1.727734851852765 15.000000000000000
-2.123673392925470 -5.522790126346873 -1.838264545843690 6.000000000000000
-2.154125580775032 -5.537465886825141 -1.957996561411302 11.000000000000000
-2.175753518397305 -5.528804383699527 -2.070672044039479 12.000000000000000
-2.198322323275434 -5.521404910010387 -2.185335393641459 5.000000000000000
-2.230148400123700 -5.536194976581099 -2.310191181418523 9.000000000000000
-2.249108039513778 -5.517313745505128 -2.423094315179394 12.000000000000000
-2.277157787760089 -5.520283973193253 -2.546974924287494 5.000000000000000
-2.310817683535056 -5.533947328576890 -2.678464597114993 11.000000000000000
-2.331903253947857 -5.518167714118818 -2.798320262779816 7.000000000000000
-2.361702460247486 -5.519623071618601 -2.928911510530253 5.000000000000000
-2.361899117885264 -5.453110765828184 -3.024440366835090 41.000000000000000
-2.207707549259878 -4.913016208485971 -3.094712121037284 3.000000000000000
-1.948114397943622 -4.118500952068818 -3.045192966025798 80.000000000000000
-1.953456367469239 -5.526231272608285 -0.963522777125745 24.000000000000000
-1.979022101368632 -5.531889482712192 -1.070726049628351 4.000000000000000
-2.005442173618892 -5.539410039451540 -1.178644180019664 18.000000000000000
-2.027088550187605 -5.533810225690057 -1.285643961501965 24.000000000000000
-2.045735710381824 -5.518975628620205 -1.390747070449829 12.000000000000000
-2.076852450779949 -5.538934857552748 -1.505224415652507 7.000000000000000
-2.099456877499366 -5.534859303588755 -1.614964181955014 16.000000000000000
-2.120419765713883 -5.525151849855726 -1.723778713526109 11.000000000000000
-2.151393462680876 -5.542077480676801 -1.842568687161772 7.000000000000000
-2.172378793489495 -5.531756094680091 -1.953965426144177 11.000000000000000
-2.194143156316695 -5.523053225502195 -2.066611448206560 8.000000000000000
-2.223856811386279 -5.533031471425267 -2.188133364004216 7.000000000000000
-2.246088964929933 -5.523419343813028 -2.303168928674586 11.000000000000000
-2.272199223775166 -5.521699690691213 -2.423443668273743 6.000000000000000
-2.304691297317996 -5.534715654450117 -2.552170967715818 10.000000000000000
-2.325830870692242 -5.517821688051696 -2.669323993036684 10.000000000000000
-2.356990166231377 -5.525441620901884 -2.800799216347676 4.000000000000000
-2.358475049294667 -5.460673418022036 -2.896566461098736 33.000000000000000
-2.385722634548948 -5.456803525213852 -3.025561567414305 27.000000000000000
-2.228703903928710 -4.913670968121575 -3.094691668915032 3.000000000000000
-1.968255780623850 -4.122563736579826 -3.048360447827287 79.000000000000000
-1.972914122977006 -5.528349824455468 -0.961073400839437 7.000000000000000
-2.004016326851889 -5.548728832752148 -1.071234289171167 8.000000000000000
-2.022589811456946 -5.533984045159269 -1.174825537053568 27.000000000000000
-2.041661700536890 -5.521009824884421 -1.280095314455340 19.000000000000000
-2.074044646678454 -5.542644768473649 -1.394212241409512 4.000000000000000
-2.095836792178301 -5.536990554536149 -1.502287502287506 16.000000000000000
-2.117213744718282 -5.529244334354244 -1.611011809450039 15.000000000000000
-2.146630282332544 -5.540987302550417 -1.726494177212293 5.000000000000000
-2.166706362318028 -5.529239670666369 -1.836177606828879 13.000000000000000
-2.190610213821699 -5.525994643213745 -1.949909252830253 10.000000000000000
-2.222356727824789 -5.541802310705897 -2.071704062685276 5.000000000000000
-2.243837686540354 -5.530646313781537 -2.185378637288270 12.000000000000000
-2.264794866275129 -5.517510951263850 -2.299008724728402 8.000000000000000
-2.301026761244492 -5.539705250785998 -2.429758337458837 7.000000000000000
-2.323783669141137 -5.528685533013327 -2.547924986353033 11.000000000000000
-2.350766164083372 -5.525203854125539 -2.671554755597765 5.000000000000000
-2.360635223699534 -5.482667459892483 -2.777915561147450 11.000000000000000
-2.379289208489754 -5.457849270924706 -2.894004871839514 38.000000000000000
-2.432637593617866 -5.512640378164718 -3.055586097485233 5.000000000000000
-2.365166486254383 -5.295482280340982 -3.065526856984581 2.000000000000000
-2.249725275728244 -4.914259694600703 -3.094635978232736 3.000000000000000
-1.987002487044709 -4.123560883578579 -3.049273152064077 70.000000000000000
-1.999087197771872 -5.548977237132123 -0.961809751195193 6.000000000000000
-2.019688531060702 -5.539590653995575 -1.066704093770500 29.000000000000000
-2.039716758353983 -5.528509515382342 -1.170983383322250 30.000000000000000
-2.065738137624069 -5.533811589418765 -1.280465243409595 3.000000000000000
-2.094260474720439 -5.544349098811572 -1.392124324380206 19.000000000000000
-2.113438899454666 -5.531366661431282 -1.498340039870253 19.000000000000000
-2.139124458460834 -5.534381411499435 -1.610177922859505 4.000000000000000
-2.165962334901625 -5.538837400222624 -1.723586788555364 16.000000000000000
-2.186168653234811 -5.527028543903720 -1.833309055911475 14.000000000000000
-2.214468816980238 -5.534299700770865 -1.950804623910261 4.000000000000000
-2.239365704963664 -5.532417315480282 -2.066266170367833 14.000000000000000
-2.259548191517489 -5.517770577062077 -2.178475115560899 11.000000000000000
-2.293480954714209 -5.535692822096172 -2.304875287245735 5.000000000000000
-2.317090784234388 -5.526824544757551 -2.422518678788992 11.000000000000000
-2.341414827535197 -5.519211193684127 -2.542091344721929 6.000000000000000
-2.372887003569116 -5.525783474161556 -2.670491390170699 9.000000000000000
-2.374120444028705 -5.463210683482854 -2.766858352920104 4.000000000000000
-2.413147462169137 -5.484609348484817 -2.907125662977025 6.000000000000000
-2.462549602762151 -5.529158694990334 -3.063806387412358 8.000000000000000
-2.385776334663582 -5.292596052267760 -3.063102072814245 2.000000000000000
-2.272227958088220 -4.917934768612808 -3.096529947885459 3.000000000000000
-2.005776258894712 -4.124498451299321 -3.050153787021867 70.000000000000000
-2.014602918312455 -5.539821809456233 -0.957357509502071 32.000000000000000
-2.032598129808384 -5.523022958471112 -1.060736651059286 41.000000000000000
-2.059561624029303 -5.530340680589111 -1.168671841642018 4.000000000000000
-2.089907920501959 -5.546527639405211 -1.280785707734606 21.000000000000000
-2.108951066049072 -5.531432774409229 -1.386353801596802 20.000000000000000
-2.131019576898274 -5.525692942038300 -1.494368452954089 4.000000000000000
-2.162486170066831 -5.543042972790369 -1.610349082053018 16.000000000000000
-2.179652602901468 -5.522331965034242 -1.716206339175419 16.000000000000000
-2.207049685485689 -5.528309435432637 -1.831586872606374 4.000000000000000
-2.238398297746777 -5.542523215293489 -1.951654034038068 15.000000000000000
-2.259188705159314 -5.529987653922899 -2.063420204888207 15.000000000000000
-2.288108525891319 -5.536115213451585 -2.183887294970455 4.000000000000000
-2.312223347021305 -5.529652252844371 -2.300645378171691 11.000000000000000
-2.334530571207616 -5.517321613540196 -2.416760067706195 9.000000000000000
-2.369148768015063 -5.533395287230923 -2.547148741291587 6.000000000000000
-2.367401841099728 -5.462541545752242 -2.638596669384754 42.000000000000000
-2.367082811155560 -5.397201907690751 -2.732242034072240 4.000000000000000
-2.454521017167376 -5.527690719427210 -2.928884068487846 10.000000000000000
-2.479428209251017 -5.516261233829842 -3.055728023780317 8.000000000000000
-2.412248311195590 -5.302533947148511 -3.068101664624503 2.000000000000000
-2.291842018200448 -4.915238482496142 -3.094418656840072 3.000000000000000
-2.023108707273323 -4.122384722717912 -3.048789818347081 72.000000000000000
-2.030075358040354 -5.530625990063825 -0.952887295910626 30.000000000000000
-2.052273505789332 -5.524882511371387 -1.058296127262007 6.000000000000000
-2.084954017386061 -5.546802096955855 -1.169424321019468 13.000000000000000
-2.104440757377039 -5.533572992676485 -1.275160787278125 16.000000000000000
-2.124973273997449 -5.522117316795652 -1.381479252230072 10.000000000000000
-2.159835120679265 -5.548888742216236 -1.498180889607895 10.000000000000000
-2.180259007574573 -5.537251083416143 -1.606305418996240 13.000000000000000
-2.201785523353606 -5.527221741086200 -1.715466214769187 6.000000000000000
-2.230813103368829 -5.536617816954947 -1.832176860135225 10.000000000000000
-2.253785113760757 -5.529532876842605 -1.945024119363860 14.000000000000000
-2.280453894877636 -5.530994549844211 -2.061847065844376 4.000000000000000
-2.311020840631282 -5.540477128928392 -2.183767354364766 13.000000000000000
-2.330942736854829 -5.523558625190781 -2.296389790863962 10.000000000000000
-2.360667047351843 -5.528247810330830 -2.419943643789978 4.000000000000000
-2.361921438779241 -5.466297249377223 -2.514799693511594 35.000000000000000
-2.390813119047865 -5.466405786782658 -2.639127962797126 44.000000000000000
-2.380170590767232 -5.377750016032530 -2.721211627916673 2.000000000000000
-2.472657705960949 -5.518019122725662 -2.922684524608470 7.000000000000000
-2.502137115074275 -5.516333113632711 -3.054837939532476 4.000000000000000
-2.404838325358158 -5.238373218606130 -3.030238051948829 2.000000000000000
-2.365011864877582 -5.091149193701235 -3.073584026257217 1.000000000000000
-2.312936860855893 -4.915628263116162 -3.094256915084407 3.000000000000000
-2.043404036775757 -4.126194265210760 -3.051818609981658 71.000000000000000
-2.046876293673003 -5.525093074421236 -0.949035277206262 15.000000000000000
-2.078884308841441 -5.545113773020385 -1.059343794389938 6.000000000000000
-2.100716639135082 -5.537482717095171 -1.164719176425491 22.000000000000000
-2.123110673514119 -5.531537892822567 -1.272041512010709 18.000000000000000
-2.152233985838871 -5.541812828505579 -1.383840830446592 5.000000000000000
-2.173208666022096 -5.532251901287827 -1.491219968557182 14.000000000000000
-2.196583454934143 -5.527819382025920 -1.601197678367091 11.000000000000000
-2.229701154054467 -5.546305151954763 -1.719107886378345 6.000000000000000
-2.248884088905877 -5.530672507303459 -1.828036643949911 14.000000000000000
-2.270550035625576 -5.520024288616774 -1.939616041592139 6.000000000000000
-2.306102150104588 -5.542411265050502 -2.064140073329396 11.000000000000000
-2.326686279024160 -5.527436124480598 -2.176782223555591 12.000000000000000
-2.354030787946930 -5.527724918901870 -2.296392882402588 4.000000000000000
-2.386896750484867 -5.539082311652803 -2.423074709384716 5.000000000000000
-2.380769069751523 -5.460101178880574 -2.510483967863851 45.000000000000000
-2.430523571073203 -5.507018228747810 -2.657386949372803 6.000000000000000
-2.416836043589660 -5.411327336063454 -2.737010047547922 1.000000000000000
-2.489262428865572 -5.505017017543234 -2.914725406757498 5.000000000000000
-2.524868138746761 -5.516333731063723 -3.053910124654958 7.000000000000000
-2.364231793050844 -5.103591246319468 -2.951553560282940 28.000000000000000
-2.382118724717385 -5.081862182646297 -3.067409841860104 1.000000000000000
-2.334055664613913 -4.915951448992498 -3.094059712680457 3.000000000000000
-2.062257559956908 -4.126952221394141 -3.052602679473787 68.000000000000000
-2.074721374403522 -5.549107828540396 -0.950228144092173 4.000000000000000
-2.095877339844451 -5.539462404479356 -1.055419559078912 28.000000000000000
-2.116435088172358 -5.528122310838310 -1.159995790494330 29.000000000000000
-2.144607323661348 -5.536741104926351 -1.270567339544440 3.000000000000000
-2.175367560761383 -5.550522503594110 -1.383429041433801 17.000000000000000
-2.192211379836907 -5.530017291854290 -1.488133736566069 18.000000000000000
-2.224365540584541 -5.547030421451232 -1.604367615403218 4.000000000000000
-2.246192491820938 -5.536780892585309 -1.713864824654929 17.000000000000000
-2.265480238436021 -5.521136839705035 -1.822703290858880 11.000000000000000
-2.301856184317260 -5.545615145428973 -1.946523764434736 6.000000000000000
-2.324519844236073 -5.536294746385415 -2.059891253172838 13.000000000000000
-2.346693075775330 -5.524742793640927 -2.173868595895525 6.000000000000000
-2.378640855921351 -5.535248876297728 -2.297779701360966 10.000000000000000
-2.340674647647355 -5.382989462926217 -2.353219631884421 1.000000000000000
-2.409987418090748 -5.477476099846258 -2.516998255910661 12.000000000000000
-2.464579751879289 -5.534093029743891 -2.669093663543244 10.000000000000000
-2.440324467997807 -5.414951265545509 -2.737648495088130 1.000000000000000
-2.383124295058108 -5.223114094033656 -2.764449629675094 1.000000000000000
-2.363293125895058 -5.117145103362882 -2.832055012217533 14.000000000000000
-2.378187796021947 -5.087833936608601 -2.941728852281613 49.000000000000000
-2.406685956593047 -5.088401714585179 -3.070793822018080 1.000000000000000
-2.355198163722403 -4.916207901739482 -3.093826995239535 3.000000000000000
-2.082639808998099 -4.130630271011110 -3.055559030714843 67.000000000000000
-2.090175552314534 -5.539754013927940 -0.945678394421644 34.000000000000000
-2.111444080635358 -5.530083551845402 -1.050772955475565 29.000000000000000
-2.137768453376125 -5.533369261822085 -1.158320617131696 4.000000000000000
-2.167574595738737 -5.545516095016547 -1.269888031213964 20.000000000000000
-2.187104623784557 -5.530160434726231 -1.375759764933103 21.000000000000000
-2.212656280385920 -5.531328700626096 -1.485986201315060 3.000000000000000
-2.242140681395521 -5.541064610576266 -1.600235028441294 17.000000000000000
-2.264095086406532 -5.530772629031913 -1.709702771145095 18.000000000000000
-2.295204515324388 -5.543375656942271 -1.827842049755501 5.000000000000000
-2.320115072002426 -5.539490613179465 -1.942280566541245 14.000000000000000
-2.339961665309023 -5.523156790636871 -2.053026661036344 10.000000000000000
-2.375591496036923 -5.542735547824925 -2.179080469105025 6.000000000000000
-2.397371467135494 -5.528969167171976 -2.293428437302164 9.000000000000000
-2.299373902109196 -5.240789720967562 -2.289519329226086 3.000000000000000
-2.457303262223110 -5.535195209740695 -2.542026488361463 10.000000000000000
-2.480834771551423 -5.520955995164479 -2.661399582121933 9.000000000000000
-2.459346152653100 -5.408573969826146 -2.733229612445586 1.000000000000000
-2.371496007909226 -5.151404071302309 -2.725492025055400 1.000000000000000
-2.372556515650724 -5.091554366670715 -2.817038464643265 39.000000000000000
-2.396586994028120 -5.081666004770941 -2.937454918123953 42.000000000000000
-2.425270710495556 -5.082175952685363 -3.066479017824677 1.000000000000000
-2.379393236532688 -4.922664402179946 -3.097502059636579 3.000000000000000
-2.100042662316469 -4.128287512748569 -3.054073841369097 67.000000000000000
-2.108397008991092 -5.537743749659803 -0.942367346410728 17.000000000000000
-2.131214912597420 -5.531690904421204 -1.048197850725755 7.000000000000000
-2.163426300815496 -5.549519447877042 -1.158897984541460 17.000000000000000
-2.183433128812039 -5.536012757880393 -1.265005342515036 14.000000000000000
-2.204506709296515 -5.524260189480066 -1.371683464795107 8.000000000000000
-2.237483297141718 -5.543373640387268 -1.486700096882839 12.000000000000000
-2.258432349189027 -5.531470535996953 -1.595046404821539 18.000000000000000
-2.283443321999580 -5.528268821667480 -1.706613732100726 4.000000000000000
-2.317713814196388 -5.547843901904217 -1.827097894363469 17.000000000000000
-2.336868861504179 -5.529807835204139 -1.936784249689951 13.000000000000000
-2.368724793116039 -5.541308916141879 -2.057780928661726 5.000000000000000
-2.392680157386837 -5.532990480232305 -2.173375717658128 11.000000000000000
-2.416078234705757 -5.522636413002562 -2.289051553276882 6.000000000000000
-2.359375299768849 -5.329846416889580 -2.326856542034756 8.000000000000000
-2.462808404971810 -5.498433289718290 -2.523654120302129 5.000000000000000
-2.503068504217262 -5.521124270876676 -2.660119329791813 4.000000000000000
-2.449543299685343 -5.339365610071006 -2.697074063676731 1.000000000000000
-2.368495024750676 -5.099424644788668 -2.696997517583815 26.000000000000000
-2.390788266079939 -5.085381095135803 -2.812772046222348 36.000000000000000
-2.495715471008698 -5.245161194407902 -3.031236106350890 2.000000000000000
-2.445356360585354 -5.079064058014022 -3.064049047312215 1.000000000000000
-2.400605445284852 -4.922779154545768 -3.097192743701683 3.000000000000000
-2.118973754370023 -4.128864562364162 -3.054760817796446 68.000000000000000
-2.125202438492196 -5.531990192756838 -0.938402420430058 18.000000000000000
-2.156718355550703 -5.547921622508612 -1.048364252219653 7.000000000000000
-2.180573237587422 -5.543648659358989 -1.154852326968600 17.000000000000000
-2.197799847081064 -5.522832373789358 -1.259275348442370 14.000000000000000
-2.229166509732608 -5.536391621597254 -1.372064314889895 6.000000000000000
-2.255080305487582 -5.537351318600819 -1.482549557415135 17.000000000000000
-2.277622837738044 -5.528982029152355 -1.591896959707002 6.000000000000000
-2.310191267338213 -5.543462636742417 -1.708968783610472 15.000000000000000
-2.331348003617163 -5.531072474227724 -1.819350920210463 15.000000000000000
-2.361043064122811 -5.537594250507715 -1.937395562630789 4.000000000000000
-2.390128935170814 -5.541969893504349 -2.056022707255594 14.000000000000000
-2.409721793545679 -5.523200697824368 -2.167651016483832 11.000000000000000
-2.445333757389773 -5.540204618433918 -2.294570025266933 4.000000000000000
-2.453340788159182 -5.493276547632652 -2.396582514411631 13.000000000000000
-2.379934448505886 -5.266628412009439 -2.415829710602533 2.000000000000000
-2.526848016514536 -5.524554331391961 -2.660406461602225 9.000000000000000
-2.369014183001026 -5.118449724880663 -2.584349089153598 18.000000000000000
-2.386577546236408 -5.093242416446322 -2.692735654146583 46.000000000000000
-2.430464418234318 -5.124419194987269 -2.833508536380815 12.000000000000000
-2.542315178494452 -5.296247287434275 -3.060028464498625 1.000000000000000
-2.470049617059122 -5.085379342881451 -3.067310846370271 1.000000000000000
-2.421840518313253 -4.922826698015910 -3.096847720692441 3.000000000000000
-2.139467187966994 -4.132349667483606 -3.057611874856049 66.000000000000000
-2.150553999129529 -5.548293789234752 -0.938152186570524 4.000000000000000
-2.173703186052089 -5.542050914373315 -1.044328550524638 19.000000000000000
-2.194800490517309 -5.530428405132150 -1.149266053850217 23.000000000000000
-2.225222686305742 -5.542306022696430 -1.260969447343250 4.000000000000000
-2.250982708271090 -5.541209989866317 -1.370607418362488 19.000000000000000
-2.271178731532540 -5.527687412326550 -1.477414986062093 12.000000000000000
-2.305715609423776 -5.547855718929875 -1.594875684934924 7.000000000000000
-2.329596649666533 -5.540821963855992 -1.705806382539795 16.000000000000000
-2.350883037759226 -5.528367615482495 -1.816225881012695 5.000000000000000
-2.386790791411668 -5.548795886709036 -1.939182798416218 14.000000000000000
-2.404000404540522 -5.525198877276031 -2.047792817039042 14.000000000000000
-2.434299754698969 -5.530595631471881 -2.168662413889419 4.000000000000000
-2.465595279798321 -5.537156000311028 -2.291537332110440 10.000000000000000
-2.479729344062485 -5.503750015935850 -2.399519564888265 13.000000000000000
-2.376644169502800 -5.213338540314957 -2.389963965342374 3.000000000000000
-2.389431611314445 -5.178459790188125 -2.492457978834550 11.000000000000000
-2.380833162579473 -5.099062556607586 -2.573429325970375 44.000000000000000
-2.404636627140991 -5.087008968589378 -2.688449077982180 38.000000000000000
-2.634210151915680 -5.505575997044283 -3.043348454632533 5.000000000000000
-2.576932375393306 -5.321582204876122 -3.073935322903787 1.000000000000000
-2.490168296428402 -5.082134528842912 -3.064811003341888 1.000000000000000
-2.443098186890551 -4.922806897537615 -3.096466938103518 3.000000000000000
-2.158460190369964 -4.132801468130328 -3.058231127892046 69.000000000000000
-2.168821848495443 -5.546101916148531 -0.934745593828827 32.000000000000000
-2.187766150534392 -5.528804318275636 -1.038892718615642 31.000000000000000
-2.219180130545829 -5.542700971762838 -1.148958435196804 3.000000000000000
-2.243964294559386 -5.539907806258677 -1.257660424318408 21.000000000000000
-2.266929246737259 -5.531522052131949 -1.365547354384014 22.000000000000000
-2.297641383448435 -5.543096022701577 -1.478962662197771 3.000000000000000
-2.323479115578868 -5.541661003442744 -1.590626958903568 16.000000000000000
-2.345995748633879 -5.531036021330276 -1.700435378995248 10.000000000000000
-2.379476369163755 -5.546720609052188 -1.819999641128261 9.000000000000000
-2.398981981834897 -5.528454395521923 -1.929938197835838 11.000000000000000
-2.426913801128044 -5.529212426876980 -2.047260447613688 5.000000000000000
-2.460474131218485 -5.541347772950631 -2.170974875216138 15.000000000000000
-2.481254822631328 -5.523804331093848 -2.284238213706622 10.000000000000000
-2.500055081667218 -5.500590143026718 -2.396504259764046 9.000000000000000
-2.366834423998688 -5.146689834376359 -2.358002238782196 1.000000000000000
-2.376499068893956 -5.105703691665398 -2.456171408607406 41.000000000000000
-2.398738343005780 -5.092824986176990 -2.569150058280991 46.000000000000000
-2.444427964308238 -5.126349854130313 -2.708241699030203 1.000000000000000
-2.671042216195606 -5.534183782671741 -3.058241216600475 5.000000000000000
-2.607080526820273 -5.337211808789193 -3.082233805991319 1.000000000000000
-2.508726595688302 -5.075674525055157 -3.060378241948582 1.000000000000000
-2.464378181610928 -4.922719618879134 -3.096050343890176 3.000000000000000
-2.177478054503566 -4.133192368873958 -3.058817772283505 74.000000000000000
-2.184189134866388 -5.536501911568553 -0.930075484210490 14.000000000000000
-2.207605952957605 -5.530165210000866 -1.036187582709920 5.000000000000000
-2.239236056189474 -5.543957846535494 -1.146340822137349 16.000000000000000
-2.262705693682446 -5.537452693797609 -1.254322369939500 24.000000000000000
-2.288790469615257 -5.536209950759855 -1.364021102221641 4.000000000000000
-2.318223339494169 -5.544071822619832 -1.476635423473690 16.000000000000000
-2.339712590535545 -5.531853918328132 -1.585333157404822 17.000000000000000
-2.369919948380215 -5.538903596379245 -1.700478282215500 5.000000000000000
-2.397557478076425 -5.540357826741850 -1.815645695332693 13.000000000000000
-2.420224627426610 -5.529036859622517 -1.927993816829634 7.000000000000000
-2.452940178848568 -5.540079126665067 -2.049249557589406 10.000000000000000
-2.472881386508778 -5.521066874539251 -2.161123368788512 10.000000000000000
-2.501478714450101 -5.520645579337502 -2.281151601383469 4.000000000000000
-2.529679435089049 -5.517654412891229 -2.402289686026541 9.000000000000000
-2.367466200814936 -5.103593657543835 -2.336856770680914 1.000000000000000
-2.391138037404290 -5.092818481157227 -2.448704719655221 50.000000000000000
-2.429116969072655 -5.112840692576609 -2.578109928396386 6.000000000000000
-2.481387909478415 -5.159016053600421 -2.724493971618855 1.000000000000000
-2.693989396029526 -5.533657498993776 -3.057031209835847 8.000000000000000
-2.627945607358046 -5.333613235530773 -3.079429774899651 1.000000000000000
-2.533543242456711 -5.081763963125840 -3.063517204403703 1.000000000000000
-2.487252452654197 -4.925678305310775 -3.097555886397604 3.000000000000000
-2.196520533536517 -4.133522230359844 -3.059371751989847 80.000000000000000
-2.200973187754671 -5.530534514576537 -0.926002705105502 16.000000000000000
-2.236301310174069 -5.553397983386214 -1.037546764360853 6.000000000000000
-2.257831658719439 -5.541511690813197 -1.142938485424694 22.000000000000000
-2.278462434535816 -5.527700700662399 -1.249318973803544 9.000000000000000
-2.310696492726630 -5.540824408582177 -1.362454620073941 12.000000000000000
-2.335807544035099 -5.537822204447120 -1.472369637408063 17.000000000000000
-2.363489517032736 -5.539794634524171 -1.585110945698621 4.000000000000000
-2.393911794524175 -5.546688055852034 -1.700474619365553 18.000000000000000
-2.412549009974898 -5.526921042681446 -1.808968507861366 13.000000000000000
-2.447646585200176 -5.543497390418090 -1.930871014953032 5.000000000000000
-2.472874940577082 -5.537010457186750 -2.046070557256143 11.000000000000000
-2.496030852848427 -5.524801885551108 -2.160668902687239 5.000000000000000
-2.532597045801973 -5.541266447526955 -2.287877260935800 9.000000000000000
-2.548509229593553 -5.510970410473891 -2.397725972991429 10.000000000000000
-2.386612656659041 -5.100700378453015 -2.334127604978816 2.000000000000000
-2.413558718747776 -5.096478661056176 -2.449192431916209 28.000000000000000
-2.577682238737067 -5.379032887602468 -2.711136933131656 1.000000000000000
-2.510715164029068 -5.175278425701275 -2.732073677920387 0.000000000000000
-2.707478570921007 -5.513757342327327 -3.045123274669686 6.000000000000000
-2.656714939164368 -5.345862120000797 -3.085777685764392 1.000000000000000
-2.558427271834344 -5.087768246970449 -3.066608576237522 1.000000000000000
-2.508587772886882 -4.925451596485779 -3.097064732355160 3.000000000000000
-2.209257130287645 -4.121980082810195 -3.051150459939537 75.000000000000000
-2.226570272700304 -5.546529595259409 -0.925579963935473 3.000000000000000
-2.250318816769814 -5.539999177819672 -1.032036013251993 22.000000000000000
-2.271945555982027 -5.528105421833630 -1.137264189072677 19.000000000000000
-2.307703953574487 -5.550451282824973 -1.251636137079502 6.000000000000000
-2.331134266343644 -5.541768981525455 -1.359965289145572 17.000000000000000
-2.351846870216746 -5.527947113733025 -1.467130875832967 7.000000000000000
-2.387333735425766 -5.547652514192987 -1.584842332052716 19.000000000000000
-2.408747897063644 -5.533202592748543 -1.693938203120840 17.000000000000000
-2.438279865913548 -5.538000484379433 -1.810303270309640 4.000000000000000
-2.467427376161531 -5.540445239982378 -1.927631885533450 13.000000000000000
-2.488136885540182 -5.523511900883539 -2.039032888310610 10.000000000000000
-2.523912878326550 -5.538748457388055 -2.164192530344479 5.000000000000000
-2.549761466893139 -5.531153183885389 -2.281902039602373 10.000000000000000
-2.572033074123873 -5.514351127052483 -2.397535716770020 6.000000000000000
-2.440464594902785 -5.171290320479537 -2.365001687597839 5.000000000000000
-2.627426747931611 -5.500783173712370 -2.642110739552068 7.000000000000000
-2.621928352238696 -5.424743828053382 -2.732965809468464 1.000000000000000
-2.538590573453214 -5.188184492359553 -2.737875741083648 0.000000000000000
-2.741533856385156 -5.535600057217243 -3.056270295773984 4.000000000000000
-2.674446257895456 -5.335761340146361 -3.079227847144232 1.000000000000000
-2.580190927549901 -5.087402427093068 -3.065864857131955 1.000000000000000
-2.228302658365485 -4.122203707670036 -3.051650021741141 75.000000000000000
-2.243375719916288 -5.540442983608679 -0.921445019885303 32.000000000000000
-2.265763193944892 -5.530216316268457 -1.027190656228326 33.000000000000000
-2.301040725659307 -5.550971522880135 -1.139027098462137 4.000000000000000
-2.324985073872048 -5.544193030794419 -1.247384481049355 20.000000000000000
-2.347021504937886 -5.531871469155496 -1.354801868947085 15.000000000000000
-2.383165542538551 -5.553745873579052 -1.471335708993901 7.000000000000000
-2.403541228253600 -5.537678263949577 -1.579464785636447 15.000000000000000
-2.426611269557486 -5.526736785623694 -1.689544982795807 5.000000000000000
-2.462544967393873 -5.545484391955184 -1.810441698079382 15.000000000000000
-2.482519425167094 -5.526898470149114 -1.920735953829004 14.000000000000000
-2.517444576292650 -5.541049166557911 -2.043439976872970 4.000000000000000
-2.544036271176640 -5.535465683493833 -2.160970873889743 12.000000000000000
-2.566877527224234 -5.520995149745850 -2.275906921803697 6.000000000000000
-2.598769728366707 -5.524390649806791 -2.400229957160800 9.000000000000000
-2.502767600547039 -5.258332110086583 -2.403351359598591 12.000000000000000
-2.665671204331431 -5.533557416515377 -2.656464445183842 4.000000000000000
-2.655340274819293 -5.447338774533887 -2.743131841596798 0.000000000000000
-2.564979109172081 -5.197746118553089 -2.741908360353624 0.000000000000000
-2.762948280390308 -5.531643109689524 -3.053171679894965 8.000000000000000
-2.703359010858201 -5.347830611318356 -3.085475297431194 1.000000000000000
-2.601975338360352 -5.086967382968688 -3.065084531163411 1.000000000000000
-2.551322636588081 -4.924794322560045 -3.095974432147914 3.000000000000000
-2.250582649746091 -4.128255102837925 -3.056476982173183 72.000000000000000
-2.261652994632522 -5.537968998851185 -0.917893838977546 23.000000000000000
-2.290196406149025 -5.542256542665275 -1.026376556896173 4.000000000000000
-2.319678826534540 -5.548339232997584 -1.135527145121210 26.000000000000000
-2.340716668776482 -5.534278057254247 -1.242299425060674 26.000000000000000
-2.370538980444962 -5.539872859904712 -1.354005036283897 3.000000000000000
-2.397681089584128 -5.540179060149535 -1.465088862196175 15.000000000000000
-2.422805921291841 -5.534753299279158 -1.576088000040505 12.000000000000000
-2.456929866664892 -5.548402713216608 -1.693730486901802 9.000000000000000
-2.475907489333761 -5.528390955406614 -1.802546961507339 12.000000000000000
-2.502262096408713 -5.523738918690813 -1.917444330095853 4.000000000000000
-2.538987806782616 -5.541235022520587 -2.041430709625108 15.000000000000000
-2.560985768264825 -5.525279514421965 -2.155049461672283 10.000000000000000
-2.599856081202295 -5.544725961048109 -2.283869167424997 5.000000000000000
-2.622403384906430 -5.527606241614950 -2.399948692053800 11.000000000000000
-2.524075649492231 -5.258393353134384 -2.401917038399223 15.000000000000000
-2.689721875664170 -5.536446415797590 -2.656458792561185 10.000000000000000
-2.679283849537528 -5.450175749616510 -2.743340728363772 0.000000000000000
-2.588234231103588 -5.200737049628061 -2.742472188659282 0.000000000000000
-2.782744485628426 -5.524417211113170 -3.048272232800274 7.000000000000000
-2.722688048811082 -5.340777385657214 -3.080692569165869 1.000000000000000
-2.627013474581608 -5.092730962233701 -3.068043603124448 1.000000000000000
-2.574339698915441 -4.927460580491352 -3.097321962969265 3.000000000000000
-2.268081854837712 -4.125407267538210 -3.054728069190258 69.000000000000000
-2.276917490377534 -5.528126930216427 -0.913106448027157 10.000000000000000
-2.313200799344489 -5.550568062414188 -1.024839619852601 12.000000000000000
-2.335261046278873 -5.538405680060579 -1.130519512792771 20.000000000000000
-2.364087594934862 -5.542340461173123 -1.241231668915353 4.000000000000000
-2.395669219641825 -5.551375596896273 -1.354036178336929 19.000000000000000
-2.413682348704231 -5.530142260125285 -1.459769879922872 18.000000000000000
-2.449885991175385 -5.549477098334647 -1.577715616105094 4.000000000000000
-2.474835172372769 -5.541802187385930 -1.689265930950830 13.000000000000000
