# This PCD file was generated using the MATLAB® pcwrite function
# from Computer Vision Toolbox®.
# .PCD v.7 - Point Cloud Data file format
VERSION .7
FIELDS x y z intensity
SIZE 8 8 8 8
TYPE F F F F
COUNT 1 1 1 1
WIDTH 636
HEIGHT 1
VIEWPOINT 0 0 0 1 0 0 0
POINTS 636
DATA ascii
1.045419351485122 -4.620867509404228 -1.920215050475543 17.000000000000000
1.095264524576070 -4.819839395088191 -2.104264200798238 41.000000000000000
1.071216570807548 -4.693508278864702 -2.148827376653559 40.000000000000000
1.060569586443400 -4.627187898172703 -2.218541031244489 84.000000000000000
1.060238894582101 -4.605571304129531 -2.309157086253323 28.000000000000000
1.088786474089111 -4.710763040128342 -2.467071055645011 5.000000000000000
1.111068350931007 -4.765525182708460 -2.714868846285387 0.000000000000000
1.175386546691595 -4.992302954929972 -3.082796404573918 31.000000000000000
1.059414741156942 -4.860784348673128 -1.527099185355595 28.000000000000000
1.027760345664999 -4.695485378984531 -1.568203343836845 6.000000000000000
1.028105134190583 -4.678193996375926 -1.655936220185791 3.000000000000000
1.027745426149237 -4.655574104363905 -1.742166782430875 4.000000000000000
1.030125264030650 -4.646041397361556 -1.833886930649885 6.000000000000000
1.032988165239406 -4.638567608048088 -1.926917226048482 19.000000000000000
1.077185062864336 -4.816053381096781 -2.101855887250177 59.000000000000000
1.053432185653008 -4.689718641522100 -2.146279500342493 40.000000000000000
1.044472056645236 -4.630507778305348 -2.219251188563598 85.000000000000000
1.044072496684678 -4.608905649397627 -2.309870415546566 28.000000000000000
1.075260993704869 -4.728099364954233 -2.475081047266168 6.000000000000000
1.159355788939174 -5.006107072113442 -3.089789982699310 28.000000000000000
1.044453113720190 -4.867721956900896 -1.528942328390813 31.000000000000000
1.030821698545224 -4.784100223079727 -1.597402792453065 4.000000000000000
1.030251625179797 -4.762613832345163 -1.685356660404229 2.000000000000000
1.032190144242355 -4.750501091161088 -1.777160344202587 3.000000000000000
1.033620836350842 -4.736725737749244 -1.869083532645147 3.000000000000000
1.022036013804595 -4.663485436810552 -1.936607850635309 0.000000000000000
1.062308235923280 -4.826587008081540 -2.105693013073857 56.000000000000000
1.037263070898969 -4.693006129765544 -2.146968744004502 44.000000000000000
1.028364317830527 -4.633782787654179 -2.219937815942785 87.000000000000000
1.027114175327371 -4.608687559366459 -2.308803034254418 27.000000000000000
1.061626503684682 -4.745409187478272 -2.483070842741108 7.000000000000000
1.075903299015958 -4.769154371767437 -2.714417556202087 1.000000000000000
1.140956308992869 -5.009848631825069 -3.090574604692444 27.000000000000000
1.030247491018059 -4.878361545195137 -1.531938230351446 2.000000000000000
1.030947763942186 -4.861625116016949 -1.622877672326474 0.000000000000000
1.034213282017424 -4.858189731561436 -1.718700503127225 0.000000000000000
1.039941491647923 -4.863875302619060 -1.819025765216493 4.000000000000000
1.042786659962267 -4.856675418949788 -1.915796402745773 5.000000000000000
1.043478440706232 -4.819102869420532 -2.101666071887751 54.000000000000000
1.020307968215602 -4.692679965885286 -2.146002420262989 42.000000000000000
1.011473821702119 -4.633473189397020 -2.218905791409431 88.000000000000000
1.010170378635721 -4.608419440018707 -2.307711002483765 28.000000000000000
1.028747154938367 -4.675718138901262 -2.445550076517741 3.000000000000000
1.060361084770936 -4.798038244140019 -2.618604089524257 1.000000000000000
1.058701700583906 -4.772600289395472 -2.715124525108009 6.000000000000000
1.114480737688424 -5.002120890871365 -2.963632784005084 17.000000000000000
1.117303307385149 -4.990126776906321 -3.076896499674427 27.000000000000000
1.027011537714489 -4.822354504357551 -2.102318799731324 53.000000000000000
1.004131138248158 -4.695874844156436 -2.146643916726577 42.000000000000000
0.994598057022050 -4.633113793296306 -2.217849247206735 86.000000000000000
0.994755376360797 -4.615125907046948 -2.310110517552220 29.000000000000000
1.021227784349951 -4.720763926801228 -2.468047357706885 6.000000000000000
1.039468360767832 -4.784177944417822 -2.609875652805841 11.000000000000000
1.037019638752181 -4.755500403787931 -2.704150546551562 16.000000000000000
1.045162571900768 -4.772341188026253 -2.826151231510081 30.000000000000000
1.054036113605832 -4.789580712958376 -2.951796142227957 21.000000000000000
1.061646579797222 -4.797186666160644 -3.074658132153133 31.000000000000000
1.009780569738525 -4.821959062673463 -2.101378118968548 50.000000000000000
0.987193258203767 -4.695451216214401 -2.145628893147120 42.000000000000000
0.976989127817298 -4.629160137861700 -2.215072157325589 62.000000000000000
0.976327088542087 -4.607733397646845 -2.305453177227590 40.000000000000000
0.999327554661663 -4.699629144751144 -2.455941029483315 7.000000000000000
1.022374096201556 -4.787504344803445 -2.610528175657984 11.000000000000000
1.018405692379830 -4.751998588945870 -2.700918224675603 43.000000000000000
1.026336005399958 -4.768950802170910 -2.822806874459018 31.000000000000000
1.034990384941091 -4.786306723826253 -2.948341711629624 36.000000000000000
1.037369296451680 -4.770835758270289 -3.056238065070994 43.000000000000000
0.985146167319073 -4.785477737066218 -2.084714334641592 28.000000000000000
0.961402743874334 -4.652068567495140 -2.124989131123877 38.000000000000000
0.952062429563616 -4.589683144852089 -2.195304480037807 83.000000000000000
0.949174530246514 -4.558077130589814 -2.279661506172668 50.000000000000000
0.951365612512609 -4.552913227709134 -2.378247382481418 18.000000000000000
0.980627175651312 -4.673344994105881 -2.547147602405412 5.000000000000000
1.007754617170644 -4.786071234530963 -2.719038206713270 8.000000000000000
1.013277185056588 -4.792598504486629 -2.835466261664267 20.000000000000000
1.018831319787882 -4.796381306464093 -2.953114475400689 23.000000000000000
1.021091802795897 -4.780862610920044 -3.061135120469171 34.000000000000000
0.959313963595512 -4.741687656268788 -2.064876482901307 31.000000000000000
0.943916343486596 -4.647939289624701 -2.122286101462742 41.000000000000000
0.935379943959291 -4.589146846039036 -2.194169452418996 113.000000000000000
0.933183444690373 -4.561096358075098 -2.280224697460733 64.000000000000000
0.935248311526414 -4.555955247948992 -2.378814489293573 22.000000000000000
0.953245718957117 -4.624650964802450 -2.519490038289834 4.000000000000000
0.993331521303647 -4.803021027547171 -2.727421034186745 0.000000000000000
0.943833438441214 -4.748306354588175 -2.066993276103673 30.000000000000000
0.928613036118748 -4.654497276185240 -2.124460622166131 40.000000000000000
0.919424076233456 -4.592112969665207 -2.194707689391654 120.000000000000000
0.915767793040857 -4.557027669119396 -2.277244864328235 64.000000000000000
0.919825550567512 -4.562443094220640 -2.381179952990022 22.000000000000000
0.936726504351716 -4.627721812064960 -2.520047278561104 4.000000000000000
0.926909405604987 -4.747663604627133 -2.065945122964286 28.000000000000000
0.911872082433782 -4.653849822838120 -2.123343385264728 37.000000000000000
0.903459232372915 -4.595034590671882 -2.195222659770308 123.000000000000000
0.900478601457395 -4.563477072125599 -2.279520848884979 65.000000000000000
0.903677596636755 -4.565397447092959 -2.381700432760997 21.000000000000000
0.919510255292514 -4.627285638847438 -2.518696588898345 4.000000000000000
0.910693621026041 -4.750583783701908 -2.066444009077173 30.000000000000000
0.895836593768407 -4.656738048196940 -2.123836987092082 36.000000000000000
0.886799192859982 -4.594355677377577 -2.194016203516127 120.000000000000000
0.883789878978308 -4.562834047715683 -2.278253037487722 65.000000000000000
0.886841673914671 -4.564811496206866 -2.380374728799199 20.000000000000000
0.904335740551370 -4.637188428010786 -2.522973712008166 4.000000000000000
0.893788841488404 -4.749843929952334 -2.065347464211723 30.000000000000000
0.879115126285527 -4.655994488471324 -2.122671881865078 33.000000000000000
0.870829230169009 -4.597186016414221 -2.194484263413343 120.000000000000000
0.867787834265910 -4.565670329013411 -2.278722168555583 63.000000000000000
0.870688413997628 -4.567673544352676 -2.380847764547529 20.000000000000000
0.887113754837303 -4.636657791769635 -2.521574450219625 3.000000000000000
0.878235840915438 -4.756288407538010 -2.067370888846773 30.000000000000000
0.863739691477168 -4.662380273890990 -2.124754086241299 35.000000000000000
0.855512420082361 -4.603532151820557 -2.196627921665206 131.000000000000000
0.852435526354231 -4.571992463617716 -2.280929325084840 67.000000000000000
0.854526562695371 -4.570490527745949 -2.381297270277820 20.000000000000000
0.871208988679252 -4.643011688114746 -2.523920236868496 3.000000000000000
0.862649674600239 -4.762691862762019 -2.069371343981682 28.000000000000000
0.847678594634761 -4.665134218539733 -2.125177574511766 32.000000000000000
0.838863972690574 -4.602713007025860 -2.195350589376730 93.000000000000000
0.835758359145911 -4.571208935643554 -2.279590496516920 57.000000000000000
0.837072426104584 -4.566258953930928 -2.378075885900409 19.000000000000000
0.853994299492869 -4.642384350326994 -2.522472057381948 3.000000000000000
0.845101029357240 -4.758190715652400 -2.066630437126734 29.000000000000000
0.830969086755238 -4.664249935108847 -2.123941364467080 35.000000000000000
0.822232097881582 -4.601845045534621 -2.194049350881086 139.000000000000000
0.820364731135166 -4.577445913581333 -2.281751655230488 63.000000000000000
0.822177724062243 -4.575989189509974 -2.382125674170799 20.000000000000000
0.837421775303839 -4.645178315770229 -2.522884695134726 3.000000000000000
0.828855258717855 -4.760882390426960 -2.067010842888408 28.000000000000000
0.814904086970379 -4.666912171616644 -2.124317799072303 35.000000000000000
0.806241481552226 -4.604494955472019 -2.194424042535353 134.000000000000000
0.803074995943758 -4.573031991827749 -2.278603289870763 62.000000000000000
0.805991056001343 -4.578670813611155 -2.382504564157477 18.000000000000000
0.820227454649879 -4.644452248796358 -2.521387362403690 3.000000000000000
0.812601505278734 -4.763528726989918 -2.067367616260001 29.000000000000000
0.799446623757595 -4.673127054856682 -2.126307744643068 37.000000000000000
0.790855122971023 -4.610668868472009 -2.196475531339591 136.000000000000000
0.787653053722028 -4.579181549005095 -2.280718090473626 62.000000000000000
0.789191690501619 -4.577799372181969 -2.381035359605890 18.000000000000000
0.804853036876859 -4.654103286401839 -2.525523745390984 3.000000000000000
0.795733886893578 -4.762502507671083 -2.066127161061459 35.000000000000000
0.782750558697312 -4.672102117761019 -2.125000556252173 35.000000000000000
0.774236829131731 -4.609660871355998 -2.195103638442956 123.000000000000000
0.771602293476162 -4.581749569013272 -2.281047300594405 60.000000000000000
0.773001682714511 -4.580388639567218 -2.381366899292105 18.000000000000000
0.788243660532048 -4.656760416930980 -2.525864278011756 3.000000000000000
0.781851675064901 -4.779572690774063 -2.072731736574946 23.000000000000000
0.766071698593387 -4.671028366486038 -2.123669501616721 25.000000000000000
0.758810423482842 -4.615749387762714 -2.197109084816211 53.000000000000000
0.757879498011864 -4.598443646215559 -2.288405274218937 34.000000000000000
0.757963900615918 -4.589956368367656 -2.385324980342156 9.000000000000000
0.770473915181978 -4.652411707713325 -2.522407430998437 1.000000000000000
0.799251662861411 -4.992689301095784 -2.164312898389914 2.000000000000000
0.804343838985985 -5.012221511489141 -2.277885534536537 1.000000000000000
0.764623287775680 -4.754052630178361 -2.262020074465593 2.000000000000000
0.739478235698028 -4.586751179626690 -2.281635719198423 1.000000000000000
0.741166454000384 -4.588945319128128 -2.383784626495552 0.000000000000000
0.734463825160209 -4.679550338951577 -2.125849363136818 0.000000000000000
0.727861138568473 -4.627803671820093 -2.201051416494007 0.000000000000000
0.723964301009531 -4.592731231471504 -2.283658364626815 0.000000000000000
0.440122594301833 -5.687516068986469 -2.324661925314246 0.000000000000000
0.420914358038687 -5.689116142242244 -2.324303900800325 34.000000000000000
0.400919719802505 -5.679576773364866 -2.319391095466180 43.000000000000000
0.397742597138668 -5.664208758570600 -2.429303596867521 0.000000000000000
0.380747904891687 -5.666281633363450 -2.312943467603267 59.000000000000000
0.365698706248517 -5.695727255519505 -2.208926319952841 0.000000000000000
0.361851890272003 -5.671411052147562 -2.314012940129134 38.000000000000000
0.346859548636933 -5.700823398320975 -2.209904304415797 22.000000000000000
0.344714875095100 -5.706073040047540 -2.327119703953965 30.000000000000000
0.326707822116476 -5.683521169351867 -2.202195521859290 51.000000000000000
0.325662678624419 -5.711105782015255 -2.328130272640062 2.000000000000000
0.307282743811498 -5.677333116665134 -2.198791030947016 60.000000000000000
0.292353128425944 -5.700935361382450 -2.092908419792588 1.000000000000000
0.287904839764183 -5.671088653190655 -2.195360628892792 60.000000000000000
0.265713758763011 -5.476669423482361 -2.571113421126619 0.000000000000000
0.261776802190878 -5.463810287394607 -2.681550679960305 0.000000000000000
0.273078934140966 -5.694580620146774 -2.089584517643928 48.000000000000000
0.268751001214010 -5.668514810570802 -2.193346470963020 55.000000000000000
0.250951392208622 -5.492272607204660 -2.461816607080611 2.000000000000000
0.246580915419924 -5.474206521198833 -2.568845035305721 3.000000000000000
0.242685341712676 -5.464973201450965 -2.680976637783437 4.000000000000000
0.240899908442789 -5.517507465388771 -2.826427887544884 4.000000000000000
0.249283134497142 -5.792091319549335 -3.095273827120393 8.000000000000000
0.234721229414627 -5.556158616362932 -3.094269441124677 10.000000000000000
0.253349874600549 -5.676913774824992 -2.082106585706438 55.000000000000000
0.249948238134009 -5.673341511616389 -2.194189137431861 56.000000000000000
0.235438272592603 -5.490926032992776 -2.346673415710165 2.000000000000000
0.230398673346212 -5.453243848937057 -2.443245377638206 4.000000000000000
0.226568152185712 -5.449976007069994 -2.556365465808158 4.000000000000000
0.223004305269969 -5.451726577326035 -2.673335445825684 5.000000000000000
0.220309623523314 -5.490171386516057 -2.811239195882017 5.000000000000000
0.218106182222165 -5.525308680216960 -2.951477203299322 3.000000000000000
0.213568167737928 -5.525878548606692 -3.076140260745186 5.000000000000000
0.236785623078693 -5.656696716926485 -1.962085324703375 10.000000000000000
0.233743170481624 -5.659187183327629 -2.074605638263208 56.000000000000000
0.231118409047732 -5.678116487462050 -2.195003743917280 34.000000000000000
0.220187666247163 -5.491105112591944 -2.233362047250568 1.000000000000000
0.215733326780246 -5.466226621680448 -2.335065235094789 4.000000000000000
0.211252058588830 -5.443333842161270 -2.437727066454283 4.000000000000000
0.207142446670484 -5.436541317442516 -2.548955572489987 5.000000000000000
0.203958514362691 -5.452779817931674 -2.672708211080285 4.000000000000000
0.200569000437253 -5.480563815336122 -2.805136777786775 4.000000000000000
0.197951479376099 -5.512287980038934 -2.943297544749953 3.000000000000000
0.193128329976165 -5.509504854754886 -3.065766087553476 5.000000000000000
0.216870865113299 -5.623676208349406 -1.949658670513856 42.000000000000000
0.214401581514734 -5.645154785500240 -2.068457253507484 53.000000000000000
0.208779714130089 -5.589617188267386 -2.159770061741194 4.000000000000000
0.201115566558967 -5.477262599052709 -2.226702258925974 41.000000000000000
0.195803913278606 -5.430435698200856 -2.318726580528752 4.000000000000000
0.192049603923345 -5.429718468960520 -2.430551027537152 5.000000000000000
0.188191208247177 -5.433909098798198 -2.546611861893485 5.000000000000000
0.184910769330928 -5.453779733092255 -2.672053635370669 5.000000000000000
0.181019344520639 -5.474457586817413 -2.800830256735777 6.000000000000000
0.177895081399621 -5.499207003247058 -2.935093128923225 4.000000000000000
0.173031671504190 -5.500057715833908 -3.059255001328326 5.000000000000000
0.201022166648975 -5.589266574447467 -1.827879987384301 17.000000000000000
0.192781432394829 -5.465937462764610 -1.894018736039899 47.000000000000000
0.189433227982229 -5.465886995135662 -2.001791799499407 34.000000000000000
0.183994684843191 -5.411526672930109 -2.089961967145680 35.000000000000000
0.181400798509344 -5.441139396729914 -2.210988877324759 41.000000000000000
0.176483189062008 -5.405612121170599 -2.307078516096057 5.000000000000000
0.173178701373058 -5.423345048300110 -2.426617733486140 5.000000000000000
0.169376137543992 -5.434843736037359 -2.545938194239237 5.000000000000000
0.165861258168229 -5.454726312939020 -2.671371725157232 6.000000000000000
0.161728383543261 -5.475414962201238 -2.800139089698815 7.000000000000000
0.157835628847185 -5.482538144195546 -2.924981950663503 7.000000000000000
0.153592773790704 -5.511521140362514 -3.064377257972063 5.000000000000000
0.180934233399052 -5.533111852098016 -1.808566292773576 36.000000000000000
0.173841318289795 -5.436550534041441 -1.882879042017568 57.000000000000000
0.169070541395922 -5.395395099601984 -1.975001486385006 54.000000000000000
0.164635938211609 -5.371341466788047 -2.073447818251624 51.000000000000000
0.161823433571594 -5.401248190502097 -2.193753669158172 47.000000000000000
0.156905946444806 -5.366017094723926 -2.289134566402959 22.000000000000000
0.154044320489169 -5.405966446310555 -2.417762008281512 4.000000000000000
0.150559509175087 -5.435725685103652 -2.545237535182400 5.000000000000000
0.146616870440710 -5.448436375584341 -2.667146144198238 5.000000000000000
0.142898884037573 -5.494121692236016 -2.808521094783243 5.000000000000000
0.138612180610748 -5.494037493280384 -2.929901480564785 5.000000000000000
0.134246745750347 -5.529923885436652 -3.073353808550627 5.000000000000000
0.161664195201723 -5.492092854046201 -1.794207560602854 45.000000000000000
0.155315437546647 -5.414661668376696 -1.874337251369609 59.000000000000000
0.150547336938295 -5.373648899448936 -1.966064344011159 57.000000000000000
0.146161477007695 -5.353477388478961 -2.065554810137803 55.000000000000000
0.142815144611211 -5.372408810626366 -2.181015223691450 49.000000000000000
0.137982790919746 -5.341072128098602 -2.277448851644809 43.000000000000000
0.134118992563944 -5.352022536470128 -2.392564077501266 3.000000000000000
0.131917047172580 -5.443798847935224 -2.547900311213999 7.000000000000000
0.127589476620155 -5.449275151467832 -2.666410555231699 5.000000000000000
0.123622267747403 -5.498535005390837 -2.809591843917653 5.000000000000000
0.119312052812036 -5.505485574623999 -2.934790149509984 5.000000000000000
0.114629263273984 -5.541284620556368 -3.078412721840061 5.000000000000000
0.150482442631851 -5.595954446803143 -1.719123283468552 0.000000000000000
0.143163068963937 -5.470018486667565 -1.786039778728324 50.000000000000000
0.137033486299048 -5.396495688059730 -1.867083316937267 59.000000000000000
0.132265190381995 -5.355602133867471 -1.958480968283173 57.000000000000000
0.127721280173260 -5.331826703288462 -2.056202149763247 56.000000000000000
0.124091669155697 -5.347215788168065 -2.169762330858456 49.000000000000000
0.119811296390613 -5.341821383147525 -2.276719913341354 50.000000000000000
0.115515838188683 -5.341826547028642 -2.386933018035406 4.000000000000000
0.112922322303758 -5.437331484419805 -2.543755270788179 5.000000000000000
0.108847133831699 -5.464431263761638 -2.672676423565152 2.000000000000000
0.104859508092540 -5.531389094273921 -2.825187280749741 5.000000000000000
0.100319060005146 -5.538060113723433 -2.950932439583339 6.000000000000000
0.094815739879225 -5.545599712002558 -3.079556755396514 5.000000000000000
0.137016546942896 -5.440942709893261 -1.463511152510709 0.000000000000000
0.131792739054474 -5.406730528745361 -1.557009846939135 4.000000000000000
0.132576101629267 -5.604289018549554 -1.720716180502082 15.000000000000000
0.124722606859155 -5.444086560059799 -1.776611887249018 53.000000000000000
0.118707767162194 -5.370716036396987 -1.857195122329262 57.000000000000000
0.114106632784935 -5.337500694488055 -1.950877241830970 60.000000000000000
0.109814371595043 -5.328778318600620 -2.054022014245010 58.000000000000000
0.105689205514370 -5.329377498975319 -2.161496996355377 55.000000000000000
0.101428840200186 -5.331481475690798 -2.271262526600904 51.000000000000000
0.096721162866557 -5.316969164122852 -2.374754708263672 4.000000000000000
0.091970574572947 -5.314874851905741 -2.485371344888455 5.000000000000000
0.087524641646125 -5.328626073504801 -2.605131015106443 2.000000000000000
0.082626403699980 -5.354026245129191 -2.733444684620382 3.000000000000000
0.072661135694021 -5.378503361473680 -2.985552871743518 5.000000000000000
0.119387216762750 -5.426103424182052 -1.458611779245405 4.000000000000000
0.114221472207322 -5.395811043139108 -1.552943219188919 56.000000000000000
0.114073029611470 -5.585811708659428 -1.714068522352158 37.000000000000000
0.106678990567694 -5.429505075971695 -1.770886281772228 54.000000000000000
0.100697464797342 -5.352440481023045 -1.849901867042999 56.000000000000000
0.096071847969509 -5.319345097815925 -1.943253439561962 60.000000000000000
0.091738386461487 -5.314482859225710 -2.047503847968438 59.000000000000000
0.087532951104457 -5.318897339641074 -2.156216378944850 55.000000000000000
0.083120695348754 -5.321087987343414 -2.265782333092556 48.000000000000000
0.078316705183368 -5.306663025857406 -2.369079573101575 5.000000000000000
0.073375282004234 -5.301037156558719 -2.477806516412179 5.000000000000000
0.068781310794296 -5.318508975240045 -2.599063564358614 5.000000000000000
0.063726089106572 -5.351135120852605 -2.730815977678643 5.000000000000000
0.059399508176640 -5.398294775149444 -2.874080934668087 3.000000000000000
0.053271169926996 -5.368696982711868 -2.978901624806547 5.000000000000000
0.101710101118205 -5.403487735039276 -1.451616806395764 26.000000000000000
0.096999701933954 -5.400214898134029 -1.553277216660314 64.000000000000000
0.094181298927679 -5.479334978104305 -1.680429135862324 34.000000000000000
0.088671623701056 -5.411068075923683 -1.763900116466293 54.000000000000000
0.082810836446331 -5.334111420637869 -1.842588862874114 58.000000000000000
0.078382593543675 -5.316163886055727 -1.941097036633212 58.000000000000000
0.073917474754093 -5.311331683063973 -2.045276499499958 58.000000000000000
0.069499595556716 -5.312071328842013 -2.152415388235299 56.000000000000000
0.064842078183908 -5.306960949233912 -2.258713126584047 48.000000000000000
0.060069556986877 -5.303608556968876 -2.366641485897242 5.000000000000000
0.053525564535970 -5.156687329006265 -2.409268520694060 9.000000000000000
0.050282271684835 -5.326307282041041 -2.601750647243272 5.000000000000000
0.044850241893548 -5.348190343364778 -2.728161378463860 5.000000000000000
0.039875500063694 -5.353021784305142 -2.848800400387728 3.000000000000000
0.033977969181114 -5.362332042395025 -2.974166196552224 5.000000000000000
0.084179863393331 -5.380819382404047 -1.444603933451663 46.000000000000000
0.079526027569666 -5.389195302386423 -1.549165453938054 48.000000000000000
0.076048440527753 -5.449268092012588 -1.670237676519959 39.000000000000000
0.070887624211294 -5.400183703963322 -1.759372305165296 54.000000000000000
0.065001795931003 -5.311948625368727 -1.833951081127585 59.000000000000000
0.060503141168594 -5.294145635576482 -1.932060392227741 57.000000000000000
0.056121110370266 -5.308129976821100 -2.043024857935909 60.000000000000000
0.051587820275824 -5.312608232980629 -2.151593934659984 59.000000000000000
0.046663170547183 -5.292780197598934 -2.251622599020330 48.000000000000000
0.041789359953407 -5.293196328718774 -2.360919794282045 5.000000000000000
0.035180088278163 -5.084739772814421 -2.374600556756419 48.000000000000000
0.031732612346179 -5.334055078847607 -2.604408849841694 5.000000000000000
0.025999049067040 -5.345192012020294 -2.725480949132107 5.000000000000000
0.020801046645066 -5.339467794490424 -2.840414580313592 4.000000000000000
0.014744105612107 -5.359409978165641 -2.971345031679805 5.000000000000000
0.073061683913712 -5.483536355924996 -1.367696977986176 0.000000000000000
0.067230108353400 -5.392866745704175 -1.446901646833274 53.000000000000000
0.062081631435649 -5.374280978504679 -1.543928053738604 63.000000000000000
0.058154070467167 -5.422970661020704 -1.661201767936925 46.000000000000000
0.053177757560453 -5.389247918561767 -1.754822782613252 54.000000000000000
0.047510831990075 -5.308638095107342 -1.831818849127472 58.000000000000000
0.042955825637865 -5.294620256729337 -1.931229435897022 54.000000000000000
0.038322481517131 -5.301144639692755 -2.039312849090877 58.000000000000000
0.033605304261078 -5.301971931382553 -2.146244236417904 56.000000000000000
0.028643952591658 -5.289589131501106 -2.249206603201515 48.000000000000000
0.023584095567875 -5.282731074285070 -2.355175617065351 5.000000000000000
0.017599198255054 -5.088843734381395 -2.375461158442293 44.000000000000000
0.013123677503405 -5.338157430431581 -2.605283673041555 5.000000000000000
0.007177482130284 -5.345704029396333 -2.724591146180666 5.000000000000000
0.001831546156781 -5.339984722176554 -2.839518235961810 4.000000000000000
-0.004482432873119 -5.377425268131151 -2.980131103401351 5.000000000000000
0.055671788651433 -5.472306801575876 -1.363949750311483 27.000000000000000
0.050099023425357 -5.393277835790005 -1.446063717070619 92.000000000000000
0.044864090191313 -5.374694143259722 -1.543085895153263 75.000000000000000
0.040604572709182 -5.419567790502277 -1.659174563698885 52.000000000000000
0.035517062170902 -5.374457448336873 -1.749013914842032 56.000000000000000
0.030001840634308 -5.297715283805222 -1.827054641026128 59.000000000000000
0.025444521723648 -5.302561740801616 -1.933113437256385 51.000000000000000
0.020573708638902 -5.294108365613440 -2.035577887395770 53.000000000000000
0.015719724184651 -5.298699564150828 -2.143873088393847 56.000000000000000
0.010649701924100 -5.286347017172488 -2.246766075469464 49.000000000000000
0.005348115394669 -5.169910979393470 -2.303821143840938 10.000000000000000
-0.000006828859511 -5.085649331153906 -2.372912741861191 46.000000000000000
-0.005506712480563 -5.338613200112794 -2.604376849785587 4.000000000000000
-0.011659678934417 -5.353291523341274 -2.727305981735385 5.000000000000000
-0.017172030602058 -5.351044622193937 -2.844226884876511 5.000000000000000
-0.023834444124783 -5.395389779100702 -2.988883579340108 5.000000000000000
0.038409888046291 -5.468789948469627 -1.362114965785872 95.000000000000000
0.032920837375708 -5.385913637944210 -1.443130799017553 109.000000000000000
0.027646680678205 -5.375059057046290 -1.542219113586696 68.000000000000000
0.023079916065833 -5.416115293468567 -1.657123545584426 51.000000000000000
0.017981118698194 -5.367223339339296 -1.745659275179979 57.000000000000000
0.012576512501210 -5.290523640014817 -1.823572714694339 63.000000000000000
0.007866784066406 -5.299180266518165 -1.930861625454533 49.000000000000000
0.002879027064964 -5.294488904442255 -2.034689890853396 52.000000000000000
-0.002142242521948 -5.299084812904265 -2.142977264565432 54.000000000000000
-0.007324504670860 -5.286735526208409 -2.245865051056547 48.000000000000000
-0.012259641928969 -5.119139907870480 -2.280147430502596 53.000000000000000
-0.017612759000536 -5.089655267198962 -2.373721772195353 46.000000000000000
-0.024088228972233 -5.328230867686042 -2.598183899931377 5.000000000000000
-0.030546913542870 -5.360827355662776 -2.729991382559779 6.000000000000000
-0.036298529237169 -5.369117619859846 -2.852658128988780 5.000000000000000
-0.043787690493825 -5.472789825227811 -3.030542883221446 6.000000000000000
0.021217850472128 -5.476868998107588 -1.363155083029559 80.000000000000000
0.015814726146586 -5.386228255696861 -1.442245149747316 111.000000000000000
0.010444493530239 -5.383065810277511 -1.543532764399972 56.000000000000000
0.005580272820191 -5.412613270129373 -1.655048775285692 51.000000000000000
0.000495042121201 -5.359939236042249 -1.742282164538263 56.000000000000000
-0.004795386159284 -5.279500410650088 -1.818765630370537 59.000000000000000
-0.009699502572581 -5.303266111537872 -1.931323502125894 48.000000000000000
-0.014846708102737 -5.306021868133578 -2.038079367970436 60.000000000000000
-0.020003919781104 -5.299420001161325 -2.142055903678682 52.000000000000000
-0.025280805670049 -5.283391854079992 -2.243375001444445 48.000000000000000
-0.029792924718380 -5.115816544736434 -2.277615740689744 58.000000000000000
-0.035318741135445 -5.104488408822434 -2.379574472615222 42.000000000000000
-0.042997367356363 -5.368132379130103 -2.616503389360580 5.000000000000000
-0.049681182271264 -5.389699005817209 -2.743534291169170 6.000000000000000
-0.055732314203231 -5.404802465002692 -2.870436242708481 5.000000000000000
0.003971767349802 -5.477137053145706 -1.362237103489143 64.000000000000000
-0.001292768640862 -5.394223040103714 -1.443402966036677 109.000000000000000
-0.006811337631517 -5.394870312768965 -1.545921056873141 44.000000000000000
-0.011919420423341 -5.420537907088828 -1.656457281438268 53.000000000000000
-0.016928956232348 -5.348801075455691 -1.737646818442955 54.000000000000000
-0.022092271835494 -5.268427287306409 -1.813937664279113 60.000000000000000
-0.027251575246188 -5.299785707729056 -1.929022758755693 50.000000000000000
-0.032623920375061 -5.313772223346507 -2.040005989748680 57.000000000000000
-0.037891628947879 -5.303413806597470 -2.142607341639390 50.000000000000000
-0.042156931668409 -5.151127173348472 -2.186167339684517 48.000000000000000
-0.047233074470125 -5.105134865393371 -2.271807879821951 25.000000000000000
-0.055043389292857 -5.304176762896099 -2.471554792685814 8.000000000000000
-0.062140675274872 -5.404390474981668 -2.633029838494769 0.000000000000000
-0.068970310348571 -5.414956156618831 -2.755225747227663 5.000000000000000
-0.013301892167176 -5.489002456438890 -1.364188803968351 56.000000000000000
-0.018422314849852 -5.394442075861704 -1.442467090955089 103.000000000000000
-0.024174753896853 -5.414318223617289 -1.550483071394125 63.000000000000000
-0.029467886745130 -5.428414173308840 -1.657838112322939 53.000000000000000
-0.034302396149358 -5.341417439474571 -1.734225787749488 52.000000000000000
-0.039398827392121 -5.268651281259255 -1.812993493889409 59.000000000000000
-0.044746323150139 -5.292496849216151 -1.925330846270755 50.000000000000000
-0.050344190573384 -5.310270427417985 -2.037605813243947 57.000000000000000
-0.055647708228112 -5.292522492498190 -2.137141314693464 44.000000000000000
-0.059496055435260 -5.136629744252081 -2.178966518754348 50.000000000000000
-0.064875460669232 -5.116330149494259 -2.275732184590049 19.000000000000000
-0.074039857310940 -5.351553898168849 -2.492509774208152 1.000000000000000
-0.030691323079477 -5.508584280354792 -1.368039936886240 54.000000000000000
-0.035627452823708 -5.406206099524663 -1.444604545911306 101.000000000000000
-0.041513078746141 -5.414491331738202 -1.549510981834233 61.000000000000000
-0.047064950129156 -5.436241858758777 -1.659191171489372 51.000000000000000
-0.051625460244489 -5.333984461027796 -1.730782649950175 51.000000000000000
-0.056745283552450 -5.272609118525359 -1.813325413718616 61.000000000000000
-0.061836592935387 -5.255086234981930 -1.910682835710199 55.000000000000000
-0.067559880757808 -5.269373641121709 -2.020859493572904 48.000000000000000
-0.071937632243745 -5.181437974641915 -2.091236354888145 50.000000000000000
-0.076954916620308 -5.136811396396198 -2.177991418408738 49.000000000000000
-0.085653373323489 -5.317519069222146 -2.364118112129160 5.000000000000000
-0.048201974670466 -5.528118526529437 -1.371859368258961 33.000000000000000
-0.052905229421040 -5.417922629954898 -1.446713313867857 92.000000000000000
-0.058850415246831 -5.414615830408120 -1.548514138688785 31.000000000000000
-0.064801382901350 -5.451672223669486 -1.662850187613027 16.000000000000000
-0.068947193619308 -5.330306991339356 -1.728551319044595 47.000000000000000
-0.073956219638228 -5.265171268301716 -1.809730917298735 57.000000000000000
-0.079073635434114 -5.243938285512081 -1.905586161242742 57.000000000000000
-0.084439741831980 -5.224690467177857 -2.002672078044776 57.000000000000000
-0.089268489221150 -5.174151732828151 -2.087243393211152 55.000000000000000
-0.094480487871978 -5.140626498965249 -2.178551958422785 50.000000000000000
-0.065557245637385 -5.524311728000382 -1.369870862315812 0.000000000000000
-0.070255468213064 -5.429591356334166 -1.448793246949841 81.000000000000000
-0.076781800038641 -5.456993997448276 -1.559582337357127 9.000000000000000
-0.086181393129209 -5.322776004492288 -1.725063585343867 45.000000000000000
-0.091247422362926 -5.265249652719527 -1.808713355523480 56.000000000000000
-0.096442228100375 -5.244018643955890 -1.904564873791929 59.000000000000000
-0.101674526707754 -5.213568361392105 -1.997354057674798 58.000000000000000
-0.106624703660512 -5.170525431416354 -2.084723947108113 52.000000000000000
-0.112029945054131 -5.144392773526038 -2.179086111906605 46.000000000000000
-0.087740262629970 -5.445076465448429 -1.451874626726863 59.000000000000000
-0.094717025338902 -5.483941254838472 -1.566216140445369 2.000000000000000
-0.103734668066412 -5.334219870643940 -1.727715685600062 39.000000000000000
-0.108537307463112 -5.265279552040286 -1.807671123781949 53.000000000000000
-0.113727919088714 -5.240291124589706 -1.902154276068613 57.000000000000000
-0.119089065655126 -5.213601189177473 -1.996305696692925 50.000000000000000
-0.124221563628940 -5.177977658934362 -2.086665370083618 54.000000000000000
-0.130066643497223 -5.166522524979650 -2.187389235396221 7.000000000000000
-0.105545307692779 -5.472106566201396 -1.458014374469469 19.000000000000000
-0.121533529474436 -5.353224470619921 -1.732801595212090 35.000000000000000
-0.126006488352491 -5.272825996092416 -1.809199928096696 52.000000000000000
-0.131175288610418 -5.244033254628902 -1.902447967226483 56.000000000000000
-0.136404334274036 -5.209850522359079 -1.993803248133099 50.000000000000000
-0.141866915814073 -5.185380996775590 -2.088578870063562 52.000000000000000
-0.146884162617103 -5.140730998546402 -2.175400157064526 0.000000000000000
-0.122652369045955 -5.460443177489624 -1.453829667386949 0.000000000000000
-0.139750876051185 -5.383593862418444 -1.741547248045080 4.000000000000000
-0.143523684877967 -5.280323762202271 -1.810700946650522 52.000000000000000
-0.148965333118588 -5.259003972682976 -1.906804275439285 54.000000000000000
-0.154134009810868 -5.220989567562039 -1.996991397685020 51.000000000000000
-0.160016468552078 -5.207571621228559 -2.096437106036589 21.000000000000000
-0.250377650778805 -8.932924725833278 -2.715836312185795 15.000000000000000
-0.259865551710581 -8.895100987806771 -2.875682929627881 36.000000000000000
-0.161780086431318 -5.310466945231454 -1.819951655192628 43.000000000000000
-0.166972040304094 -5.277684367383551 -1.912491583257811 41.000000000000000
-0.172182128189626 -5.239548389227071 -2.003005240053079 4.000000000000000
-0.176670060238753 -5.181495084483900 -2.084859798471927 0.000000000000000
-0.267513066460127 -8.894441065294005 -2.533151968454464 16.000000000000000
-0.279207622583288 -8.932648841192515 -2.713932162643976 19.000000000000000
-0.181126643298814 -5.367035482164761 -1.838232649114846 14.000000000000000
-0.183656108250323 -5.254966660114937 -1.903170994677777 0.000000000000000
-0.188730608493810 -5.213244156997615 -1.991863980533754 0.000000000000000
-0.278201051430404 -8.698038770106297 -2.310571731998541 0.000000000000000
-0.295718916849611 -8.886396079456009 -2.529041526200422 32.000000000000000
-0.325315528461213 -9.433418533812896 -2.864136968243209 3.000000000000000
-0.281885214436941 -7.890132280200675 -2.547541820425555 12.000000000000000
-0.290900854839612 -7.855449421099037 -2.688894770199899 40.000000000000000
-0.327032353745873 -8.547433051327589 -3.093808990981213 8.000000000000000
-0.330652931454026 -9.754384542201805 -2.405276458491901 4.000000000000000
-0.304166358320408 -8.651250932048219 -2.296361499677459 20.000000000000000
-0.297501878252326 -8.155398400170348 -2.319315754039379 0.000000000000000
-0.300646135896037 -7.971727915710781 -2.418690128736678 16.000000000000000
-0.307116692175747 -7.878331663849238 -2.542090779609878 51.000000000000000
-0.319426385294427 -7.923134647770930 -2.710406636958661 7.000000000000000
-0.341886183903295 -8.223770552621991 -2.974931215185224 4.000000000000000
-0.343635177674879 -8.013331020497406 -3.058348708142740 5.000000000000000
-0.335599606562836 -9.758949190681115 -2.042268248242458 2.000000000000000
-0.338069060550254 -9.467527325446026 -2.156917163970711 2.000000000000000
-0.339047670112612 -9.152219680610285 -2.254893699321764 3.000000000000000
-0.319465996259761 -8.333934152261293 -2.210399742808218 21.000000000000000
-0.321000075978504 -8.089564472807844 -2.298904432878181 33.000000000000000
-0.325740138625082 -7.955965223731670 -2.412241845433579 42.000000000000000
-0.334680249441509 -7.923518804984965 -2.555007412451758 9.000000000000000
-0.350043774717774 -8.028556573317644 -2.744779172323228 4.000000000000000
-0.350885014394911 -7.817382947669807 -2.826270255328458 4.000000000000000
-0.352089256702804 -7.617067230465451 -2.905498229544091 3.000000000000000
-0.353715091757993 -7.435226263700883 -2.985413881095091 5.000000000000000
-0.356192468107425 -7.274988614709172 -3.069345790476443 6.000000000000000
-0.343043418548995 -9.151846933378994 -1.913309938559808 4.000000000000000
-0.348375239266177 -8.971933579372990 -2.042132840925285 4.000000000000000
-0.350829072549616 -8.728578197113960 -2.148687417639154 3.000000000000000
-0.346221873353582 -8.341109037808293 -2.210548898758938 13.000000000000000
-0.347373343377650 -8.100557930557498 -2.300321058894321 22.000000000000000
-0.354617174163542 -8.028101128367174 -2.432417507850577 4.000000000000000
-0.357518448550576 -7.858322267470136 -2.532320615468942 3.000000000000000
-0.357949670328532 -7.634740222699793 -2.608522525377462 4.000000000000000
-0.359366677949577 -7.456071601585656 -2.694057880374400 3.000000000000000
-0.361228119714890 -7.287987528790601 -2.778419699347080 4.000000000000000
-0.361932674015040 -7.104693362499056 -2.851180977128981 3.000000000000000
-0.362581980577236 -6.924748503169369 -2.920097340023833 3.000000000000000
-0.364123189436149 -6.766786145153099 -2.992738473151122 3.000000000000000
-0.366402886661798 -6.622809465063166 -3.067736578344960 6.000000000000000
-0.354828724963487 -8.744282927365283 -1.826256461214800 4.000000000000000
-0.354445097647240 -8.449050061478426 -1.921329157480636 4.000000000000000
-0.358935771440114 -8.281634275337064 -2.036908157365723 3.000000000000000
-0.361111905261897 -8.081653101999635 -2.140071337787088 3.000000000000000
-0.363717758960659 -7.892351812982777 -2.239516968438530 3.000000000000000
-0.362386047387495 -7.645046139220443 -2.314727172227748 3.000000000000000
-0.364541554406406 -7.477385280442767 -2.407969024495292 4.000000000000000
-0.366305747090719 -7.301409147761488 -2.493074518868855 4.000000000000000
-0.367198548776856 -7.128563907241091 -2.574196155337779 3.000000000000000
-0.367182158659437 -6.940221207968864 -2.644353011006925 2.000000000000000
-0.368729946322446 -6.788973204917882 -2.723023512493432 4.000000000000000
-0.369671545590979 -6.629711249220648 -2.794259776817030 2.000000000000000
-0.370565933260761 -6.473969181643215 -2.861843448590514 2.000000000000000
-0.371595326282906 -6.321430007902310 -2.926775626637081 3.000000000000000
-0.373021329615314 -6.183164334761177 -2.993949548170343 3.000000000000000
-0.375413842343516 -6.055121858351836 -3.062707907634466 5.000000000000000
-0.372677053955712 -5.862915141284996 -3.094662802236460 7.000000000000000
-0.363068061521571 -8.313233601347628 -1.734453421723311 2.000000000000000
-0.364806020426127 -8.093738589734023 -1.838797489804450 2.000000000000000
-0.366756562003027 -7.889014540901040 -1.938649838851685 2.000000000000000
-0.366776066861756 -7.663791700266241 -2.027774171772511 2.000000000000000
-0.370772402653521 -7.522661174121505 -2.132998050818471 2.000000000000000
-0.371362002475828 -7.334641738037586 -2.219167600194747 2.000000000000000
-0.373041650363020 -7.172502242250601 -2.308243382315768 3.000000000000000
-0.371867907356739 -6.956722807338885 -2.373883325129754 2.000000000000000
-0.373068688806011 -6.804801247178187 -2.455816715440054 4.000000000000000
-0.374594230762961 -6.659640999722098 -2.536012010440712 2.000000000000000
-0.374898578848674 -6.499193644528610 -2.605393833280519 3.000000000000000
-0.376064087528986 -6.356744972375731 -2.677841137604478 2.000000000000000
-0.375446308260513 -6.188445635805364 -2.734292720667466 2.000000000000000
-0.376961433026069 -6.056283953066095 -2.802709538615275 3.000000000000000
-0.378507174754171 -5.930985933472781 -2.870564086657465 3.000000000000000
-0.371481091483029 -5.669697031476383 -2.866536825149550 6.000000000000000
-0.367633459808434 -5.477434565192678 -2.890012495346996 7.000000000000000
-0.376523367599314 -5.464572772508325 -3.005691029965049 8.000000000000000
-0.370288403064198 -7.917392267753359 -1.650152167854677 2.000000000000000
-0.369382899065312 -7.664384858962710 -1.739593345463608 2.000000000000000
-0.373456171715641 -7.523554924259807 -1.847210813484347 3.000000000000000
-0.374717577270767 -7.342496900003821 -1.941170268348091 2.000000000000000
-0.377883090352192 -7.199092263668035 -2.039690895508659 2.000000000000000
-0.376069890499761 -6.982165302350151 -2.111008083385075 2.000000000000000
-0.377246248087613 -6.825779384772383 -2.195181327070769 3.000000000000000
-0.380102005544079 -6.698985769701623 -2.284481587300832 3.000000000000000
-0.379199073641614 -6.522362866305587 -2.352472465893555 2.000000000000000
-0.380800909433550 -6.390247838626379 -2.432041781776264 3.000000000000000
-0.379342911564325 -6.213113387211645 -2.489364777025927 2.000000000000000
-0.379912574167727 -6.072727629823567 -2.556882001572752 2.000000000000000
-0.381649372863105 -5.954055310255189 -2.629442739177862 2.000000000000000
-0.375971952332204 -5.722273629272479 -2.646901132039556 2.000000000000000
-0.368688223634137 -5.477523797631179 -2.649909062616603 7.000000000000000
-0.376893694511395 -5.458889622414965 -2.758778576350004 11.000000000000000
-0.385310382523126 -5.452155691229512 -2.875501734952270 9.000000000000000
-0.395315490874973 -5.453512718055997 -2.998436375292256 7.000000000000000
-0.375841518658680 -7.537202806820278 -1.569261291727056 2.000000000000000
-0.377880467404973 -7.363617329177086 -1.669714401266489 2.000000000000000
-0.380315237856591 -7.204656211453894 -1.767335054428816 3.000000000000000
-0.379783940949914 -7.005751013884865 -1.850608788925349 3.000000000000000
-0.380997817919250 -6.840933173306576 -1.936717320905243 3.000000000000000
-0.384616200037379 -6.736749083383303 -2.035334411393626 3.000000000000000
-0.384536197592579 -6.570317447994357 -2.111588157127699 3.000000000000000
-0.385510737620008 -6.422338243927316 -2.188736839313549 3.000000000000000
-0.383460767673351 -6.239920721634188 -2.249240589037918 2.000000000000000
-0.383095984424803 -6.087259329422821 -2.315402194667791 4.000000000000000
-0.385444090935263 -5.982633416247943 -2.395718318074259 3.000000000000000
-0.381104893972020 -5.777670577587813 -2.431395022752716 2.000000000000000
-0.370215662928313 -5.482250301834747 -2.419894210695037 7.000000000000000
-0.377938752358708 -5.464372908532090 -2.526423364356436 11.000000000000000
-0.386497548411570 -5.458950850042887 -2.639744544816389 11.000000000000000
-0.396336966718142 -5.461843951913429 -2.759094353906614 9.000000000000000
-0.404642767382577 -5.451543397306753 -2.874006753312545 9.000000000000000
-0.415359153397979 -5.459888599563581 -3.000771443153268 9.000000000000000
-0.381529993156390 -7.203957985822575 -1.498281750147566 2.000000000000000
-0.383230422964379 -7.039474119448456 -1.594654371495565 1.000000000000000
-0.383650336293933 -6.858605967293930 -1.680928494868730 3.000000000000000
-0.387590392598446 -6.753969810067208 -1.782605254190093 3.000000000000000
-0.389064813117515 -6.605758650301821 -1.868677935107200 3.000000000000000
-0.389273719479757 -6.453095434127309 -1.948211818403661 3.000000000000000
-0.387345927544669 -6.269228813012688 -2.013442132892347 3.000000000000000
-0.386951227055540 -6.111675252696183 -2.081518280837635 3.000000000000000
-0.388286996359004 -5.995045612443484 -2.159656758186505 3.000000000000000
-0.383864292933517 -5.791744405617307 -2.201728626468590 2.000000000000000
-0.371399362560389 -5.477883413578861 -2.192395908755382 8.000000000000000
-0.379529017775207 -5.471585802328885 -2.301393172063295 13.000000000000000
-0.388204835684818 -5.470647214535845 -2.413582412026185 12.000000000000000
-0.396807349677383 -5.463722206711869 -2.524937142806845 11.000000000000000
-0.405779567024904 -5.461888742562042 -2.639983770188580 11.000000000000000
-0.415530310779889 -5.461181150519898 -2.757582093434270 9.000000000000000
-0.424794992166081 -5.461467919079770 -2.878065562750977 8.000000000000000
-0.434334494521608 -5.452218966017292 -2.995389439366772 7.000000000000000
-0.384939650579193 -6.866814918999631 -1.426622000957528 2.000000000000000
-0.389923260700254 -6.773770788760771 -1.532946558786757 2.000000000000000
-0.390539903500904 -6.609545216705555 -1.618408666591422 3.000000000000000
-0.391929879301191 -6.471297090743409 -1.706552352858484 3.000000000000000
-0.392287596787041 -6.316786724315555 -1.785522870454983 2.000000000000000
-0.389915897869069 -6.135047398701830 -1.850826574336684 3.000000000000000
-0.392401243138988 -6.032776985447959 -1.936162985967972 3.000000000000000
-0.391640082230441 -5.880392178577050 -2.001444946062817 2.000000000000000
-0.372826828404675 -5.475997667502971 -1.971464861853675 9.000000000000000
-0.380842909881728 -5.470126819798637 -2.078260631709238 19.000000000000000
-0.389565496877959 -5.473488700484381 -2.189434668884190 17.000000000000000
-0.397829037594892 -5.467213475187055 -2.298356994372152 13.000000000000000
-0.406386647747622 -5.462645743531032 -2.408860181333640 11.000000000000000
-0.415947560634370 -5.466641227474460 -2.525097486608952 10.000000000000000
-0.424803079756242 -5.461179440696711 -2.638458159596465 10.000000000000000
-0.435286700222061 -5.467588362286458 -2.759638198967299 9.000000000000000
-0.444156856827839 -5.460745698695679 -2.876512663053902 7.000000000000000
-0.454128941811006 -5.454986729333232 -2.995744763328135 7.000000000000000
-0.392742319244355 -6.639173630501356 -1.377821096779265 2.000000000000000
-0.393542092818412 -6.484704587342038 -1.466059697312912 2.000000000000000
-0.394174560055435 -6.333338901521769 -1.549344627471931 2.000000000000000
-0.393001163277726 -6.165472801546669 -1.624511994123348 3.000000000000000
-0.395921292030591 -6.062406720880277 -1.712254385639724 3.000000000000000
-0.396420866493049 -5.935504557991676 -1.789295989675529 3.000000000000000
-0.375669095590717 -5.499861868423892 -1.763898001267338 6.000000000000000
-0.382664532499259 -5.475295045529220 -1.862344763992507 18.000000000000000
-0.390400022202262 -5.467756819610707 -1.967282182165305 20.000000000000000
-0.399088268897498 -5.469392289407854 -2.076769736440297 20.000000000000000
-0.407978794114337 -5.472748561881201 -2.187930639206886 16.000000000000000
-0.416660340789210 -5.470147314917729 -2.298387807466743 14.000000000000000
-0.425366723138227 -5.465546707095886 -2.408942992974298 11.000000000000000
-0.434532265523868 -5.462261903753922 -2.521884336169538 9.000000000000000
-0.443822340950222 -5.460416730808866 -2.636905545440730 9.000000000000000
-0.454496677350615 -5.466816801732557 -2.758069402058595 8.000000000000000
-0.463214771811141 -5.456439728546092 -2.873073887654091 7.000000000000000
