# This PCD file was generated using the MATLAB® pcwrite function
# from Computer Vision Toolbox®.
# .PCD v.7 - Point Cloud Data file format
VERSION .7
FIELDS x y z intensity
SIZE 8 8 8 8
TYPE F F F F
COUNT 1 1 1 1
WIDTH 630
HEIGHT 1
VIEWPOINT 0 0 0 1 0 0 0
POINTS 630
DATA ascii
-2.876208950052527 -5.535595931143712 -1.882247529615305 9.000000000000000
-2.916980643000381 -5.550602846361198 -2.007756950013636 12.000000000000000
-2.942966507720995 -5.536174717464132 -2.124645295606641 11.000000000000000
-2.984273436520397 -5.549616923129958 -2.253603350767015 4.000000000000000
-3.010787702826534 -5.533870110232957 -2.373028236574275 6.000000000000000
-2.939514407278287 -5.340119889983046 -2.413195104008552 11.000000000000000
-2.853102526336015 -5.121365646570593 -2.434856030310956 1.000000000000000
-2.988149481872805 -5.236370717627810 -2.743858666468318 0.000000000000000
-3.106728961421542 -5.314634570083916 -3.054059355469958 23.000000000000000
-3.022649322762211 -5.109968836805119 -3.070450383654763 2.000000000000000
-2.614301195254107 -4.146168121848478 -3.078256513980017 70.000000000000000
-2.622415643238045 -5.551930756563008 -0.859651713445683 34.000000000000000
-2.645839504539598 -5.536593612398557 -0.966751512729688 26.000000000000000
-2.687324395637301 -5.558617623828406 -1.080685756673443 9.000000000000000
-2.707309810449557 -5.536018362430555 -1.187918465668121 22.000000000000000
-2.738860160082656 -5.536167848246634 -1.300320952516048 3.000000000000000
-2.776127059919336 -5.548619570511852 -1.416486995675035 19.000000000000000
-2.798868749127894 -5.530974558655591 -1.526469834834562 11.000000000000000
-2.842231785727872 -5.552696199762745 -1.648510657939012 8.000000000000000
-2.865031208576392 -5.534526724482001 -1.760450541730107 17.000000000000000
-2.908559426585757 -5.555003032525212 -1.886405940049708 4.000000000000000
-2.937121103241119 -5.546137350021454 -2.003852319806196 16.000000000000000
-2.968607537529540 -5.541650418419742 -2.124611947662700 3.000000000000000
-3.004773158752798 -5.544949908711901 -2.249729933639725 11.000000000000000
-3.011617393541903 -5.493003594075542 -2.353706904095973 2.000000000000000
-2.959666414780946 -5.335546697103731 -2.409546877784941 10.000000000000000
-2.861825061719219 -5.097673544276185 -2.422243949750409 1.000000000000000
-3.008494032862897 -5.231621791113051 -2.740343242913087 0.000000000000000
-3.009469805753106 -5.108769993207850 -2.935134859722704 23.000000000000000
-2.635716336898319 -4.147949182850124 -3.080181320620636 66.000000000000000
-2.637437515702668 -5.541149723757237 -0.854399841800799 35.000000000000000
-2.674675609717663 -5.554265509517514 -0.966356576303790 4.000000000000000
-2.702656770109898 -5.547727169239000 -1.075204928684096 23.000000000000000
-2.726194178269365 -5.532156543009073 -1.183853574565762 12.000000000000000
-2.766648430776436 -5.549734914749866 -1.300382573125529 20.000000000000000
-2.791880016639492 -5.537597592390188 -1.410680288883154 24.000000000000000
-2.830602805238938 -5.551076616445548 -1.529147526344306 3.000000000000000
-2.860082685339115 -5.545011457032963 -1.643495961174401 20.000000000000000
-2.890113807560115 -5.540452097384524 -1.759743372181810 4.000000000000000
-2.928543677603285 -5.550561756514963 -1.882445249000182 17.000000000000000
-2.957254553415906 -5.541610147313709 -1.999916618634541 7.000000000000000
-2.994308293536645 -5.547035263312524 -2.124528566723691 9.000000000000000
-3.021653121250009 -5.533604991064562 -2.243143378766822 5.000000000000000
-3.032117944778063 -5.488243432326045 -2.349863995316513 2.000000000000000
-2.981627369632631 -5.334160367877426 -2.407333669939287 13.000000000000000
-2.886789008996057 -5.102936470570700 -2.423391135342996 1.000000000000000
-3.030658170626827 -5.229963118477063 -2.738447157091503 0.000000000000000
-3.012623972407789 -5.136412726115457 -2.818351487638314 11.000000000000000
-3.031576307334301 -5.107004896202440 -2.933499971531214 10.000000000000000
-2.653514637552245 -4.143944685889958 -3.077823664308979 58.000000000000000
-2.655837816962515 -5.537475682094048 -0.850228534106477 7.000000000000000
-2.693283990523313 -5.550489440917271 -0.962197647397188 30.000000000000000
-2.717939956315116 -5.536797711855198 -1.069707199125456 27.000000000000000
-2.757304164297788 -5.552869048611655 -1.185016065088050 4.000000000000000
-2.782237255356141 -5.538703707551936 -1.294658678902961 23.000000000000000
-2.811116605086275 -5.533491423429503 -1.406624363303989 4.000000000000000
-2.853606172008263 -5.553772175695863 -1.527000470053234 21.000000000000000
-2.879689067797187 -5.540708925854225 -1.639472924987994 14.000000000000000
-2.918839726816948 -5.553105831540598 -1.761149134191927 12.000000000000000
-2.946721894527424 -5.542675370118122 -1.877307598077269 16.000000000000000
-2.986408596294105 -5.553810248551520 -2.002001852912423 5.000000000000000
-3.014633342481750 -5.542336756836138 -2.120571876692789 11.000000000000000
-3.042115311016591 -5.528822196850989 -2.239213154232137 4.000000000000000
-3.052610767332754 -5.483420523416585 -2.345989528224270 2.000000000000000
-3.007257521829547 -5.339190105026515 -2.408008974191451 18.000000000000000
-2.908151154051055 -5.101685161743784 -2.421439525496107 1.000000000000000
-3.017916091502270 -5.168427339804427 -2.705210767724723 1.000000000000000
-3.014417042313504 -5.100426780647942 -2.797792084887504 25.000000000000000
-2.678668274151028 -4.151289956763879 -3.083910499986680 49.000000000000000
-2.686301960535662 -5.558719822422841 -0.849846875987460 9.000000000000000
-2.708414276306395 -5.539553968596387 -0.956783119054532 20.000000000000000
-2.743659160676732 -5.547028251360435 -1.068275240115512 3.000000000000000
-2.776253029443101 -5.548857477641361 -1.180870784350069 22.000000000000000
-2.799544591312225 -5.531126885748094 -1.289732319130239 16.000000000000000
-2.844569658919168 -5.557111593901076 -1.409586531039066 6.000000000000000
-2.871286688732456 -5.546035125621415 -1.521969492625019 22.000000000000000
-2.911855201690440 -5.560342669950824 -1.642508044763393 4.000000000000000
-2.936852071558943 -5.545226062674145 -1.756025006547269 19.000000000000000
-2.966680715314397 -5.538116316122840 -1.873288339384955 4.000000000000000
-3.006582816858895 -5.549135314596936 -1.997988244625577 19.000000000000000
-3.031305048542924 -5.530924208116289 -2.114041415571458 5.000000000000000
-3.064397957644485 -5.527274616607871 -2.236585895910691 0.000000000000000
-3.074929212132305 -5.481803667725788 -2.343480934183914 1.000000000000000
-3.027432675528953 -5.334412244325001 -2.404254853948538 20.000000000000000
-2.933214139991882 -5.106779649226318 -2.422494669385182 1.000000000000000
-3.014010878622351 -5.122718432084689 -2.680278770785962 16.000000000000000
-2.698353713203820 -4.150002876007863 -3.083599741789719 36.000000000000000
-2.699561297633266 -5.544209613606077 -0.843969525941881 26.000000000000000
-2.725242375001637 -5.532126345609542 -0.951962233341352 16.000000000000000
-2.767700556724573 -5.553634381641630 -1.066111993814189 23.000000000000000
-2.791657334411559 -5.537768759285752 -1.175206575843114 28.000000000000000
-2.825720751986459 -5.540947210930729 -1.288840656354408 3.000000000000000
-2.865669675191088 -5.556316673978595 -1.406323693591791 22.000000000000000
-2.887140604387126 -5.534801528229383 -1.515970703413771 6.000000000000000
-2.929718559029045 -5.552462350364002 -1.637392748448287 21.000000000000000
-2.953021108381289 -5.533895932416533 -1.749801743809364 9.000000000000000
-2.997558731526047 -5.553740454475705 -1.876076921496538 9.000000000000000
-3.024921485457127 -5.541050400933746 -1.992739436336777 9.000000000000000
-3.051592154886959 -5.526110870679987 -2.110028427577420 3.000000000000000
-3.091727566681213 -5.470322488604463 -2.336751703560251 0.000000000000000
-3.043901604501437 -5.323104567530557 -2.397556419617463 6.000000000000000
-2.949069261379374 -5.095770289838846 -2.415908037319102 1.000000000000000
-3.010090113344119 -5.140099181971417 -2.561443715767490 6.000000000000000
-3.026550843816354 -5.105316055700985 -2.670168901248803 17.000000000000000
-2.725503667795945 -4.160017262564918 -3.091702141538335 17.000000000000000
-2.716241519560270 -5.536787654835917 -0.839160576215006 43.000000000000000
-2.757862239900312 -5.556523904592931 -0.952582785598902 5.000000000000000
-2.784723658531409 -5.546059518023866 -1.061204018156887 22.000000000000000
-2.812351553423488 -5.537154502426441 -1.171750296016641 4.000000000000000
-2.855558072403029 -5.557638792782321 -1.289511203555426 20.000000000000000
-2.879585615276088 -5.541598527958894 -1.399525790837331 18.000000000000000
-2.922839097065545 -5.561383493696779 -1.520303012133464 9.000000000000000
-2.945735281906646 -5.541112956121395 -1.631247024957893 22.000000000000000
-2.985562757666171 -5.553073209163144 -1.753205337007421 4.000000000000000
-3.015736405277854 -5.545660146768231 -1.870840311311564 19.000000000000000
-3.043229988564104 -5.532913392827490 -1.987465880002550 5.000000000000000
-4.320914137998235 -7.766206004246090 -2.962291226678928 58.000000000000000
-3.097338235399015 -5.439244309575750 -2.321657424402478 0.000000000000000
-3.045435195123564 -5.285922480139059 -2.379212476064977 1.000000000000000
-2.976061245594955 -5.103908120418838 -2.418395617096269 1.000000000000000
-3.013145445044236 -5.106773159689320 -2.543644319177888 26.000000000000000
-3.046479618385187 -5.100423553582003 -2.666605615540020 0.000000000000000
-2.739919498405490 -5.543532493019732 -0.836473933300879 3.000000000000000
-2.774731514721045 -5.548957344358005 -0.947688457094006 31.000000000000000
-2.798158514398281 -5.531398888156815 -1.054930930629092 22.000000000000000
-2.843805561844925 -5.557470117248894 -1.172689141377815 4.000000000000000
-2.869308210489834 -5.542897096214420 -1.282866389766823 24.000000000000000
-2.900671464434960 -5.540684616709679 -1.396203077481738 3.000000000000000
-2.938711348530353 -5.550015298629137 -1.514234392358544 22.000000000000000
-2.969013314737536 -5.543376373742014 -1.629096165347545 5.000000000000000
-3.007235189069902 -5.551784405104632 -1.750122977638059 19.000000000000000
-3.030197572856123 -5.530799729667216 -1.863312378472782 5.000000000000000
-3.065207853210966 -5.531400774660374 -1.984562996405115 1.000000000000000
-4.352384113186718 -7.764536236184679 -2.958568837842879 79.000000000000000
-3.100896070754644 -5.404928747050937 -2.305195175615461 2.000000000000000
-2.995631667993358 -5.099174205207121 -2.414778941159136 1.000000000000000
-3.034784815947284 -5.105085887919475 -2.541609568336814 6.000000000000000
-2.768956237977168 -5.560837517044662 -0.835339129453355 16.000000000000000
-2.791572585134382 -5.541342853116016 -0.942771385939445 44.000000000000000
-2.824057285644832 -5.541306259831537 -1.053323018901682 3.000000000000000
-2.862792668428717 -5.553195369271452 -1.168407175728089 20.000000000000000
-2.888422071101303 -5.538549606840490 -1.278617296825720 13.000000000000000
-2.929057924641376 -5.553516098130734 -1.396317521876151 20.000000000000000
-2.952701609431819 -5.535175111511844 -1.507213883481235 15.000000000000000
-2.999684038380481 -5.559193350278909 -1.630901886717937 8.000000000000000
-3.025227678347644 -5.543655795552914 -1.744873036811537 12.000000000000000
-3.055709555764589 -5.536063207214686 -1.862553966072613 4.000000000000000
-4.335849521236135 -7.766408674943652 -2.783110709791536 79.000000000000000
-4.382010013723214 -7.759456842072952 -2.953533774250212 82.000000000000000
-3.111757826723158 -5.383636659702671 -2.294298050413814 5.000000000000000
-3.022742098506396 -5.107131908153244 -2.417167325329415 0.000000000000000
-2.780337135368748 -5.542588577027955 -0.828838512310285 26.000000000000000
-2.808385284925749 -5.533680506018926 -0.937831620664731 5.000000000000000
-2.853638198993153 -5.558134281673888 -1.052990188049539 15.000000000000000
-2.878147563356249 -5.541882239480477 -1.162631432259309 24.000000000000000
-2.920288786122974 -5.558430845344338 -1.279931225952796 5.000000000000000
-2.946550936824350 -5.545546159696690 -1.391179128427697 25.000000000000000
-2.981350314638317 -5.547717706161399 -1.507632101724197 4.000000000000000
-3.017527196514041 -5.551065674569073 -1.625661556080820 29.000000000000000
-3.041332010863171 -5.532096647275995 -1.738536822991300 4.000000000000000
-4.319759164783973 -7.768462965687516 -2.610049790522471 63.000000000000000
-4.368983855312996 -7.768046451915061 -2.780347171290702 70.000000000000000
-4.413514531716664 -7.757584906135058 -2.949706070514714 70.000000000000000
-3.128167295334717 -5.372064571801141 -2.287546198177708 1.000000000000000
-3.038545853940861 -5.095891429518496 -2.410465853742539 0.000000000000000
-2.796990846725216 -5.534938375272630 -0.823914671109655 39.000000000000000
-2.841375009048698 -5.557668105528621 -0.938220276237634 3.000000000000000
-2.867030167760081 -5.543309091863351 -1.046635719445274 20.000000000000000
-2.898921414235802 -5.540984918414622 -1.159025784004312 3.000000000000000
-2.939463274899837 -5.553930442646342 -1.275600366008619 25.000000000000000
-2.962170973949736 -5.534082772455106 -1.385155221881390 8.000000000000000
-3.004542766348479 -5.549885374608744 -1.505204004076189 20.000000000000000
-3.033479054123098 -5.539488831103725 -1.619403692188430 8.000000000000000
-3.062990433792003 -5.530619662159585 -1.735359258203463 1.000000000000000
-4.347041051109007 -7.760152840460913 -2.603667796140578 50.000000000000000
-4.398396863306544 -7.762924668110478 -2.775147136657252 83.000000000000000
-4.448819407225670 -7.762201262624927 -2.948327905847011 77.000000000000000
-3.190049891011201 -4.937040882202691 -3.097086537428151 11.000000000000000
-2.822611015268780 -5.544911047443589 -0.821586594596940 2.000000000000000
-2.861849175598379 -5.556899824487184 -0.934389445970571 31.000000000000000
-2.883996151017294 -5.535453444827848 -1.041587903664855 17.000000000000000
-2.928878987151877 -5.557418535762541 -1.159012983957957 13.000000000000000
-2.953096127234738 -5.538991626059161 -1.268862100370914 26.000000000000000
-2.998134948529942 -5.560405676327289 -1.388560241786660 4.000000000000000
-3.025907075479592 -5.548556127407057 -1.501808000902962 24.000000000000000
-3.053122525685313 -5.534658278816966 -1.615108844590902 5.000000000000000
-4.366648205776885 -7.826954989831534 -2.452024272746253 22.000000000000000
-4.372414331611055 -7.748416217898885 -2.596124616986594 34.000000000000000
-4.429703784066131 -7.761027793938249 -2.771084258399265 42.000000000000000
-4.482289885943467 -7.763402353302897 -2.945633595527446 80.000000000000000
-3.080312105502323 -5.151854622385733 -2.310994435843281 1.000000000000000
-3.214039963351079 -4.937533178353465 -3.097264797630472 19.000000000000000
-2.851927854684515 -5.561845122178261 -0.820245297808194 8.000000000000000
-2.878693036430234 -5.549039642671157 -0.929346784613818 34.000000000000000
-2.919270026062598 -5.562489834564126 -1.043069199671456 4.000000000000000
-2.944199653890844 -5.545934106849360 -1.153151889611266 20.000000000000000
-2.972221947944541 -5.534387727614186 -1.264481384833421 3.000000000000000
-3.017500760692277 -5.555675062458595 -1.384177647412799 31.000000000000000
-3.039788037557680 -5.533510350435741 -1.494689228014222 5.000000000000000
-3.068991528522831 -5.522990383050753 -1.608809568154039 0.000000000000000
-4.384429085643204 -7.801680736035562 -2.440232629471520 20.000000000000000
-4.416724273222277 -7.769998095990326 -2.599719269966636 87.000000000000000
-4.462937104296246 -7.762340445817037 -2.768148696571199 74.000000000000000
-4.513892530628960 -7.761203160516926 -2.941632832818222 80.000000000000000
-3.096060367063712 -5.140419357024006 -2.304274948314591 2.000000000000000
-2.934706685574715 -4.307836786699872 -3.075181765164198 8.000000000000000
-2.866802563119033 -5.550469256287459 -0.814698778139437 29.000000000000000
-2.895507661055073 -5.541131576954609 -0.924281467761803 5.000000000000000
-2.936284252459900 -5.554487547900623 -1.037943576969830 24.000000000000000
-2.959469069017635 -5.534410971844249 -1.147274171354817 13.000000000000000
-3.002535860587826 -5.550422263367546 -1.264787375094325 11.000000000000000
-3.031230529166055 -5.540598772540218 -1.377208306966497 15.000000000000000
-3.063019744124271 -5.535467040119737 -1.492151029505031 4.000000000000000
-4.410385415402391 -7.879543480939674 -2.291102577272998 7.000000000000000
-4.417291249402752 -7.803248384444386 -2.436825120646938 29.000000000000000
-4.445936977825630 -7.764733937193220 -2.594302849283906 40.000000000000000
-4.496213468410578 -7.763539198005010 -2.765152358826371 82.000000000000000
-4.545516010469756 -7.758899574031506 -2.937577505131879 77.000000000000000
-3.121443952854606 -5.144912223413604 -2.304691272721075 0.000000000000000
-2.921856755885430 -4.257507575665852 -3.039810247570484 6.000000000000000
-2.881626929367997 -5.539055949330264 -0.809136224705196 31.000000000000000
-2.927038670271338 -5.561191784907900 -0.923847689940864 8.000000000000000
-2.953268726451383 -5.546436887867424 -1.032795080481965 30.000000000000000
-2.991482718235858 -5.554032265233772 -1.147824352084593 3.000000000000000
-3.023585917078833 -5.549113849828254 -1.261110496224184 33.000000000000000
-3.054319331219997 -5.542610612798972 -1.374473360172557 4.000000000000000
-5.124219945904133 -9.193758077064663 -2.473161209142365 31.000000000000000
-4.447073239527342 -7.887845164463672 -2.289331401026697 18.000000000000000
-4.452108675711594 -7.808057011991379 -2.434403014528571 29.000000000000000
-4.478988574735875 -7.766034496446628 -2.591060313344033 37.000000000000000
-4.527605754157192 -7.761321106262856 -2.760920285050148 81.000000000000000
-4.579092820763722 -7.759766978822335 -2.934706352125989 77.000000000000000
-2.916498760844100 -4.218633303980275 -3.012618798411657 6.000000000000000
-2.911131427639829 -5.555717793475870 -0.807644482593241 3.000000000000000
-2.943879163669334 -5.553147661459002 -0.918711336463170 28.000000000000000
-2.968357562266181 -5.534859078435162 -1.026978268709246 5.000000000000000
-3.012376132167805 -5.552765270062066 -1.144022680692250 25.000000000000000
-3.038985724834368 -5.537417584928618 -1.255058665710991 7.000000000000000
-3.071750098528216 -5.534287037898436 -1.369158250291485 1.000000000000000
-5.162941245612553 -9.196803103042223 -2.468820442686281 30.000000000000000
-4.483846512334345 -7.896012993520731 -2.287486668809004 17.000000000000000
-4.488913444270372 -7.816090825668451 -2.432956287061113 28.000000000000000
-4.512082516618948 -7.767221395708609 -2.587757166595816 31.000000000000000
-4.560955866634641 -7.762296495075485 -2.757805414663965 81.000000000000000
-4.608823766941867 -7.753978579727010 -2.929302932509115 61.000000000000000
-3.308364794549604 -4.935730860087873 -3.095687849729198 1.000000000000000
-3.205262668989065 -4.721837967631518 -3.094608445380214 3.000000000000000
-2.928623759010032 -4.205312947460076 -3.003682055758666 6.000000000000000
-2.933346523762927 -5.558225453741421 -0.804054710146604 32.000000000000000
-2.960689773324019 -5.545055648415124 -0.913552364188335 27.000000000000000
-3.002158539691029 -5.557980669342347 -1.027567507162920 7.000000000000000
-3.027619197614400 -5.541065396777129 -1.138056353119586 25.000000000000000
-3.058129995888424 -5.532550939291868 -1.250542695148048 5.000000000000000
-5.142223037436250 -9.198479275555670 -2.270224933884908 30.000000000000000
-5.201718567133784 -9.199713261826989 -2.464407403109373 27.000000000000000
-4.528409291422349 -7.917517425839883 -2.289463496298097 22.000000000000000
-4.523869309992300 -7.820646677657361 -2.430396677367022 24.000000000000000
-4.543276750876349 -7.764976017354632 -2.583289340134751 54.000000000000000
-4.592399185300344 -7.759864993092037 -2.753461278434378 80.000000000000000
-4.648326070331380 -7.764421277807848 -2.930012109975380 17.000000000000000
-3.322582081479203 -4.921107567949004 -3.086423920414750 5.000000000000000
-2.936711310591440 -4.186314253578800 -2.990698187468486 7.000000000000000
-2.950007815254531 -5.550143485085571 -0.798909997996885 26.000000000000000
-2.984970258594307 -5.550862716889634 -0.910658911751302 3.000000000000000
-3.021024608436690 -5.553212775542737 -1.022963432762319 49.000000000000000
-3.050403124836488 -5.543124586651239 -1.134898494514081 4.000000000000000
-3.081082773257649 -5.534482968546522 -1.247542871088381 0.000000000000000
-5.174972772355058 -9.191274828107174 -2.262977648936742 30.000000000000000
-5.246335606994332 -9.212645503707398 -2.462637107209119 26.000000000000000
-4.580890442473565 -7.952295261176870 -2.295221739422631 19.000000000000000
-4.556943233251119 -7.821739858017842 -2.426734011469300 16.000000000000000
-4.576443101216359 -7.765940094198271 -2.579868018843781 65.000000000000000
-4.621902660292982 -7.754042129261801 -2.747897824958156 35.000000000000000
-4.678106502452205 -7.758417621322629 -2.924495779594300 62.000000000000000
-2.956646305650557 -4.184240507852045 -2.989815712670762 7.000000000000000
-2.966639106227820 -5.542014126274993 -0.793742929145349 17.000000000000000
-3.009304913198175 -5.556580808856637 -0.907716725662502 19.000000000000000
-3.032291073379593 -5.534532583095417 -1.015787346326790 17.000000000000000
-3.069402428672549 -5.538215653336820 -1.130292045444045 2.000000000000000
-5.154251161240468 -9.192986192943078 -2.066470378013980 30.000000000000000
-5.219290281457839 -9.204383591520942 -2.260692738525034 23.000000000000000
-5.285255463502551 -9.215269222561137 -2.458069128652383 29.000000000000000
-4.629732039026643 -7.980139176024806 -2.298918001600828 14.000000000000000
-4.592013714702344 -7.826051986399578 -2.424042976136522 29.000000000000000
-4.607687144027174 -7.763481958958333 -2.575288538338020 77.000000000000000
-4.659283852038607 -7.761252186318074 -2.746932559511650 0.000000000000000
-4.705907405498222 -7.749064711318123 -2.917705878028340 28.000000000000000
-4.763262996541706 -7.753269634839000 -3.096559315637280 62.000000000000000
-2.980604530698942 -4.187732897655160 -2.992923956513707 6.000000000000000
-3.000190461132632 -5.565279715824671 -0.793033972512680 5.000000000000000
-3.026109108884603 -5.548304120946443 -0.902463873301507 74.000000000000000
-3.054912100996034 -5.536584620903610 -1.012402484569072 4.000000000000000
-5.130684731546125 -9.192275302635025 -1.870030199233585 30.000000000000000
-5.192508762610971 -9.195990741406442 -2.061360481375167 28.000000000000000
-5.261786264871875 -9.213928518198770 -2.257483236776996 27.000000000000000
-5.279389827598076 -9.140126700847226 -2.432766108920789 32.000000000000000
-4.667034632666158 -7.987671998870793 -2.296716738291883 9.000000000000000
-4.629112595701703 -7.833566906722482 -2.422313376551065 28.000000000000000
-4.638950024241766 -7.760919822576991 -2.570654815434944 88.000000000000000
-4.678920289521207 -7.738838149518248 -2.735469433181035 0.000000000000000
-4.743619549223653 -7.755873755112043 -2.916984721761051 59.000000000000000
-3.299654006316113 -4.722391546345801 -3.095626192162698 11.000000000000000
-3.002604575409839 -4.188326813411503 -2.993974660511697 5.000000000000000
-3.016855411194858 -5.557009091179119 -0.787792731939647 58.000000000000000
-3.042882605075819 -5.539979626095085 -0.897188494229818 5.000000000000000
-3.077565584799252 -5.538557159526142 -1.008975055152979 1.000000000000000
-5.166728917299811 -9.191954312759881 -1.863907778639531 30.000000000000000
-5.234702324092526 -9.205687746642830 -2.057704713862110 25.000000000000000
-5.302427960052367 -9.219924899645733 -2.253358953506417 30.000000000000000
-5.190754855210037 -8.923555390866568 -2.369955109121197 19.000000000000000
-4.710326928553230 -8.005108110652779 -2.297321998089812 5.000000000000000
-4.664317111588844 -7.837623411166613 -2.419483653028586 29.000000000000000
-4.672216113394937 -7.761550706838713 -2.567057306509572 93.000000000000000
-4.734296059879947 -7.775262175708324 -2.744777389225699 9.000000000000000
-4.785410536621185 -7.769032836374418 -2.918625495559683 44.000000000000000
-3.311160526671375 -4.705027444468214 -3.084431343605211 8.000000000000000
-3.227014522087674 -4.525590761396675 -3.099338886697665 6.000000000000000
-3.024639799355140 -4.188843527958535 -2.994983803368023 4.000000000000000
-3.031585433743694 -5.545207879813852 -0.782037932304714 55.000000000000000
-3.067293469898930 -5.545471084172398 -0.894125955401801 4.000000000000000
-5.143291633666855 -9.191561748696580 -1.668124632918768 32.000000000000000
-5.206686845230895 -9.198367203369649 -1.859106475614875 26.000000000000000
-5.276991859938828 -9.215229051011335 -2.053963594501155 30.000000000000000
-5.337259705991352 -9.215614515183523 -2.246678423437551 33.000000000000000
-5.191447830308615 -8.862313167460005 -2.348525228105704 19.000000000000000
-5.195285009840889 -8.767477012952565 -2.511249986335671 20.000000000000000
-4.701570408215842 -7.844871306228813 -2.417608298566368 28.000000000000000
-4.705521699998902 -7.762066535396606 -2.563398648457857 95.000000000000000
-4.757908452600199 -7.759201649286795 -2.735527905611758 79.000000000000000
-4.953885882162902 -7.986055576154720 -2.996736057959590 19.000000000000000
-3.322570286865307 -4.687645452749774 -3.073233280789819 3.000000000000000
-3.048746439171143 -4.192083167630284 -2.997953946496195 4.000000000000000
-3.053922521159334 -5.547281515051249 -0.778219138499270 3.000000000000000
-5.121445473771504 -9.194930642987574 -1.475950788418593 30.000000000000000
-5.177144766030230 -9.187763925167953 -1.661066563069693 30.000000000000000
-5.250621344524298 -9.211481840951510 -1.855606043923764 24.000000000000000
-5.311528092886700 -9.211003516827201 -2.047111997784267 31.000000000000000
-5.372101599735034 -9.211189633529402 -2.239938824451416 34.000000000000000
-5.195753058598527 -8.807859230053856 -2.328928924982288 19.000000000000000
-5.199449368374774 -8.713320209783301 -2.490879601162818 22.000000000000000
-4.730910611208042 -7.838735696529882 -2.411582772518362 5.000000000000000
-4.738866295503132 -7.762467065571100 -2.559678747278345 93.000000000000000
-4.902246482775070 -7.938693691181895 -2.795124666219424 25.000000000000000
-4.956212262176526 -7.933892345058352 -2.973746503869406 20.000000000000000
-3.327732216236740 -4.661629242846771 -3.056382682069762 2.000000000000000
-3.068814447445997 -4.189644568810492 -2.996877086932909 5.000000000000000
-3.072440877961736 -5.542330965796046 -0.773388981695489 2.000000000000000
-5.156966718606151 -9.194655544827420 -1.469265011889584 32.000000000000000
-5.218809451249686 -9.197602636800205 -1.656426770815083 27.000000000000000
-5.286824710548156 -9.210759404177901 -1.849268957800822 30.000000000000000
-5.348047024577231 -9.210061534259241 -2.040954570309919 34.000000000000000
-5.404970429798665 -9.203274016719689 -2.232321219308340 32.000000000000000
-5.197758226564202 -8.750101151605350 -2.308491987176673 19.000000000000000
-5.201304026735716 -8.655883042864756 -2.469603443816270 21.000000000000000
-5.606199765526042 -9.224437516062356 -2.832997829380933 34.000000000000000
-4.770232398538487 -7.759471095951857 -2.554817248849998 55.000000000000000
-4.960772620540158 -7.977514215023931 -2.805070044827797 21.000000000000000
-4.960261483599169 -7.885011941948203 -2.952012311908060 20.000000000000000
-4.956183686213642 -7.787633286263178 -3.094948637246754 21.000000000000000
-3.345099550456009 -4.652829245921480 -3.050828249154113 19.000000000000000
-3.093011092012152 -4.192718071757664 -2.999756916059447 6.000000000000000
-5.132871780903887 -9.195353443932076 -1.276231296422034 30.000000000000000
-5.192519209832340 -9.194258728921234 -1.462515190067369 30.000000000000000
-5.264489539987113 -9.214150032397216 -1.652933472297269 28.000000000000000
-5.327003378699797 -9.216737915882113 -1.844232413027699 32.000000000000000
-5.380630030412467 -9.202211096431855 -2.033232749227193 35.000000000000000
-5.439820636613454 -9.198625171079026 -2.225466783276203 29.000000000000000
-5.199434774326087 -8.692404837440362 -2.288106677926545 20.000000000000000
-5.210877087547237 -8.611808190856046 -2.452166320293130 17.000000000000000
-5.640025085676481 -9.215817292578731 -2.825429642151236 33.000000000000000
-4.957748734900821 -8.008583333312975 -2.632816073137449 17.000000000000000
-4.960586415720161 -7.921854716882746 -2.781780770796861 21.000000000000000
-4.964025076072604 -7.836177043864922 -2.930318819058228 17.000000000000000
-4.974143661572086 -7.761501405298045 -3.081459194861861 34.000000000000000
-3.115194312336821 -4.192918604292301 -3.000595603236767 7.000000000000000
-5.170086510548586 -9.198501271620939 -1.269710135988332 29.000000000000000
-5.233978910196837 -9.204073894149047 -1.457337475898674 25.000000000000000
-5.302420117280715 -9.216815347479653 -1.646892756168508 31.000000000000000
-5.359323428134957 -9.208943102824463 -1.836399553905820 34.000000000000000
-5.417188624468723 -9.201030423226603 -2.026951049676614 31.000000000000000
-5.482695254314736 -9.207322474593845 -2.221801430630963 25.000000000000000
-5.230985204158417 -8.684915460999802 -2.280943056974976 16.000000000000000
-5.240431936432386 -8.600948568744281 -2.444187561836290 4.000000000000000
-5.673836670992407 -9.207090341675029 -2.817807813023489 31.000000000000000
-4.961432413370210 -7.959174322525628 -2.612552106888617 19.000000000000000
-4.958027051877925 -7.863019770107395 -2.757408901078498 19.000000000000000
-4.959296091410511 -7.774522391255955 -2.903860855065230 28.000000000000000
-5.006372274147051 -7.757658848189393 -3.076814886820537 34.000000000000000
-3.318187587080560 -4.491004829954536 -3.077967308837039 4.000000000000000
-3.137411011426224 -4.193040934067764 -3.001392322008838 10.000000000000000
-5.205396090406477 -9.198060538473484 -1.262644000721442 26.000000000000000
-5.277500403991453 -9.217173787469326 -1.452617243962923 29.000000000000000
-5.338419922340868 -9.215925655199884 -1.640171652779886 34.000000000000000
-5.391631323245868 -9.201045815711650 -1.828515127465222 37.000000000000000
-5.453776841696505 -9.199724713701212 -2.020603710055493 30.000000000000000
-5.527677044206863 -9.219220778644059 -2.218857978683204 24.000000000000000
-5.278717886145197 -8.704025232441134 -2.280724935523532 17.000000000000000
-5.276055013859812 -8.599941687405808 -2.438984719907956 5.000000000000000
-5.715799534139734 -9.211415797843612 -2.814152569560699 28.000000000000000
-4.962782857394544 -7.906548115929855 -2.591259771006548 20.000000000000000
-4.957175170978313 -7.807503870981613 -2.734233645620519 21.000000000000000
-4.991322317534026 -7.770758898140158 -2.899035644738144 19.000000000000000
-5.042752267999792 -7.760074762767570 -3.074637090754088 34.000000000000000
-3.326739905557162 -4.470988046725145 -3.064745909013403 10.000000000000000
-3.159660850201522 -4.193084870145659 -3.002146995644841 8.000000000000000
-5.248601502736387 -9.211303235101381 -1.257398495499408 24.000000000000000
-5.317175349067990 -9.223240197577054 -1.446728227782432 32.000000000000000
-5.372457129448484 -9.211496995341646 -1.632780296625966 34.000000000000000
-5.417915662890985 -9.182857938500385 -1.818561506004398 89.000000000000000
-5.496438628846112 -9.208420316664920 -2.016408111211867 25.000000000000000
-5.570746907844383 -9.227594546072950 -2.215015526362504 29.000000000000000
-5.296089878835769 -8.672967632229728 -2.267335097772009 13.000000000000000
-5.311710039569572 -8.598812257498968 -2.433717365640746 3.000000000000000
-5.755780778178599 -9.212305846706140 -2.809414284204740 24.000000000000000
-4.967947614482105 -7.860499260356646 -2.572149272047444 14.000000000000000
-4.968396945139848 -7.771455323968539 -2.717898074447620 29.000000000000000
-5.021289798255410 -7.763682917486079 -2.892960476513808 30.000000000000000
-5.077110054714468 -7.759183369179204 -3.071131865578248 34.000000000000000
-3.339380785977944 -4.456580160396686 -3.055377757364869 2.000000000000000
-3.179843195897303 -4.190282532769216 -3.000877462522392 4.000000000000000
-5.285988225518937 -9.214043475448140 -1.250658751309368 28.000000000000000
-5.350950936961673 -9.218876914046831 -1.439155486347245 35.000000000000000
-5.402497623921652 -9.200135603963378 -1.624126932295088 50.000000000000000
-5.454194945575474 -9.181553155273669 -1.811922501803843 74.000000000000000
-5.543242438316830 -9.223697356369984 -2.013597364950762 26.000000000000000
-5.605766043690886 -9.222413609116687 -2.207879137494066 33.000000000000000
-5.311258057858749 -8.638560746075164 -2.253075693180283 4.000000000000000
-5.351505138296777 -8.604165944291820 -2.430251254062443 4.000000000000000
-5.657618600829371 -8.993384777602319 -2.737730083397632 9.000000000000000
-5.010115595805452 -7.873048668582418 -2.572206519469143 8.000000000000000
-5.000193759334667 -7.767683201057525 -2.712847960560888 32.000000000000000
-5.053333843785159 -7.759710880861401 -2.888027719516676 35.000000000000000
-5.113592564741729 -7.761344731850089 -3.068817856309003 32.000000000000000
-3.339266080313372 -4.425341457888838 -3.034477718810745 1.000000000000000
-3.206369428008062 -4.195698948403246 -3.005508513630121 26.000000000000000
-5.325411321814426 -9.220091148636559 -1.244312446423532 28.000000000000000
-5.380733816208363 -9.207555781439146 -1.430461509722766 36.000000000000000
-5.430491476524719 -9.185278876639144 -1.614830728515860 85.000000000000000
-5.492527124045672 -9.183508778855211 -1.805883800334844 75.000000000000000
-5.580000015047857 -9.221970883532004 -2.007024876615598 30.000000000000000
-5.640791820786652 -9.217116945876946 -2.200683266754774 34.000000000000000
-5.355025979690745 -8.650633619479901 -2.250918643212417 5.000000000000000
-5.389308476350966 -8.606076914885868 -2.425777047009910 5.000000000000000
-5.705280371438607 -9.007461654556392 -2.737055795005570 24.000000000000000
-5.033675255680224 -7.856205901504589 -2.562638923749714 18.000000000000000
-5.042444358556059 -7.779911995808310 -2.713360320404230 30.000000000000000
-5.087485961085900 -7.758825838666142 -2.884226794307356 35.000000000000000
-5.148030453813650 -7.760209422693267 -3.065183218430807 29.000000000000000
-3.343197878792397 -4.399734917059562 -3.017445376944696 4.000000000000000
-3.228727170894037 -4.195500994251203 -3.006133108025615 36.000000000000000
-3.223118393083314 -4.131820199187870 -3.091055752611255 7.000000000000000
-5.358911578797504 -9.215690116154430 -1.236505711124531 33.000000000000000
-5.408472244912863 -9.192727126019816 -1.421195258416874 66.000000000000000
-5.466522981330934 -9.183938183919491 -1.607877460668667 71.000000000000000
-5.532942865226789 -9.188707928225098 -1.800434908545486 76.000000000000000
-5.616784948722925 -9.220118293704363 -2.000386335160723 34.000000000000000
-5.673767311340380 -9.208366864509332 -2.192633162517606 31.000000000000000
-5.394775995534768 -8.655908564402587 -2.246947903869568 7.000000000000000
-5.423012430265767 -8.601269925944669 -2.419379226624624 4.000000000000000
-5.851008802309826 -9.174923329058666 -2.782858584475314 15.000000000000000
-5.044614728335503 -7.819849044197927 -2.546709085980825 30.000000000000000
-5.076420142334406 -7.779114167987940 -2.709301994963062 30.000000000000000
-5.123777531843411 -7.761010660847123 -2.881547036991406 33.000000000000000
-5.182502293910551 -7.758954602812318 -3.061485496472162 31.000000000000000
-3.381123380380044 -4.418782511924264 -3.031049620009497 21.000000000000000
-3.248984787262524 -4.192472897205893 -3.004743725899219 44.000000000000000
-5.390411368907125 -9.207748302009731 -1.228184221032723 33.000000000000000
-5.442218517541646 -9.188054946803982 -1.413466625653986 77.000000000000000
-5.504615458819598 -9.185866760100673 -1.601450753598711 75.000000000000000
-5.569336828360860 -9.187011976048783 -1.793589207204267 77.000000000000000
-5.647426906597198 -9.208079570739978 -1.991505951174401 34.000000000000000
-5.712928324479729 -9.209507920250939 -2.186904164839518 29.000000000000000
-5.440827721033733 -8.670966496950511 -2.245469598723767 5.000000000000000
-5.467154703903356 -8.612781071862972 -2.417535449946141 4.000000000000000
-5.671160458990959 -8.832833685754565 -2.674175036936978 10.000000000000000
-5.080580202375710 -7.822335404340363 -2.543422424457107 19.000000000000000
-5.106211761632836 -7.771777675310555 -2.702948244215367 31.000000000000000
-5.160124139370375 -7.763065148918701 -2.878797380839964 29.000000000000000
-5.219129174417255 -7.760734816420332 -3.058968089069894 31.000000000000000
-3.275679940068960 -4.197612703361850 -3.009223242434006 45.000000000000000
-5.423915218224437 -9.203129792998014 -1.220266249121766 29.000000000000000
-5.480033651878818 -9.190082992526639 -1.406723059009232 74.000000000000000
-5.540711752562264 -9.184272054558033 -1.594363855235914 74.000000000000000
-5.605757531014054 -9.185190720118861 -1.786677905645445 83.000000000000000
-5.684233786974736 -9.205991041520809 -1.984745625628994 31.000000000000000
-5.756290964332855 -9.217162902124613 -2.182676881638165 25.000000000000000
-5.484926197681972 -8.682540555314002 -2.243037697255576 6.000000000000000
-5.500928228448939 -8.607721134648402 -2.411004250013021 5.000000000000000
-5.577550013012940 -8.628553714644287 -2.607488570605365 7.000000000000000
-5.125050628021084 -7.837614864195392 -2.544261248528567 31.000000000000000
-5.135994775594030 -7.764345464043761 -2.696546157597508 34.000000000000000
-5.192272738772585 -7.758634658877765 -2.873624198857562 32.000000000000000
-5.255810143650335 -7.762383608365488 -3.056380285645261 30.000000000000000
-3.300295211461406 -4.199910668434621 -3.011681572539495 47.000000000000000
-5.459453342569163 -9.201817837104798 -1.212741395784926 28.000000000000000
-5.515854501032110 -9.188575573566084 -1.399389885738964 65.000000000000000
-5.576834479036087 -9.182552804771110 -1.587211763131963 72.000000000000000
-5.644270431237567 -9.186606551027113 -1.780352598695856 91.000000000000000
-5.723143862269821 -9.207117837810870 -1.978637271565495 31.000000000000000
-5.801829332940446 -9.227976802560992 -2.179145824131102 24.000000000000000
-5.531234373864390 -8.697243498756796 -2.241362492930068 7.000000000000000
-5.536816384724650 -8.605823269360151 -2.405330367825599 4.000000000000000
-5.283834506207442 -8.119325942451423 -2.449020855616967 62.000000000000000
-5.167536260645016 -7.849493572946245 -2.543956690510773 32.000000000000000
-5.170029233552654 -7.763214865573842 -2.692314371529499 34.000000000000000
-5.228706621204308 -7.760439042137514 -2.870741531841905 32.000000000000000
-5.290401897351054 -7.760757385850801 -3.052485636733872 30.000000000000000
-3.324962072708491 -4.202117486310120 -3.014090218672419 56.000000000000000
-5.501132256618639 -9.210620718961621 -1.206493210351713 22.000000000000000
-5.553753046760135 -9.190339344608509 -1.392506311132312 69.000000000000000
-5.612983114124367 -9.180708809038908 -1.579994406379372 70.000000000000000
-5.678677046869048 -9.181171485424919 -1.772658216516371 75.000000000000000
-5.770450806044631 -9.221451481504294 -1.975314169766696 24.000000000000000
-5.841181360504401 -9.228672425488206 -2.173177760039336 30.000000000000000
-5.586106618982473 -8.724934855418585 -2.242972271353809 6.000000000000000
-5.576967344224419 -8.610339042014171 -2.401414754477216 4.000000000000000
-5.297231874732904 -8.085476881723611 -2.434218983663283 65.000000000000000
-5.210138360216846 -7.861207330753617 -2.543560805308677 33.000000000000000
-5.204096362935175 -7.761965353340774 -2.688019884380004 34.000000000000000
-5.263046564522307 -7.758946584471834 -2.866619046713882 32.000000000000000
-5.325025521212821 -7.759010698108694 -3.048527543760581 31.000000000000000
-3.347506408502325 -4.201504635990655 -3.014491605359832 64.000000000000000
-5.546994525879374 -9.226080571783511 -1.201046632243362 24.000000000000000
-5.589635723178652 -9.188578391997941 -1.385039933097076 78.000000000000000
-5.653306348311250 -9.185481505138799 -1.573866846622281 74.000000000000000
-5.717261395134515 -9.182324318341827 -1.766194285035719 74.000000000000000
-5.809493603805943 -9.222278618817660 -1.969044728856232 24.000000000000000
-5.880578446784871 -9.229228367822069 -2.167135636225308 31.000000000000000
-5.649666838123458 -8.765544855330054 -2.247823838161005 11.000000000000000
-5.619315397079400 -8.617970449201980 -2.398327710057110 11.000000000000000
-5.316859235709418 -8.061339101833100 -2.422345093686727 22.000000000000000
-5.255000187707010 -7.875968927884659 -2.544111332900876 34.000000000000000
-5.238195656650034 -7.760596706151515 -2.683662614249973 33.000000000000000
-5.297418296683911 -7.757334229571209 -2.862433412444976 31.000000000000000
-5.364008060491527 -7.763406663130340 -3.046964146465358 30.000000000000000
-3.370080705374304 -4.200811604527640 -3.014850228872030 38.000000000000000
-5.586807719364717 -9.231156414553148 -1.194180370338194 26.000000000000000
-5.625543404412583 -9.186693174685379 -1.377508591355832 77.000000000000000
-5.689525686386718 -9.183375994582098 -1.566511668031568 68.000000000000000
-5.757987777222275 -9.186685054550809 -1.760298402502178 79.000000000000000
-5.844364409128557 -9.216317250686318 -1.961286564480872 20.000000000000000
-5.915782323330351 -9.223037583563427 -2.159472443711349 33.000000000000000
-5.726295892434934 -8.825564778484164 -2.257552146255438 16.000000000000000
-5.849907902758240 -8.912088470853394 -2.474751021199651 33.000000000000000
-5.342810553398452 -8.046860929656464 -2.413367060615194 7.000000000000000
-5.299997850933705 -7.890552762237516 -2.544562808508369 35.000000000000000
-5.274488281984726 -7.762289970827640 -2.680340980546022 33.000000000000000
-5.331821306689879 -7.755601758697412 -2.858184548628278 30.000000000000000
-5.398714869543552 -7.761406687577039 -3.042871667915652 30.000000000000000
-5.622548555740730 -9.229294453277481 -1.186362353178553 33.000000000000000
-5.665639947309872 -9.191439423707223 -1.370919876494338 71.000000000000000
-5.729959410513762 -9.187863815122817 -1.560231927830457 70.000000000000000
-5.792457892997726 -9.180877257703196 -1.752409865538471 80.000000000000000
-5.870763606780169 -9.196963789280613 -1.950653155219215 50.000000000000000
-5.948859609945311 -9.213432181792117 -2.150979491459342 31.000000000000000
-6.017252994637718 -9.212744180368064 -2.350641415787992 26.000000000000000
-5.940614834480302 -8.990420176156427 -2.490991859583651 32.000000000000000
-5.368708486749549 -8.032308787924830 -2.404354532869247 5.000000000000000
-5.338635827106677 -7.895353117775283 -2.541822702544208 33.000000000000000
-5.310832942611391 -7.763851929426733 -2.676949135417109 33.000000000000000
-5.372791324891625 -7.763193228758914 -2.857348468794284 28.000000000000000
-5.433451964159757 -7.759285533818963 -3.038715478263178 24.000000000000000
-5.654155791453713 -9.220528637790895 -1.177613657210397 32.000000000000000
-5.703708693692548 -9.192665815103785 -1.363751571701493 76.000000000000000
-5.766247173489753 -9.185495770037079 -1.552738546199054 66.000000000000000
-5.831165737259774 -9.181622305413610 -1.745730215508374 70.000000000000000
-5.907727723730432 -9.194106618061124 -1.943490838154753 82.000000000000000
-5.990476207169231 -9.216888282232848 -2.145498824091522 29.000000000000000
-6.065660184375388 -9.225715338884260 -2.347953792892606 23.000000000000000
-5.986527609027119 -9.000172293945756 -2.488141849985094 28.000000000000000
-5.390218065190568 -8.011240327035559 -2.393382884574147 5.000000000000000
-5.377345543825655 -7.900009710228788 -2.539004820907050 33.000000000000000
-5.345046520667736 -7.762112773380250 -2.672395738887652 33.000000000000000
-5.407286665213539 -7.761202163643143 -2.852961951247309 32.000000000000000
-5.470414018269304 -7.760157015255713 -3.035713683353588 24.000000000000000
-4.514646909266151 -6.103162402926595 -2.992485917787564 56.000000000000000
-5.683657245943316 -9.208277417506789 -1.168384916399798 30.000000000000000
-5.739718616325603 -9.190389306764869 -1.356014231307051 75.000000000000000
-5.804673529371723 -9.186349674608426 -1.545742822474983 59.000000000000000
-5.874172090083774 -9.188885160066960 -1.740237849025808 67.000000000000000
-5.944714439695539 -9.191121595693279 -1.936261873728841 78.000000000000000
-6.030006377019700 -9.216906111328065 -2.139173865786772 24.000000000000000
-6.112032601733899 -9.235234504232817 -2.344333834412153 29.000000000000000
-6.028207634274137 -9.003268960145761 -2.483408292922220 37.000000000000000
-5.431231774739066 -8.019059874859190 -2.391019893787599 0.000000000000000
-5.416126357975534 -7.904522148596412 -2.536109003333936 35.000000000000000
-5.381483123244857 -7.763417131215768 -2.668866770930375 34.000000000000000
-5.444011278833075 -7.762226500093789 -2.849663305932824 32.000000000000000
-5.507426178241587 -7.760895011591324 -3.032640682685004 29.000000000000000
-4.498130306353174 -6.113829686794811 -2.839494023225536 0.000000000000000
-4.509262629721494 -6.055200051082244 -2.967431023220384 56.000000000000000
-4.511073525903790 -5.982330299678750 -3.088163828140513 55.000000000000000
-5.721516695436744 -9.209449979817645 -1.160815994494973 28.000000000000000
-5.779976507316148 -9.194708949646282 -1.349197875097646 74.000000000000000
-5.843142834203914 -9.187065885257667 -1.538674182218643 65.000000000000000
-5.917261995240305 -9.195985937731985 -1.734657635592766 62.000000000000000
-5.986021975252297 -9.194611484021165 -1.930352447016535 77.000000000000000
-6.078218636903905 -9.229902944614841 -2.135810346211553 24.000000000000000
-6.151998476868005 -9.234803915002358 -2.338142722776105 31.000000000000000
-6.063412698964624 -8.996511335572967 -2.475922904886512 36.000000000000000
-5.964649465287832 -8.748839059811734 -2.603456906068176 65.000000000000000
-5.454977624508532 -7.908890043998289 -2.533135090763220 31.000000000000000
-5.417970052177522 -7.764589301478892 -2.665267246087536 34.000000000000000
-5.476365848384858 -7.756857266764326 -2.843998318861929 33.000000000000000
-5.544487859911841 -7.761499222671121 -3.029496358764237 29.000000000000000
-4.508086587894912 -6.086658656570687 -2.825030568761179 51.000000000000000
-4.510285380745565 -6.016259890968258 -2.946815010915929 54.000000000000000
-4.509800149849935 -5.940756114678859 -3.065487790600257 55.000000000000000
-5.757309711597292 -9.207113879266812 -1.152752748407007 24.000000000000000
-5.820297037780590 -9.198879945498216 -1.342301806716063 57.000000000000000
-5.881654491748851 -9.187644125535909 -1.531532520776512 77.000000000000000
-5.953991010148219 -9.192975080179686 -1.727120211875674 64.000000000000000
-6.020913095211596 -9.188062811144450 -1.922293234231929 77.000000000000000
-6.124384066688167 -9.239437097513036 -2.131587653556852 28.000000000000000
-6.192005453366367 -9.234230930835574 -2.331876407848562 34.000000000000000
-6.100808723038670 -8.992864127927310 -2.469263797477577 37.000000000000000
-5.997173463998542 -8.738985688761693 -2.595338816865742 67.000000000000000
-5.489485926415772 -7.906757095619685 -2.528050730217042 34.000000000000000
-5.452293047912860 -7.762477349028701 -2.660516853075257 34.000000000000000
-5.515389390693038 -7.760751605035469 -2.841709062161375 34.000000000000000
-5.581598477598540 -7.761969350248552 -3.026280595164919 32.000000000000000
-4.504611803811930 -6.116207958126104 -2.683208659406333 6.000000000000000
-4.513412253059217 -6.053476116270001 -2.807787873697650 52.000000000000000
-4.508832043984941 -5.974393791329398 -2.924781773954998 56.000000000000000
-4.508274372054478 -5.899241871518853 -3.042857789578001 57.000000000000000
-5.803719175327618 -9.221486754546952 -1.146717824771892 24.000000000000000
-5.873475793135687 -9.222995606239506 -1.338241441121846 35.000000000000000
-5.920207904350721 -9.188084120932643 -1.524317734571325 68.000000000000000
-5.990741254845879 -9.189836701073791 -1.719516392793270 64.000000000000000
-6.062314076818105 -9.191266456060813 -1.916231971266621 77.000000000000000
