# This PCD file was generated using the MATLAB® pcwrite function
# from Computer Vision Toolbox®.
# .PCD v.7 - Point Cloud Data file format
VERSION .7
FIELDS x y z intensity
SIZE 8 8 8 8
TYPE F F F F
COUNT 1 1 1 1
WIDTH 637
HEIGHT 1
VIEWPOINT 0 0 0 1 0 0 0
POINTS 637
DATA ascii
5.815393322807624 -4.841962896258619 -2.821058633261517 29.000000000000000
5.841757260852668 -4.805673150959208 -2.962896162781434 72.000000000000000
5.579367217226063 -5.516770421210899 -0.848274469140521 84.000000000000000
5.634148910096615 -5.512553134162718 -0.987552531205270 88.000000000000000
5.692857152577724 -5.512000700371183 -1.128380130741512 80.000000000000000
5.750509103745620 -5.508422170438608 -1.271623466266312 43.000000000000000
7.327114203581887 -6.944321425234525 -1.786981082915351 45.000000000000000
7.407561560728309 -6.945081483126749 -1.972868702359661 35.000000000000000
6.825948193854638 -6.330547879584270 -1.971002485818752 17.000000000000000
6.777356581410965 -6.217780217404678 -2.108255899186933 46.000000000000000
6.833534184775861 -6.200150972483500 -2.277488630907214 38.000000000000000
8.484868780565195 -7.613219586259382 -3.016148754286932 6.000000000000000
5.421919941927278 -4.810806669184828 -2.046936084751568 8.000000000000000
5.531924275878888 -4.853336930930053 -2.210608613213178 8.000000000000000
6.445642870615229 -5.527859849364191 -2.859729614889210 9.000000000000000
5.792069615999175 -4.853856087843292 -2.825709582021084 34.000000000000000
5.821208143777588 -4.820102614197947 -2.968930200496399 77.000000000000000
5.545800257468408 -5.515656675172239 -0.852675170209189 84.000000000000000
5.603169033707016 -5.514522036335920 -0.992128767082345 90.000000000000000
5.655964473838279 -5.508737359385974 -1.131571728165967 81.000000000000000
5.716213920878406 -5.508240208666255 -1.275064004035963 79.000000000000000
5.683349505790551 -5.418785278952886 -1.397455006658091 3.000000000000000
7.419578014291131 -6.998409985997712 -1.991427567785276 38.000000000000000
6.808277127336812 -6.352597342210703 -1.980472056132054 17.000000000000000
6.762673048134790 -6.242336250622061 -2.118638095145332 26.000000000000000
6.810062173454224 -6.216987067881321 -2.285196926193527 63.000000000000000
8.427690089220439 -7.608908747474443 -3.015634499182961 8.000000000000000
5.442851878163496 -4.859602852226765 -2.068013431049612 13.000000000000000
5.500829256825331 -4.856474417345119 -2.211883749415159 36.000000000000000
5.918312176866851 -5.108071621603412 -2.641342326492237 1.000000000000000
5.785900974375086 -4.880156691174225 -2.838745600492028 47.000000000000000
5.806336653095483 -4.839232743766761 -2.977861165765721 81.000000000000000
5.517903003725730 -5.520026320345581 -0.857881031476155 84.000000000000000
5.569399859423240 -5.513573577759345 -0.996138348067375 90.000000000000000
5.624792233843375 -5.510856750611320 -1.135828420289303 82.000000000000000
5.681965958240034 -5.507914750708808 -1.278434178331346 80.000000000000000
5.649139195654194 -5.418526079069066 -1.400394758120689 5.000000000000000
7.434162589976643 -7.054574037472020 -2.010807732135891 36.000000000000000
6.799078265822609 -6.382638910641838 -1.992423466931515 18.000000000000000
6.762167034154268 -6.280129611702960 -2.133507221081967 9.000000000000000
6.795117028362623 -6.241628180855037 -2.295762666917585 26.000000000000000
8.370620341377920 -7.604348087931510 -3.014999379449786 8.000000000000000
5.460641843773559 -4.905996149277432 -2.088065237798931 2.000000000000000
5.484078788589734 -4.872198696851971 -2.218886139245117 42.000000000000000
6.495886197309866 -5.706654922983658 -2.771994246311767 4.000000000000000
5.868783774136666 -5.097707037357979 -2.634772091415333 18.000000000000000
5.918154835029187 -5.081979138945402 -2.788115381390161 1.000000000000000
5.776751105446364 -4.904052114471975 -2.850374628757976 49.000000000000000
5.794240380518325 -4.860721891769286 -2.988241138804843 68.000000000000000
5.484415306365460 -5.518647308070250 -0.862151167970698 84.000000000000000
5.538490395053391 -5.515283362279549 -1.000586616772233 91.000000000000000
5.590831619809901 -5.510071165221836 -1.139447915933275 83.000000000000000
5.650592591737693 -5.510202537007910 -1.282375671693244 81.000000000000000
5.617810372539833 -5.420857167275797 -1.403972289676147 5.000000000000000
5.674333624558896 -5.417173340611701 -1.546669620496299 11.000000000000000
6.801116830605010 -6.423430597360849 -2.007728372402425 18.000000000000000
7.276768698443891 -6.799477406330946 -2.312124631187120 20.000000000000000
6.794320418914362 -6.279415419280366 -2.311157293917343 5.000000000000000
8.313660714977498 -7.599538154086499 -3.014243746086797 8.000000000000000
7.595252224259909 -6.866490927589617 -2.922900954737325 35.000000000000000
5.472981450038524 -4.892979463700193 -2.228185363775277 35.000000000000000
5.514548047951453 -4.875290603887787 -2.367514594353806 1.000000000000000
5.825093083235006 -5.092097738886864 -2.630668202048862 31.000000000000000
5.874310731149510 -5.076807183583382 -2.783524071140367 36.000000000000000
5.776027557561795 -4.935241912751312 -2.866233227933393 32.000000000000000
5.784893045375273 -4.884594428486921 -3.000080952701667 58.000000000000000
5.453770599244538 -5.519955939641251 -0.866796790046633 83.000000000000000
5.502007048157258 -5.511252744671212 -1.003950011893955 90.000000000000000
5.556919784314776 -5.509143523342685 -1.142997878345528 84.000000000000000
5.616432436682515 -5.509598867433539 -1.285609195733904 81.000000000000000
5.589337718350964 -5.425802882423489 -1.408198477241118 3.000000000000000
5.642815238499526 -5.419677893119093 -1.549936682253092 3.000000000000000
5.688966834977707 -5.405766701797756 -1.691782112524644 0.000000000000000
7.282820071223530 -6.846856106515987 -2.330405386804709 21.000000000000000
8.821959492819071 -8.203718680606119 -3.021329263177658 10.000000000000000
8.259655639929949 -7.597094675519340 -3.014405613212836 8.000000000000000
7.597461376258690 -6.911467754935671 -2.942456475250204 36.000000000000000
5.461795245815294 -4.913747031029459 -2.237472414989428 1.000000000000000
5.622660551880897 -5.002412842831974 -2.428583551824422 2.000000000000000
5.795715614247182 -5.098795301747774 -2.632926696595679 34.000000000000000
5.836247252636041 -5.076378880002770 -2.781545518728767 57.000000000000000
5.809179491039457 -4.995753311780923 -2.899094080694261 17.000000000000000
5.781100683848249 -4.913281871953159 -3.014868509561527 57.000000000000000
5.423158498449268 -5.521140375069920 -0.871381007063068 83.000000000000000
5.476767530909707 -5.518327318754984 -1.009297287946237 91.000000000000000
5.528661706752032 -5.513663207072807 -1.147641830566187 86.000000000000000
5.582321468781062 -5.508852468018837 -1.288772867804407 82.000000000000000
5.555248842196716 -5.425138353974729 -1.410938744773991 3.000000000000000
5.608507750577724 -5.419328764434533 -1.552359673104812 2.000000000000000
5.665771088265661 -5.416523642314739 -1.697265332120593 5.000000000000000
7.271648714378763 -6.878277112842589 -2.343251786219199 18.000000000000000
8.760697253929965 -8.197043742383089 -3.020768364248107 9.000000000000000
8.200076523331779 -7.589172670473219 -3.012372352357088 9.000000000000000
5.915084663554933 -5.414669890479594 -2.305528008962563 0.000000000000000
5.938287849075854 -5.376090168841557 -2.447808799314854 6.000000000000000
5.829173526125395 -5.219051021875509 -2.533065027467522 16.000000000000000
5.593502853223476 -4.952342619105604 -2.556138574876385 17.000000000000000
5.801081081086250 -5.078265224053125 -2.780844584804381 66.000000000000000
5.841956056885542 -5.056509441964871 -2.932056904757888 28.000000000000000
5.785633778841309 -4.949248212591986 -3.034106113385866 28.000000000000000
5.392579573055573 -5.522200812194170 -0.875903954817997 83.000000000000000
5.445955277917227 -5.519661884169762 -1.013559961407819 92.000000000000000
5.494832102797664 -5.512468085501597 -1.151060280085525 86.000000000000000
5.551061087054418 -5.510744002257943 -1.292518993813373 83.000000000000000
5.526824216952201 -5.429846515598314 -1.415046604163822 3.000000000000000
5.577062850552656 -5.421570190146284 -1.555496909126687 2.000000000000000
5.617201651027566 -5.402814776237903 -1.695055782373716 15.000000000000000
5.683596469064209 -5.409109485151965 -1.844414745787918 3.000000000000000
8.705207732624888 -8.195417262342723 -3.022038753547466 9.000000000000000
8.149105551098527 -7.588880981610751 -3.013347003582864 10.000000000000000
5.907946144091798 -5.441980533762299 -2.317459865599192 24.000000000000000
5.916919960403229 -5.390499061941947 -2.454172374831242 20.000000000000000
5.813776640174233 -5.238292113833517 -2.541708265775985 36.000000000000000
5.626837934528221 -5.013688012092860 -2.586629346456608 22.000000000000000
5.717984914512074 -5.037733198700531 -2.756938290227557 36.000000000000000
5.803886204638205 -5.056118375096728 -2.929550801849930 31.000000000000000
5.823745087518148 -5.014378277227148 -3.071185381653269 12.000000000000000
5.356497958968053 -5.517434675992449 -0.879456770812065 83.000000000000000
5.412399559919439 -5.518040557070561 -1.017239113634679 91.000000000000000
5.466622858376379 -5.516752400723226 -1.155587068719355 85.000000000000000
5.519833790662104 -5.512509194309835 -1.296202648552439 83.000000000000000
5.490021163893433 -5.426147257483421 -1.416932447263219 5.000000000000000
5.540043891985336 -5.418200369360268 -1.556995321874862 3.000000000000000
5.574387177182063 -5.394316919869260 -1.694447569823391 26.000000000000000
5.648954378831014 -5.409125521561473 -1.846069207228757 6.000000000000000
5.677405133090486 -5.377937349711962 -1.984309657621730 0.000000000000000
7.915123903416943 -7.416811241826530 -2.946069346888038 13.000000000000000
5.889407263771527 -5.458857865945141 -2.324941479014907 6.000000000000000
5.803939745849677 -5.262608994964959 -2.552808256148566 12.000000000000000
5.721745839341731 -5.130827588504537 -2.645867874066335 42.000000000000000
5.500198019573796 -4.877035610071708 -2.667348009459762 4.000000000000000
5.777123074737469 -5.065418670446390 -2.932670911034689 38.000000000000000
5.342561869877216 -5.535387243376840 -0.886598405364576 84.000000000000000
5.381663642754189 -5.519118135557449 -1.021375269927057 92.000000000000000
5.432877894978261 -5.515290692262901 -1.158874608443376 83.000000000000000
5.485856870991475 -5.511352024240502 -1.299164830148870 84.000000000000000
5.458866141931958 -5.427837095414728 -1.420193265055394 9.000000000000000
5.514273452053157 -5.425671530036349 -1.561582768903007 2.000000000000000
5.548473527782344 -5.401980667234063 -1.698890927142759 41.000000000000000
5.600348249934892 -5.395494798892053 -1.843040790264823 37.000000000000000
5.670745190422239 -5.404811818937305 -1.995423310272454 9.000000000000000
7.662722289733537 -7.224950011734053 -2.870860574525505 20.000000000000000
7.575873838509946 -7.065991079872259 -3.009792292193311 25.000000000000000
5.763098568645510 -5.258734288766348 -2.550229904975067 13.000000000000000
5.706415607681454 -5.149774438989149 -2.654443094124170 39.000000000000000
5.693075704163241 -5.080539636442107 -2.776941848366091 16.000000000000000
5.599104977523031 -4.941142835883491 -2.858521807870997 9.000000000000000
5.336809648921205 -5.561910677553604 -0.895104678848647 82.000000000000000
5.350962440722102 -5.520071467005187 -1.025450124158441 92.000000000000000
5.404719671292841 -5.519340350978747 -1.163284730750816 83.000000000000000
5.454706242610669 -5.512857260719601 -1.302720472609288 83.000000000000000
5.444429534561525 -5.446089632691835 -1.427767052386588 10.000000000000000
5.480144073760126 -5.424773959147610 -1.563736685949950 2.000000000000000
5.533721131703119 -5.420482766296495 -1.706728161373417 54.000000000000000
5.568646995978566 -5.397890611295418 -1.845462430576055 61.000000000000000
5.652770702120291 -5.420972149544019 -2.002573430143966 9.000000000000000
5.777085355180066 -5.480919706509487 -2.178609641436472 1.000000000000000
7.537801559559488 -7.074499438419677 -3.013773273572879 21.000000000000000
5.753139059350370 -5.282959286326220 -2.561275491390317 10.000000000000000
5.699405153313219 -5.176311316438638 -2.666924455940963 37.000000000000000
5.722415968063351 -5.139578986050343 -2.807494850325344 31.000000000000000
5.497435248234432 -4.882854629429705 -2.822642796977071 6.000000000000000
5.654009269054517 -4.964179780186383 -3.032101959933781 36.000000000000000
5.339163247881622 -5.597074536193356 -0.905006325263021 81.000000000000000
5.342303953118729 -5.543737988923787 -1.033722198008355 89.000000000000000
5.368303112580056 -5.514779060224628 -1.165842874649601 84.000000000000000
5.426356182226345 -5.517048740325446 -1.306880170668798 83.000000000000000
5.457640202312913 -5.492204290802224 -1.442647375553534 12.000000000000000
5.448844604408837 -5.426499748314965 -1.566619595990782 7.000000000000000
5.502206845486138 -5.422504382907396 -1.709359542880188 4.000000000000000
5.534195056325302 -5.397442106524800 -1.846891384261056 69.000000000000000
5.637529048909287 -5.439773695981001 -2.010689523327039 8.000000000000000
5.753056323583094 -5.492080854791536 -2.183779939030678 77.000000000000000
6.313517937570604 -5.962573111501616 -2.540377362120076 3.000000000000000
5.731906811900251 -5.296867071776449 -2.567313678462736 12.000000000000000
5.661588308324791 -5.174821819089441 -2.664964721664410 27.000000000000000
5.706810358414094 -5.158540699807375 -2.816138736200406 29.000000000000000
5.705163382146521 -5.100192267489686 -2.946039649708205 30.000000000000000
5.505174680688636 -4.865045066015764 -2.968865817233989 19.000000000000000
5.341343512527436 -5.632300610629932 -0.914929129866768 80.000000000000000
5.344510065530051 -5.578854593738021 -1.044131017342240 88.000000000000000
5.342956723030458 -5.521428694878783 -1.170735932306175 91.000000000000000
5.392510082910722 -5.515490816143005 -1.309645777585822 84.000000000000000
5.440211131760085 -5.507675487504743 -1.449479067186917 61.000000000000000
5.461873698739218 -5.472478086429233 -1.582271560944140 9.000000000000000
5.467955043311142 -5.421649530030862 -1.711060495086123 5.000000000000000
5.510901163609921 -5.407747236738333 -1.851982232223555 82.000000000000000
5.619435269330332 -5.455843659558952 -2.017786216688150 10.000000000000000
5.712320356457909 -5.487131144947358 -2.182531544639219 95.000000000000000
5.733994133570230 -5.449184915021688 -2.321902460932040 33.000000000000000
5.723228787057404 -5.380453988334059 -2.448540612368427 20.000000000000000
5.710636200952293 -5.310708499874278 -2.573315645181572 9.000000000000000
5.540443123169442 -5.096454975088989 -2.623436808046867 22.000000000000000
5.652245281380939 -5.142092628237219 -2.805460155078905 24.000000000000000
5.708875672581001 -5.136577771609859 -2.964815567824806 37.000000000000000
5.564879718284799 -4.949897419784326 -3.017933938083300 3.000000000000000
5.340625245968872 -5.664698101298145 -0.924401105186006 79.000000000000000
5.343808379569167 -5.611163010779673 -1.054021664342984 87.000000000000000
5.345021704913178 -5.556479756377602 -1.181641100746292 85.000000000000000
5.364213758257816 -5.519447137579550 -1.313688719287197 83.000000000000000
5.408958915694026 -5.509073941950597 -1.452585195592669 91.000000000000000
5.460856959829306 -5.504674029996931 -1.593945133234260 16.000000000000000
5.455867879985672 -5.442709553427132 -1.719661127424147 7.000000000000000
5.493123877913289 -5.423436713312424 -1.858904053089831 19.000000000000000
5.590205873061740 -5.461039546192995 -2.020848676101754 16.000000000000000
5.679988377919687 -5.490042037009747 -2.184396131328545 99.000000000000000
5.734841583577055 -5.484140271680140 -2.337045462076313 87.000000000000000
5.746275207778190 -5.436192259592647 -2.473677212818742 99.000000000000000
5.694872644594662 -5.329673037208146 -2.581795282028350 7.000000000000000
5.505809424509444 -5.096967563215194 -2.622534697676114 33.000000000000000
5.542489648782036 -5.074690365297969 -2.767018284994863 42.000000000000000
5.690267569579646 -5.153009416195292 -2.972065433867970 32.000000000000000
5.337034345392892 -5.694243314085905 -0.933411739847234 78.000000000000000
5.340224911673762 -5.640639436816416 -1.063383579227339 87.000000000000000
5.344179123841386 -5.588735314353416 -1.191957666361077 83.000000000000000
5.346892993624379 -5.534635406760922 -1.320382607034370 84.000000000000000
5.377743042316728 -5.510346549680633 -1.455629304883895 91.000000000000000
5.429424867791400 -5.506232827198455 -1.596734686067301 92.000000000000000
5.465730988221523 -5.485873349058803 -1.735244755785571 12.000000000000000
5.455984634079749 -5.419896999993888 -1.859218164213904 6.000000000000000
5.555471409028185 -5.460694540371892 -2.021844840788483 24.000000000000000
5.647690866690874 -5.492823319819767 -2.186196663509630 101.000000000000000
5.699573231905360 -5.484578074239558 -2.337471352063715 90.000000000000000
5.760701477739670 -5.484223298548767 -2.495297436383660 86.000000000000000
5.587838846934664 -5.262712864180706 -2.548657358272151 2.000000000000000
5.471230129015479 -5.097335497723616 -2.621562072314900 39.000000000000000
5.505021558102454 -5.072824566141379 -2.764342338781462 67.000000000000000
5.555856302713409 -5.063892468645384 -2.918484162985338 24.000000000000000
5.338718651336654 -5.729629171234923 -0.943385775811745 78.000000000000000
5.339217393241603 -5.673031351970788 -1.073298144628424 87.000000000000000
5.340455189233007 -5.618171535955914 -1.201675066051139 81.000000000000000
5.345902054309848 -5.566835090246862 -1.331128207094245 82.000000000000000
5.349300299913421 -5.514314144961484 -1.459358013656652 91.000000000000000
5.400770906446126 -5.510462401296909 -1.600274270235630 91.000000000000000
5.447902178329579 -5.501416594511003 -1.742088777585920 48.000000000000000
5.465656594631212 -5.462913655067539 -1.875493638176617 11.000000000000000
5.515286558907350 -5.454761535627707 -2.020754008426650 35.000000000000000
5.612674400316533 -5.492780021033638 -2.186860241662721 100.000000000000000
5.667112631568545 -5.487537718047073 -2.338963063865474 94.000000000000000
5.722505371015878 -5.482242584364253 -2.494155673745643 86.000000000000000
5.500611647549680 -5.213469276934293 -2.524114419217763 39.000000000000000
5.447716954173820 -5.107883238111889 -2.625826500936939 43.000000000000000
5.478627601645143 -5.081000908301691 -2.767145347163640 83.000000000000000
5.518290620941301 -5.062250521659932 -2.915370350193098 42.000000000000000
5.340228166632435 -5.765074716321354 -0.953379590476875 77.000000000000000
5.343465961583546 -5.711254492270574 -1.084324509506821 88.000000000000000
5.342019594373963 -5.653382693442964 -1.212631343320882 79.000000000000000
5.344752272309070 -5.599080087547363 -1.341887223606230 83.000000000000000
5.345422435366402 -5.543627273768584 -1.469780812573971 87.000000000000000
5.366671126839571 -5.508971399914523 -1.602127064645718 92.000000000000000
5.419072646507479 -5.505788315254218 -1.745378663638505 89.000000000000000
5.461393305360203 -5.492259344096527 -1.887075637421865 18.000000000000000
5.497137150395380 -5.470491585528801 -2.027673781060835 53.000000000000000
5.577711725324062 -5.492591802314491 -2.187453131459070 97.000000000000000
5.631941289307010 -5.487691890243476 -2.339250100257536 95.000000000000000
5.687126398263033 -5.482747118904589 -2.494139803684465 84.000000000000000
5.485163730091728 -5.231862833397358 -2.532321888426029 24.000000000000000
5.426930223000843 -5.120939096973188 -2.631378938840138 51.000000000000000
5.452234297303131 -5.089080217493281 -2.769898862274573 92.000000000000000
5.483535678514766 -5.062975420407965 -2.913633531314532 51.000000000000000
5.346941731685377 -5.806420765043349 -0.964363011129520 76.000000000000000
5.342124864320604 -5.743750605926561 -1.094271863352898 85.000000000000000
5.340702039684770 -5.685773343682946 -1.222987819878584 78.000000000000000
5.346155751991024 -5.634228373906144 -1.353345966899901 81.000000000000000
5.344121171379311 -5.575806008675722 -1.480963287604101 87.000000000000000
5.346244656056807 -5.521402554546307 -1.608006812247250 91.000000000000000
5.387534642988575 -5.507260395907905 -1.747728068740183 89.000000000000000
5.435136417248958 -5.499525346175717 -1.891061366710508 96.000000000000000
5.484402011097772 -5.491647253271807 -2.036595449837524 90.000000000000000
5.542803508365547 -5.492258951389609 -2.187975520551194 99.000000000000000
5.599560807392893 -5.490384183928903 -2.340610236065110 90.000000000000000
5.632642332183574 -5.464518803938546 -2.485598237667465 73.000000000000000
5.445017945691541 -5.226584596005313 -2.529069598072981 17.000000000000000
5.403373841076117 -5.131333053790978 -2.635562221736848 90.000000000000000
5.428574113167201 -5.099629059104895 -2.773999018994758 46.000000000000000
5.457021794789340 -5.071162348509302 -2.916200536015268 57.000000000000000
5.528015339266576 -5.079665406909133 -3.083423707939619 18.000000000000000
5.345402064975737 -5.839070573380583 -0.973913549979706 74.000000000000000
5.343314494458177 -5.779198752915189 -1.104787756818783 83.000000000000000
5.339225558525865 -5.718207851549235 -1.233356964412504 78.000000000000000
5.347381826454697 -5.669436163381628 -1.364824234633391 79.000000000000000
5.348078509994632 -5.613716793673190 -1.493671989214897 86.000000000000000
5.344785476890126 -5.553513160885899 -1.619609760989201 84.000000000000000
5.356034662100589 -5.508605946037291 -1.750015208408094 91.000000000000000
5.406158808348356 -5.503923924971986 -1.894044446954303 96.000000000000000
5.455227548849924 -5.496311898254362 -2.039390082200162 94.000000000000000
5.510677122605282 -5.494500462184597 -2.189510977695250 98.000000000000000
5.545395209750646 -5.471416660371538 -2.332727094257563 54.000000000000000
5.572885066502106 -5.440708758861382 -2.474514949804677 55.000000000000000
5.429508289824211 -5.244839328896227 -2.537202424875386 17.000000000000000
5.393427559764099 -5.154669566932021 -2.646389391854857 45.000000000000000
5.415788555750453 -5.120394149112383 -2.783654805671510 41.000000000000000
5.435947705982196 -5.084338898638503 -2.921641063104489 44.000000000000000
5.490390649330370 -5.078032233354994 -3.079763490067596 22.000000000000000
5.351719773419319 -5.880570576590561 -0.984951349321393 70.000000000000000
5.347007760442551 -5.817621134966371 -1.115881866399714 83.000000000000000
5.342965070672962 -5.756476852433573 -1.244990964210231 78.000000000000000
5.345735695610509 -5.701828885824083 -1.375628303524510 78.000000000000000
5.343738815580552 -5.643147581836014 -1.504126603872199 82.000000000000000
5.348576442516322 -5.591324170282744 -1.632877234017131 82.000000000000000
5.351670343496183 -5.537865008623349 -1.761157483250309 82.000000000000000
5.377201264009731 -5.508211000461033 -1.896971834459386 97.000000000000000
5.420641254151625 -5.495358011194138 -2.040084489082228 94.000000000000000
5.473153107080138 -5.491160515613749 -2.188809552753173 99.000000000000000
5.524035573671699 -5.484584354502297 -2.338535746820689 70.000000000000000
5.581313485283014 -5.483385571262070 -2.493665265402097 89.000000000000000
5.479154952401287 -5.326470212793985 -2.575979829073752 41.000000000000000
5.377940826749846 -5.172778489111300 -2.654527296255323 42.000000000000000
5.394771865121136 -5.133394162459811 -2.789086749479289 41.000000000000000
5.420258609764908 -5.102552150657434 -2.929975793942770 43.000000000000000
5.471783215704801 -5.093873057502359 -3.086711796456352 25.000000000000000
5.347173768173880 -5.910384092248586 -0.994040529881955 57.000000000000000
5.347834925326254 -5.853192460822500 -1.126438470592762 80.000000000000000
5.343830468349303 -5.791915731321546 -1.256020735024574 75.000000000000000
5.346614863606296 -5.737146052240845 -1.387141188027201 76.000000000000000
5.341947841376292 -5.675465380583824 -1.515350115917008 84.000000000000000
5.344081160098648 -5.620701743439975 -1.643682592707454 82.000000000000000
5.347162810995142 -5.567152197929616 -1.772305356815798 83.000000000000000
5.353672030533925 -5.517960416839024 -1.901764608903125 93.000000000000000
5.388818372668319 -5.497022044527106 -2.041734847715392 94.000000000000000
5.443828993216538 -5.495864039414112 -2.191301976654471 101.000000000000000
5.491802862140023 -5.486857973990815 -2.339691196855699 92.000000000000000
5.546152746084785 -5.483307639090733 -2.493365406871885 90.000000000000000
5.522870316072218 -5.403141229727193 -2.612336946772080 73.000000000000000
5.370503464231493 -5.198714207932039 -2.666675669241211 35.000000000000000
5.381833755519165 -5.154098508792426 -2.798702197379738 40.000000000000000
5.399095788918360 -5.115612540588485 -2.935351596769603 42.000000000000000
5.458515495357551 -5.114717070783190 -3.096690793860525 29.000000000000000
6.802182662625554 -7.563235877885591 -1.277214970058093 31.000000000000000
5.348484758825066 -5.888820572093549 -1.137013216415607 80.000000000000000
5.347187550422390 -5.830322601737158 -1.267701723703438 77.000000000000000
5.347315530870466 -5.772520748178116 -1.398672522488611 77.000000000000000
5.345360168200142 -5.713559393444386 -1.528119016897167 81.000000000000000
5.350191566498918 -5.661480925004513 -1.657823856015438 81.000000000000000
5.353277614096018 -5.607744505288869 -1.787052419438489 81.000000000000000
5.351684819360136 -5.549985888385462 -1.914226275274814 91.000000000000000
5.359731992330252 -5.501327470584727 -2.044351494186222 102.000000000000000
5.406427662310080 -5.492229064100460 -2.190457449862600 97.000000000000000
5.402906256537833 -5.431995498059811 -2.316472510547508 56.000000000000000
5.440843797629598 -5.413236607454078 -2.461237128257777 71.000000000000000
5.385248797254163 -5.302055031156608 -2.562753955856760 47.000000000000000
5.341358098363065 -5.203637418895178 -2.668042592936856 6.000000000000000
5.374196004838402 -5.179979381594045 -2.811122001592875 36.000000000000000
5.388664735659128 -5.138874353496115 -2.946578820538085 41.000000000000000
6.792421970482867 -7.597219868805338 -1.288114140878470 9.000000000000000
5.343650392150998 -5.918627319203081 -1.146467244559304 18.000000000000000
5.347687723787138 -5.865882761027081 -1.278771067369621 76.000000000000000
5.350504580009408 -5.810849038673997 -1.410925295343384 75.000000000000000
5.345901953535555 -5.748851419558470 -1.540142739821636 79.000000000000000
5.348051403712578 -5.693794625165186 -1.669488828859890 80.000000000000000
5.348446316701740 -5.637117018133559 -1.798224046449326 81.000000000000000
5.349535193466305 -5.582053873048872 -1.926699709930301 85.000000000000000
5.354860505130124 -5.530508490679779 -2.056202520452795 87.000000000000000
5.377172306753742 -5.496684600313183 -2.192827487095268 97.000000000000000
5.395162582701781 -5.458351061310447 -2.327879807401098 71.000000000000000
5.384509692993153 -5.391114275421741 -2.450909675081207 62.000000000000000
5.458216975894790 -5.408138180775304 -2.613305351790008 75.000000000000000
5.333741304483993 -5.229535223689398 -2.680160637169583 4.000000000000000
5.369117041347996 -5.208477485575221 -2.824953181658515 30.000000000000000
5.380807232611563 -5.164706733311800 -2.959272526206200 38.000000000000000
7.262263371566052 -8.171006223674807 -1.390894681375141 47.000000000000000
6.803570325668310 -7.580676754580264 -1.473103786653209 17.000000000000000
5.353312171512234 -5.907350515264247 -1.291136973425442 68.000000000000000
5.353496176695925 -5.849248638408885 -1.423202393257508 74.000000000000000
5.346263988305109 -5.784199962505471 -1.552184319307361 80.000000000000000
5.348418175261004 -5.729008651911860 -1.682004425932585 79.000000000000000
5.351490271669582 -5.675020008195603 -1.812115829301587 78.000000000000000
5.349899148576095 -5.616973659688769 -1.940155150091694 88.000000000000000
5.352523338399925 -5.562500193068081 -2.069093887188703 88.000000000000000
5.358660990761911 -5.512057646307817 -2.199542882024832 91.000000000000000
5.395336676991626 -5.492907847463342 -2.342778163033066 92.000000000000000
5.446373787801931 -5.487609573016256 -2.494499897310968 87.000000000000000
5.498330542172337 -5.482618200889766 -2.648560913456043 88.000000000000000
5.363504716131296 -5.292454782522970 -2.711236532467624 7.000000000000000
5.374598582816657 -5.247455386678242 -2.844455314890126 20.000000000000000
5.378168338631585 -5.195714862943137 -2.974921240021752 31.000000000000000
7.268939255086364 -8.227180295579668 -1.405934027573898 46.000000000000000
7.054312568093925 -7.907091776550541 -1.541375304343136 46.000000000000000
5.319085688720409 -5.904902689982435 -1.293891671620135 0.000000000000000
5.356289881682486 -5.887718800119528 -1.435503407904304 75.000000000000000
5.346445908864180 -5.819604347742752 -1.564243388773984 77.000000000000000
5.348604327844543 -5.764278792380198 -1.694537620673713 79.000000000000000
5.351670860875446 -5.710152299445424 -1.825123479108961 79.000000000000000
5.352748651297326 -5.654767536058352 -1.954602258561883 86.000000000000000
5.352692475067677 -5.597324995406770 -2.083035324508076 84.000000000000000
5.358796926873210 -5.546735552148379 -2.213954880088445 90.000000000000000
5.365932810976276 -5.497405978589879 -2.344848944954129 90.000000000000000
5.411423306039931 -5.486969272401380 -2.493925822186965 87.000000000000000
5.463178943348934 -5.482321745936775 -2.647682780655107 88.000000000000000
5.505009097919666 -5.466955258673386 -2.799424767963067 72.000000000000000
5.350519527757865 -5.257690308925205 -2.848369603565468 10.000000000000000
5.386019316646244 -5.237124676785435 -2.996508808683622 19.000000000000000
7.267474276295890 -8.274522104311826 -1.419477928194899 46.000000000000000
7.289968896391941 -8.220186475743631 -1.607390367533513 45.000000000000000
6.793764798753081 -7.587430122564759 -1.666752529447739 19.000000000000000
5.348325879294296 -5.914581417462966 -1.444975067284090 20.000000000000000
5.354383694078329 -5.863755235942074 -1.578659491324844 75.000000000000000
5.351259950038503 -5.802478305231537 -1.707933975430921 78.000000000000000
5.354324589074665 -5.748190122748651 -1.839060224018031 77.000000000000000
5.352739983537564 -5.689807381162460 -1.968096195288089 86.000000000000000
5.355339743886821 -5.635005162159393 -2.098036474893422 32.000000000000000
5.361412302529552 -5.584242325545556 -2.229491370665139 88.000000000000000
5.363180375091716 -5.529245723289106 -2.358574568615583 87.000000000000000
5.379194612728167 -5.488902517406182 -2.494516881644284 94.000000000000000
5.433409960091820 -5.487257921519932 -2.649330615135028 87.000000000000000
5.477733750514189 -5.474811158675114 -2.802244053490738 88.000000000000000
5.326425135258484 -5.267843209329969 -2.852241083850168 1.000000000000000
5.367086680916491 -5.252659195102127 -3.003280862596412 31.000000000000000
7.270993882158300 -8.327904677320602 -1.434069611657057 45.000000000000000
7.293460815714608 -8.273448919179819 -1.622768101534492 44.000000000000000
6.788524401099431 -7.627302430179368 -1.679672019847181 13.000000000000000
6.810774670445466 -7.577547969892207 -1.854953140217009 14.000000000000000
5.356812875227588 -5.902196435859874 -1.591545491752890 64.000000000000000
5.348433330703291 -5.834984700519604 -1.719655329339061 76.000000000000000
5.356777946167628 -5.786298045384666 -1.853020497843920 78.000000000000000
5.357846002809387 -5.730567819165333 -1.983568168762079 85.000000000000000
5.349832593216028 -5.664335182082994 -2.109924683390445 49.000000000000000
5.358520539493986 -5.616259143999489 -2.242830991239242 88.000000000000000
5.360263295290742 -5.561125735995098 -2.372310678138889 83.000000000000000
5.368235475804283 -5.512506948409811 -2.504950901724404 88.000000000000000
5.401009730641900 -5.489384430380358 -2.649620437913559 86.000000000000000
5.389487664417667 -5.421236103052856 -2.773634047607232 69.000000000000000
5.349988916565625 -5.325367862402016 -2.881748726506311 2.000000000000000
5.416869933821022 -5.335882594088656 -3.048727777642265 28.000000000000000
7.274243467050997 -8.381380350848691 -1.448692305658227 45.000000000000000
7.299289286562065 -8.329780877992782 -1.638762470801072 43.000000000000000
7.358371308750102 -8.317479015602016 -1.836151003480750 37.000000000000000
6.852460851938520 -7.670218493818422 -1.881346467223910 11.000000000000000
5.319637579308659 -5.897024678341504 -1.592656889552290 0.000000000000000
5.358603173535963 -5.881975050359733 -1.735649024289163 76.000000000000000
5.353758455751085 -5.818745376634602 -1.865167188047019 78.000000000000000
5.354814696638278 -5.762892180987313 -1.996118552336507 84.000000000000000
5.354746676406635 -5.704947484900451 -2.126011812300231 50.000000000000000
5.360750860797098 -5.653891371351581 -2.258407972315744 87.000000000000000
5.362469720587558 -5.598566673576806 -2.388412380075251 85.000000000000000
5.362455802875190 -5.541570326458577 -2.517858232530974 83.000000000000000
5.368650316502444 -5.491382345004821 -2.649847112587359 69.000000000000000
5.396774493720224 -5.463484408062128 -2.794055687847479 85.000000000000000
5.410146501161774 -5.420100525428829 -2.931352099324330 63.000000000000000
7.272041090196725 -8.428942442379416 -1.462303554514367 44.000000000000000
7.299630265954909 -8.380253370180007 -1.653616470630863 42.000000000000000
7.368958205412363 -8.379800551675865 -1.854384448009275 38.000000000000000
7.045127453237415 -7.933815131432612 -1.949795022019344 56.000000000000000
6.803430151742101 -7.587968571165856 -2.052531883641674 6.000000000000000
5.347535552092509 -5.905906905782116 -1.744839000980254 13.000000000000000
5.353201731044885 -5.854103725138927 -1.878245138966842 77.000000000000000
5.356878660608167 -5.800950822604224 -2.010652771924630 82.000000000000000
5.356807634325699 -5.742821975693676 -2.141076300443235 52.000000000000000
5.360144710618956 -5.688797339440650 -2.272891003105212 85.000000000000000
5.361838506255401 -5.633308748035526 -2.403356066450257 83.000000000000000
5.364433828590084 -5.578877907831631 -2.534503302066598 79.000000000000000
5.367939398162580 -5.525788434387596 -2.665706809842787 82.000000000000000
5.382762506679689 -5.484377591880786 -2.803546009317358 91.000000000000000
5.359239612268792 -5.403872058088086 -2.920928201463342 68.000000000000000
6.198266865007233 -7.227356444711575 -1.258420713131924 5.000000000000000
7.304896108394570 -8.436784025635548 -1.669677858253711 43.000000000000000
7.376619262752629 -8.439287285416139 -1.872008110719714 37.000000000000000
7.001925057627553 -7.933154080681471 -1.953384708533964 47.000000000000000
7.736557369111841 -8.681506880260383 -2.351938426581984 31.000000000000000
6.812874934026970 -7.570553960138341 -2.239337372961189 11.000000000000000
5.357696780346463 -5.895274890280254 -1.893188627130513 61.000000000000000
5.356120123209412 -5.836222269103288 -2.024219071981600 81.000000000000000
5.348174333931870 -5.769446605073379 -2.151941719721905 37.000000000000000
5.361979029453870 -5.726559698787081 -2.288510193100429 84.000000000000000
5.366273650441276 -5.673655822290599 -2.420684349263172 82.000000000000000
5.363582969721806 -5.613506493393920 -2.549922856781063 78.000000000000000
5.367043557179305 -5.560248068946395 -2.681582530357399 80.000000000000000
5.366037059789518 -5.502558874390710 -2.811645089058981 84.000000000000000
5.400213449825927 -5.480478452155201 -2.960673340944874 89.000000000000000
6.158242666625412 -7.223737057839307 -1.262317780177985 25.000000000000000
7.309870525451742 -8.493419766522900 -1.685775065294890 42.000000000000000
7.386555906786622 -8.501871664303462 -1.890335959460524 36.000000000000000
6.919879745957524 -7.887973563137519 -1.945949991323115 37.000000000000000
7.779085124774297 -8.782715934286948 -2.382964422549644 34.000000000000000
7.082742451181828 -7.918922861472633 -2.345169521436121 17.000000000000000
5.831404324843339 -6.456263049520940 -2.075217346590231 21.000000000000000
5.357788883547482 -5.874408865510366 -2.038794437933418 79.000000000000000
5.357708110168910 -5.815938127490014 -2.170213699947132 82.000000000000000
5.360994901661504 -5.761579238384760 -2.303028081499013 83.000000000000000
5.365254373128840 -5.708519207452775 -2.435666227085438 82.000000000000000
5.365162960020850 -5.650943131970804 -2.566609462238526 79.000000000000000
5.365962441484667 -5.594760553261709 -2.697473897601719 77.000000000000000
5.367532326029513 -5.539581076963527 -2.829362864811755 83.000000000000000
5.378041273953643 -5.493378935401880 -2.965983804361377 84.000000000000000
5.365489701166545 -5.424439650498045 -3.090760221172190 23.000000000000000
6.133666605176471 -7.238103852228980 -1.269318951600001 33.000000000000000
6.178161883137967 -7.221804300122360 -1.437498659642961 18.000000000000000
7.391005713825106 -8.558618829278029 -1.907380998472043 40.000000000000000
6.848513940062207 -7.854256320796863 -1.941266200188966 0.000000000000000
7.810674303658202 -8.872480837651908 -2.410922376948938 14.000000000000000
7.085778403365067 -7.971184203604820 -2.363417612400771 16.000000000000000
5.797384848178490 -6.458407387954620 -2.077758150825949 20.000000000000000
5.426895810168830 -5.987287883926740 -2.079307976360409 45.000000000000000
5.359169742982198 -5.854007823261494 -2.185341179563807 82.000000000000000
5.365037261228720 -5.802286766079541 -2.319814533493063 82.000000000000000
5.364049946367840 -5.743434629657949 -2.450663344426773 80.000000000000000
5.366538582991638 -5.688446932869483 -2.583317852915098 78.000000000000000
5.369906674174720 -5.634793208988745 -2.716016163904057 78.000000000000000
5.371426471907005 -5.579374989369480 -2.848483172654348 81.000000000000000
5.368841020375553 -5.519581867156511 -2.978472445682491 84.000000000000000
6.116711610606170 -7.261491680190167 -1.277880139608037 24.000000000000000
6.148219126205507 -7.230243239319560 -1.443254751052140 30.000000000000000
6.198167259453064 -7.220953817488149 -1.612963914521156 4.000000000000000
7.549919445120654 -8.711568007661059 -2.157147009381922 14.000000000000000
7.867560844125388 -8.991999274950908 -2.447008664322086 13.000000000000000
7.083368538331743 -8.017685805992334 -2.379958921191939 13.000000000000000
5.760813938753865 -6.457517806314318 -2.079299532100347 20.000000000000000
5.726007059123102 -6.356729767550307 -2.209010145113012 22.000000000000000
5.363022224069769 -5.894995519200367 -2.201555007884503 45.000000000000000
5.366260328861024 -5.840249929126031 -2.335498843552651 81.000000000000000
5.365256954984592 -5.781199649449280 -2.466869356126698 79.000000000000000
5.365112556433615 -5.723246913759181 -2.598789722340836 77.000000000000000
5.365838948362090 -5.666682782769974 -2.730623119307893 78.000000000000000
5.369907984237151 -5.613826346659124 -2.864863345847750 78.000000000000000
5.372469820332830 -5.559199689725875 -2.998187925958721 62.000000000000000
5.295199434289861 -5.423560927971961 -3.086050195909368 23.000000000000000
6.114928893462424 -7.303082830681770 -1.289639405453924 6.000000000000000
6.128482473356088 -7.250657108194795 -1.451375235130983 29.000000000000000
6.162865107924218 -7.223517098177520 -1.617194606059287 24.000000000000000
7.566082430342107 -8.783627933890584 -2.178966033752123 20.000000000000000
7.895470863493466 -9.079402828985438 -2.474396918996013 12.000000000000000
7.083296072753082 -8.067183033271704 -2.397389132663675 10.000000000000000
5.729459572486499 -6.462301294229913 -2.082645190577891 25.000000000000000
5.717981357674804 -6.387502101183880 -2.221090295475379 27.000000000000000
5.658766970639851 -6.259172740589085 -2.338514266679167 13.000000000000000
5.364692166244243 -5.875445573485843 -2.350070908386223 80.000000000000000
5.366259059535371 -5.819030204602623 -2.483096289690932 77.000000000000000
5.366087728001891 -5.760875252965029 -2.615537194375681 77.000000000000000
5.366776769431169 -5.704106060680707 -2.747886670807144 76.000000000000000
5.368202939509431 -5.648328392487706 -2.881257984086040 78.000000000000000
5.370709535775246 -5.593519716721628 -3.015031718071842 30.000000000000000
6.964845955340051 -8.368298935431977 -1.482780410455770 43.000000000000000
6.113754307161969 -7.277078486780383 -1.460682364135534 20.000000000000000
6.132696647047004 -7.231960287485738 -1.622708302661824 30.000000000000000
6.181025373077036 -7.219645986051268 -1.794218819841017 15.000000000000000
7.361909615667313 -8.517976090439038 -2.324733561820374 10.000000000000000
7.088098520381926 -8.122637841033331 -2.416592201587385 7.000000000000000
5.716116515020980 -6.487387237509957 -2.092518773463535 23.000000000000000
5.696939253741743 -6.403828676932271 -2.228137656357067 30.000000000000000
5.671398555790153 -6.312622180063196 -2.359428666680888 14.000000000000000
5.610339363912622 -6.183361044617365 -2.473742592437813 22.000000000000000
5.367055845298354 -5.856925516884470 -2.499343722483234 76.000000000000000
5.364279560047157 -5.795783352751394 -2.631040883306468 77.000000000000000
5.370085566125219 -5.744350650164924 -2.766498259613293 75.000000000000000
5.368886003639111 -5.685607334395076 -2.899057143107215 78.000000000000000
5.371334671073313 -5.630586318148826 -3.033342309268936 23.000000000000000
7.282872444906409 -8.803253503145775 -1.565094473370406 43.000000000000000
6.096377288220948 -7.300447504314709 -1.469362513612261 0.000000000000000
6.115228017139928 -7.255369796461465 -1.631557358777679 26.000000000000000
6.148077678526073 -7.225218792608610 -1.798802451005894 28.000000000000000
6.204175392770723 -7.222713382105713 -1.974030165850891 3.000000000000000
7.102832156410573 -8.189989414531036 -2.439342687637289 3.000000000000000
5.792285055735245 -6.614810636363780 -2.135419883337880 11.000000000000000
5.680968814814502 -6.425897131883517 -2.237171288827998 27.000000000000000
5.686292777076595 -6.369080128534159 -2.381467776325744 8.000000000000000
5.604912885524652 -6.216516496830206 -2.487508430200305 21.000000000000000
5.370215153191460 -5.897705325294350 -2.516814872895400 28.000000000000000
5.369989008499803 -5.839118218308774 -2.650360820946065 74.000000000000000
5.368034476795674 -5.779146550441308 -2.782474978226279 75.000000000000000
5.369362605875710 -5.722950396235291 -2.916876406167036 77.000000000000000
5.374316033290913 -5.670421056972300 -3.053128921443927 20.000000000000000
7.291244772182253 -8.866681240433243 -1.581599649934879 41.000000000000000
7.230058532624579 -8.710679599370978 -1.757910842996516 48.000000000000000
6.107787449285444 -7.290832223838511 -1.643107409206465 7.000000000000000
6.125295407903485 -7.242672486647008 -1.806318747365181 30.000000000000000
6.163351428225553 -7.219505016400630 -1.975920669044220 24.000000000000000
7.117193068260504 -8.257502224482346 -2.462152684496588 0.000000000000000
5.788587870279187 -6.651850818150648 -2.149164293655842 31.000000000000000
5.685337283109215 -6.471193808853029 -2.254286287397971 20.000000000000000
5.695750813577816 -6.419923005061672 -2.401406937340604 5.000000000000000
5.555831730920612 -6.201167273471170 -2.481854593670990 52.000000000000000
5.475494801333729 -6.051678552150304 -2.582584632110111 1.000000000000000
5.370336530918986 -5.876946158818970 -2.667171796307841 55.000000000000000
5.370911119010827 -5.819533402877720 -2.801132757381613 72.000000000000000
5.372188088224791 -5.763098514922986 -2.936112166118340 78.000000000000000
5.374517850872867 -5.707622417294758 -3.071482412816849 20.000000000000000
7.291763066546489 -8.921031218939294 -1.596501604151728 40.000000000000000
7.349053579803082 -8.907961558353467 -1.802491707631519 38.000000000000000
6.970187344371008 -8.371205027130575 -1.890648242829425 24.000000000000000
6.115093478445805 -7.275101140878940 -1.817556364972351 18.000000000000000
6.137799248064583 -7.234045748904490 -1.982641292118851 31.000000000000000
6.182048140378662 -7.217126642949839 -2.154274775803759 15.000000000000000
5.777075908348293 -6.680117085801454 -2.160067977903763 19.000000000000000
5.676736569264369 -6.502006408474152 -2.266351823379954 17.000000000000000
5.603049481789995 -6.355331753704313 -2.378149449671012 7.000000000000000
5.524745777560121 -6.205636049162309 -2.484119425202589 83.000000000000000
5.480078780834988 -6.035547530759489 -2.738777566686484 11.000000000000000
5.371013460141308 -5.857218963341372 -2.818479098105064 71.000000000000000
5.372240878956247 -5.800574827322691 -2.953973529180945 77.000000000000000
5.374512197099385 -5.744886253080876 -3.089855107022384 18.000000000000000
7.289507109537396 -8.972388062662386 -1.610876330758292 40.000000000000000
7.354132507161951 -8.968489042952083 -1.819488761589985 36.000000000000000
7.469144396301841 -9.025450158478487 -2.042742133509129 27.000000000000000
6.099700623181920 -7.301509630397885 -1.827280335570060 0.000000000000000
6.119777361847476 -7.257487295291453 -1.991783924049566 24.000000000000000
6.148668291879149 -7.222855624806480 -2.158290726394685 27.000000000000000
5.869244371551583 -6.829174041377587 -2.210053487946526 8.000000000000000
5.675589211963505 -6.541598224227366 -2.281472281187926 19.000000000000000
5.718883407755176 -6.527751875176641 -2.443580165378330 4.000000000000000
5.501298848830947 -6.218598165615935 -2.489773449623361 52.000000000000000
5.373446544440908 -5.897752164752785 -2.837184455968607 22.000000000000000
5.374622362826476 -5.840869301370852 -2.973256844154088 75.000000000000000
7.294459453731120 -9.033057149312061 -1.626934483971303 41.000000000000000
7.361391653943621 -9.032188367816948 -1.837145123696374 36.000000000000000
7.481023731451071 -9.095316030693905 -2.062873295010709 32.000000000000000
6.997447643449058 -8.427838276541520 -2.112724416872895 0.000000000000000
6.109200162331564 -7.289894165153673 -2.003376259574436 4.000000000000000
6.127898473822845 -7.243348819928670 -2.166698448644291 27.000000000000000
5.761220828357264 -6.745504965683742 -2.184718133956512 14.000000000000000
5.838373780414360 -6.771625935968949 -2.363044177217767 10.000000000000000
5.702187216095192 -6.549924669674613 -2.452778786231741 10.000000000000000
5.467701418618115 -6.219980570530604 -2.490780379532331 24.000000000000000
6.367162766008331 -7.173030188598966 -3.061290614202615 9.000000000000000
5.352895562849283 -5.913222056867416 -2.843824537380095 42.000000000000000
5.379302996767756 -5.884003086290028 -2.993971100310567 40.000000000000000
7.299096980625440 -9.093834007390292 -1.643028397032868 39.000000000000000
7.368315202774507 -9.096009658108777 -1.854843220370373 37.000000000000000
7.502500539601685 -9.177531894614244 -2.085830764135640 30.000000000000000
7.553215915299280 -9.153456487542844 -2.298457671467859 21.000000000000000
7.002594160247265 -8.407875222392725 -2.313690833180908 16.000000000000000
6.112068027795319 -7.269761103569608 -2.176863321531385 15.000000000000000
5.854818895533062 -6.898131089250512 -2.235907685040813 40.000000000000000
5.813539816006746 -6.785375246585559 -2.369171494579527 8.000000000000000
5.695468250110510 -6.583709028833178 -2.466317261757623 12.000000000000000
5.451782479004707 -6.241422462882362 -2.499809881059908 31.000000000000000
6.252005952272646 -7.088454013834400 -3.025230117941834 10.000000000000000
5.435562642703523 -6.043455645118470 -2.905637042497142 84.000000000000000
5.486930720020497 -6.040838238278246 -3.072501367396071 11.000000000000000
7.305888903364471 -9.157813374922002 -1.659718506794336 37.000000000000000
7.382334298886276 -9.169182339999789 -1.874469395675286 35.000000000000000
7.518556686602455 -9.253838558613857 -2.107472723775306 31.000000000000000
7.554205006279339 -9.211345559150713 -2.316807223965459 21.000000000000000
7.100514571365610 -8.578510538127132 -2.363748245703508 17.000000000000000
6.983419704782619 -8.358117793277913 -2.505332748467758 31.000000000000000
6.115183780055201 -7.250195427123343 -2.351845574154388 24.000000000000000
5.710985067713548 -6.707806311436713 -2.343382180653144 8.000000000000000
5.696101993949001 -6.626273349780242 -2.483139055414002 15.000000000000000
