# This PCD file was generated using the MATLAB® pcwrite function
# from Computer Vision Toolbox®.
# .PCD v.7 - Point Cloud Data file format
VERSION .7
FIELDS x y z intensity
SIZE 8 8 8 8
TYPE F F F F
COUNT 1 1 1 1
WIDTH 640
HEIGHT 1
VIEWPOINT 0 0 0 1 0 0 0
POINTS 640
DATA ascii
7.342948288081947 -4.280941222260074 -1.947576106371405 1.000000000000000
7.460591521834374 -4.284130228074258 -2.117876845624751 0.000000000000000
7.663311526348263 -4.333544324072640 -2.318807029796927 0.000000000000000
7.396171467958557 -3.988274760473395 -2.653611887885382 11.000000000000000
7.340599476054085 -3.894505885860085 -2.772367803368740 13.000000000000000
7.504287735307642 -3.914978123102260 -2.975801720770722 16.000000000000000
6.021543152957388 -2.978594698349984 -2.731390795919428 4.000000000000000
6.075933570340696 -2.950377245802285 -2.872961078096790 5.000000000000000
6.173735336508148 -2.942120463584027 -3.039601153525037 5.000000000000000
7.110711814711624 -4.813944506957905 -0.540862063792909 1.000000000000000
7.195389676907144 -4.805767971275297 -0.688012793284126 29.000000000000000
7.112402548900408 -4.684866794897839 -0.819078199232898 5.000000000000000
7.069676828046219 -4.592718325970921 -0.951243357546956 5.000000000000000
7.131666546528704 -4.568344951389695 -1.095972934992287 1.000000000000000
7.158133671346850 -4.520704316184923 -1.236725850282696 1.000000000000000
7.182171463230667 -4.471965899610428 -1.377359090969579 1.000000000000000
7.201092092910836 -4.419014959979436 -1.517114185845929 1.000000000000000
7.234461065185816 -4.374921997947281 -1.660748809479464 1.000000000000000
7.289164362859731 -4.343359898982091 -1.810050739379967 1.000000000000000
7.358427659700306 -4.319529738455698 -1.965385767617726 1.000000000000000
7.472455974102669 -4.320866273220304 -2.135457881589942 0.000000000000000
7.694901940818720 -4.382121110271727 -2.343309347076307 0.000000000000000
7.361104006118302 -3.998453013493695 -2.656212587499782 18.000000000000000
7.268861627826006 -3.885075001363921 -2.760562781263235 11.000000000000000
7.509101244770349 -3.946962840603798 -2.993810085940856 12.000000000000000
6.025868327047729 -3.004131177023371 -2.747014884619153 5.000000000000000
6.063562567929379 -2.967827529259274 -2.881112413873580 5.000000000000000
6.147977325617762 -2.953544295783658 -3.041377138161871 7.000000000000000
7.103054227408153 -4.838379409519928 -0.550680789598430 1.000000000000000
7.207419857289310 -4.843761402145891 -0.700013199756559 28.000000000000000
7.094791992218244 -4.702659809129544 -0.828022527926345 1.000000000000000
7.065433246888516 -4.619138411136578 -0.961888440789805 4.000000000000000
7.137306668317179 -4.601333482384241 -1.108458256446681 1.000000000000000
7.167082367786561 -4.555756189548832 -1.250228728973410 1.000000000000000
7.184400881164689 -4.502729752101452 -1.390062141870089 1.000000000000000
7.206639389608777 -4.451786318392351 -1.530885783954479 1.000000000000000
7.229889110580750 -4.401520705397060 -1.672633530892779 1.000000000000000
7.287827098321878 -4.372063041855873 -1.823048255807641 1.000000000000000
7.360293497962868 -4.350318887364744 -1.979641685276177 1.000000000000000
7.487492727918738 -4.359667923887732 -2.154050195048490 0.000000000000000
7.712812430630756 -4.423231290777774 -2.363799771171842 0.000000000000000
7.319358126492129 -4.004817294429606 -2.656307786080367 18.000000000000000
7.240680672135722 -3.898646013539473 -2.765154365541458 20.000000000000000
7.507094683459852 -3.975492140135616 -3.009175245360229 13.000000000000000
6.033373676381186 -3.031391775835060 -2.764178355777740 2.000000000000000
6.051131245428815 -2.985244555537384 -2.889243083271035 5.000000000000000
6.092636127229956 -2.950535546282564 -3.028395781811783 5.000000000000000
7.108471017675766 -4.871839086673049 -0.561533351127382 1.000000000000000
7.206063192950296 -4.872931694119758 -0.710755910035305 28.000000000000000
7.096996030691819 -4.733649064159847 -0.839284145997725 1.000000000000000
7.127475212382306 -4.689258380723843 -0.981680668897467 1.000000000000000
7.139469358968783 -4.632237567407136 -1.120450084317846 1.000000000000000
7.162534533240824 -4.582371850324788 -1.261421137243081 1.000000000000000
7.189830134574456 -4.535654780060061 -1.403436622040110 1.000000000000000
7.208692592284960 -4.482554044330841 -1.543970320177543 1.000000000000000
7.241930454275880 -4.438387323332575 -1.688419753352897 1.000000000000000
7.299751668562767 -4.408888544062205 -1.839430178982651 1.000000000000000
7.382106118474796 -4.393117187113109 -1.999357555783453 1.000000000000000
7.502332828495462 -4.398600331914302 -2.172697229381637 0.000000000000000
7.763975605094818 -4.483816968343534 -2.394674967064873 0.000000000000000
8.263904690083100 -4.699919040230798 -2.704088809284662 0.000000000000000
7.277649406431155 -4.010988602714455 -2.656306749222876 19.000000000000000
7.192494412017540 -3.901259015868100 -2.762009816094849 38.000000000000000
7.534885832871806 -4.020022983085117 -3.036611055281065 12.000000000000000
6.051802972889244 -3.009173391217674 -2.903668761914213 6.000000000000000
6.086601712438233 -2.971260538551174 -3.039846444508765 5.000000000000000
7.110452878561307 -4.903105247511180 -0.572149275615689 0.000000000000000
7.197991266099387 -4.897651961136011 -0.720848805740524 30.000000000000000
7.102368648290864 -4.766911010987334 -0.850961219505751 1.000000000000000
7.116251752512640 -4.711513956848764 -0.991494442384882 1.000000000000000
7.144814714290738 -4.665364395971788 -1.132987974893535 1.000000000000000
7.164528263354957 -4.613288261856396 -1.273798326504629 1.000000000000000
7.191776254750700 -4.566538558967469 -1.416183565455858 1.000000000000000
7.210606942546335 -4.513376849176253 -1.557074480370939 1.000000000000000
7.253791368958198 -4.475365866436645 -1.704252075592494 1.000000000000000
7.308154881628336 -4.443794891864653 -1.855010292469979 1.000000000000000
7.390331226809698 -4.428076718838090 -2.015501161033043 1.000000000000000
7.533679927159715 -4.447524263593659 -2.196268353334003 0.000000000000000
7.771371963583293 -4.519492361218571 -2.412225238347065 0.000000000000000
8.236863496156261 -4.717712646460416 -2.711761628741714 1.000000000000000
7.235978785917364 -4.016967174275867 -2.656209654854832 19.000000000000000
7.124427404282107 -3.892742716073896 -2.751049310275579 45.000000000000000
7.569060415716815 -4.068326711820497 -3.066825425275562 15.000000000000000
6.370905163571582 -3.192783438487295 -3.071693557583208 8.000000000000000
6.087024628430829 -2.995210045503517 -3.054578196116667 11.000000000000000
7.112298616406522 -4.934424698925550 -0.582784078107281 0.000000000000000
7.156932099818285 -4.899852090983116 -0.727590822563759 25.000000000000000
7.104292797468273 -4.798018074095796 -0.862265857198612 1.000000000000000
7.124782348430817 -4.746965679890932 -1.004088303599955 1.000000000000000
7.146695405355419 -4.696387012309449 -1.145023062511351 1.000000000000000
7.169703041547816 -4.646410254196763 -1.286790599015703 1.000000000000000
7.190259384192715 -4.595352328936980 -1.428289522807626 1.000000000000000
7.212382095929943 -4.544254255992067 -1.570198000001005 1.000000000000000
7.252146187838505 -4.504179751423296 -1.716975374630573 1.000000000000000
7.313056798306751 -4.476753035108071 -1.869774993786711 1.000000000000000
7.398387231778112 -4.463128189449088 -2.031681356218908 1.000000000000000
7.554757851953156 -4.490727092823637 -2.217002475445598 0.000000000000000
7.210962324033303 -4.032043671655352 -2.662150670273239 14.000000000000000
7.099639572326485 -3.907620316394434 -2.756668533929547 73.000000000000000
6.077534977358079 -3.014341559365636 -3.064384042914707 60.000000000000000
7.110735584121244 -4.963512797832814 -0.593164528998313 1.000000000000000
7.148734115850807 -4.924474806000378 -0.737626210175793 24.000000000000000
7.106079850802884 -4.829178672153195 -0.873589438142397 1.000000000000000
7.129848717209604 -4.780296304302710 -1.016248253516056 1.000000000000000
7.141825163745094 -4.723090255911010 -1.156006818758375 1.000000000000000
7.168100605727403 -4.675284004420020 -1.298610482086431 1.000000000000000
7.191934488681582 -4.626335276019002 -1.441070513324922 1.000000000000000
7.217339080976746 -4.577292225499201 -1.584069592091939 1.000000000000000
7.260347681691110 -4.539264060002338 -1.732088142830388 1.000000000000000
7.317803953050412 -4.509783934260028 -1.884567369719091 1.000000000000000
7.406273595863958 -4.498271002110143 -2.047897803793774 1.000000000000000
7.568954931183763 -4.530113831328201 -2.235842106437283 0.000000000000000
8.227440165338061 -4.707103154325752 -2.898301609618736 2.000000000000000
7.185916261857692 -4.047022761377536 -2.668040150833808 1.000000000000000
7.097997579604450 -3.935249404018704 -2.771284627767382 94.000000000000000
6.077747582204241 -3.038344954242350 -3.079130439919776 85.000000000000000
7.073128554159871 -4.967407979383705 -0.600505139597798 5.000000000000000
7.176469173097279 -4.974067147999871 -0.751426786036309 27.000000000000000
7.114298538252544 -4.864884378082661 -0.885749567600805 1.000000000000000
7.131470930260605 -4.811477378315141 -1.027960995762774 1.000000000000000
7.146742542644223 -4.756397410672133 -1.168610585657431 1.000000000000000
7.169678537628762 -4.706362383292639 -1.311044920738233 1.000000000000000
7.193470160228090 -4.657371804344405 -1.453870327782284 1.000000000000000
7.222142303861523 -4.610402628756344 -1.597968755492527 1.000000000000000
7.261746115142790 -4.570263935185427 -1.745642266316900 1.000000000000000
7.322395908028055 -4.542887049305114 -1.899387117822443 1.000000000000000
7.437231131468200 -4.547716170808797 -2.070620855416174 0.000000000000000
7.599552350191393 -4.579631916826314 -2.259670680228910 0.000000000000000
8.180295614376526 -4.713381088739101 -2.898651130048036 2.000000000000000
7.069800441163193 -3.948154652566758 -2.775535364852011 51.000000000000000
6.077844398079779 -3.062388851374906 -3.093890430462096 39.000000000000000
7.107239637718010 -5.021790558704307 -0.613954653503214 1.000000000000000
7.210493997019953 -5.028417586672540 -0.766008415738041 30.000000000000000
7.109241327582714 -4.891658584687427 -0.896292383680558 2.000000000000000
7.132954815948878 -4.842711195148654 -1.039692201573908 1.000000000000000
7.151507337987112 -4.789776112794277 -1.181241543471042 1.000000000000000
7.171117193183731 -4.737493796695705 -1.323497913823218 1.000000000000000
7.198169489049834 -4.690614079318554 -1.467362111344902 1.000000000000000
7.220176416972846 -4.639334507368689 -1.610419770285774 1.000000000000000
7.272934844678472 -4.607608545170137 -1.761620344891847 1.000000000000000
7.336769161164321 -4.582268070546907 -1.916830093001071 1.000000000000000
7.441414376805040 -4.581066188022124 -2.086010703146005 0.000000000000000
7.619940031170992 -4.623340973918736 -2.280621003201093 0.000000000000000
8.133196477972543 -4.719442298863378 -2.898892795257214 2.000000000000000
7.018513036200858 -3.947963391936180 -2.770616504789210 48.000000000000000
7.496142470325607 -5.399056085756532 -0.507489356968286 16.000000000000000
7.115061824189567 -5.057914371030753 -0.625221123508176 0.000000000000000
7.211625778687325 -5.060116977647763 -0.777178101012418 30.000000000000000
7.113885837038246 -4.925241430180177 -0.908088735765048 1.000000000000000
7.131021410647670 -4.871757389835197 -1.050958408059352 1.000000000000000
7.149547843518708 -4.818796787233072 -1.192803066976781 1.000000000000000
7.175707846449712 -4.770866235673917 -1.336582307120157 1.000000000000000
7.202714729549094 -4.723927644983659 -1.480880862762313 1.000000000000000
7.224684823138731 -4.672569448979836 -1.624364475962572 1.000000000000000
7.274030114133406 -4.638742170956967 -1.775224202760255 1.000000000000000
7.347638882386520 -4.619698442623116 -1.933456271361553 1.000000000000000
7.458664818969900 -4.622683045634257 -2.105159513639353 0.000000000000000
7.640098095990576 -4.667213943445540 -2.301640955872283 0.000000000000000
8.082844688629434 -4.723359162822577 -2.897844019003606 3.000000000000000
6.977179734770167 -3.953115735647874 -2.769493623261420 49.000000000000000
7.512637843961459 -5.443498489669096 -0.519481297496245 11.000000000000000
7.122718802723271 -5.094125676412218 -0.636522152206928 0.000000000000000
7.212618501275935 -5.091867112434049 -0.788365184647717 28.000000000000000
7.118378041980781 -4.958894315774978 -0.919911526409178 1.000000000000000
7.138777942167024 -4.907584271828259 -1.063696435705912 1.000000000000000
7.157298804999501 -4.854522236993206 -1.206031370442399 1.000000000000000
7.180144545317312 -4.804309332296306 -1.349693353306843 1.000000000000000
7.200526623999349 -4.752969367842236 -1.493062130465401 1.000000000000000
7.232331643387482 -4.708019151134593 -1.639082265356454 1.000000000000000
7.288169021424240 -4.678391668991018 -1.792088085632911 1.000000000000000
7.358323755532527 -4.657236838594202 -1.950126287707219 1.000000000000000
7.459205500840173 -4.654152801153954 -2.119681815685201 1.000000000000000
7.679818978724529 -4.723423758675451 -2.328731940349244 0.000000000000000
8.029262566547617 -4.725103733638425 -2.895491900142946 2.000000000000000
6.929325561654484 -3.954330739579261 -2.765655738269011 47.000000000000000
7.519241621337060 -5.481022370767393 -0.530847634542915 41.000000000000000
7.392492991218235 -5.319145203610534 -0.671688676170964 15.000000000000000
7.275180964946641 -5.167498976621466 -0.806409482765524 22.000000000000000
7.119460675319636 -4.990333847046306 -0.931334412336019 1.000000000000000
7.139837860257495 -4.938982667142155 -1.075485724174450 1.000000000000000
7.158338656542480 -4.885870095115080 -1.218181058755124 1.000000000000000
7.181149295633363 -4.835615511512577 -1.362209021642201 1.000000000000000
7.208058868436851 -4.788585894782527 -1.507311672295639 1.000000000000000
7.229949873665098 -4.737098124596542 -1.651582932290700 1.000000000000000
7.295530795439364 -4.713916812795022 -1.807374530871869 1.000000000000000
7.372114280708967 -4.696979462506210 -1.967718211777742 1.000000000000000
7.485937773251638 -4.702215773180085 -2.141755933214787 0.000000000000000
7.719223080505823 -4.779908344273387 -2.355943813789252 0.000000000000000
7.982327350262765 -4.730488291789564 -2.895398175465489 4.000000000000000
6.881544888491261 -3.955317527947475 -2.761705849794878 46.000000000000000
7.519235467160628 -5.513906966493954 -0.541782201851574 49.000000000000000
7.402486590820997 -5.358604839822298 -0.683697625671152 53.000000000000000
7.246594214674077 -5.178678153121651 -0.814432854342651 25.000000000000000
7.117154321262794 -5.019532000014158 -0.942344346915807 2.000000000000000
7.134242808898188 -4.965896806236623 -1.086300351419158 1.000000000000000
7.162502932411170 -4.919511176945442 -1.230909226186173 1.000000000000000
7.185283875702257 -4.869189049852056 -1.375368177025342 1.000000000000000
7.208871088294193 -4.819910937866744 -1.520214518871795 1.000000000000000
7.237278344664739 -4.772697224315163 -1.666357514719200 1.000000000000000
7.299439539686992 -4.747395585997664 -1.821876383431116 1.000000000000000
7.379136471183875 -4.732635052540886 -1.983596329676300 1.000000000000000
7.509126534292847 -4.748401347883366 -2.162970025543234 0.000000000000000
7.764878183286719 -4.840761907784477 -2.385293891926254 0.000000000000000
7.938719600366864 -4.737613400296350 -2.896393339324528 5.000000000000000
6.781547386555493 -3.925805210903922 -2.736543164275315 42.000000000000000
7.509447264507466 -5.539727069189311 -0.552023351383410 48.000000000000000
7.383279699984943 -5.377034376804191 -0.693023940752575 22.000000000000000
7.172718802389500 -5.157190189334109 -0.817238235084547 21.000000000000000
7.117965373769034 -5.051063197708307 -0.953797415902234 2.000000000000000
7.141538334017238 -5.001931403557085 -1.099116216726752 1.000000000000000
7.159997547079072 -4.948718228493391 -1.242532502914463 1.000000000000000
7.182736465228239 -4.898380591821376 -1.387292488535918 1.000000000000000
7.206273632567812 -4.849087471338628 -1.532439567442926 1.000000000000000
7.244436301483628 -4.808384126606574 -1.681166489299659 1.000000000000000
7.306466126598541 -4.783087322381464 -1.837227369527743 1.000000000000000
7.395816748000970 -4.774724575738547 -2.002169786962812 1.000000000000000
7.515681539619584 -4.784334594147133 -2.179508542371055 0.000000000000000
7.787242613984140 -4.887525935324049 -2.407687417935358 0.000000000000000
9.428860766087084 -5.833725935357911 -3.096832311391137 15.000000000000000
7.895148234808824 -4.744541984783369 -2.897290407436404 4.000000000000000
6.747076134514311 -3.933792363635052 -2.737593336285353 28.000000000000000
7.502764723034522 -5.567918921478597 -0.562494795201975 49.000000000000000
7.389752174244210 -5.414259503621575 -0.704770055192770 35.000000000000000
7.128067934189393 -5.156340951297108 -0.823220213282804 12.000000000000000
7.118636667296855 -5.082644097497956 -0.965267308669434 1.000000000000000
7.070821329699482 -4.983191688254836 -1.099857409655808 3.000000000000000
7.163866329589093 -4.982478187032558 -1.255303281093646 1.000000000000000
7.189830761240908 -4.934308002182673 -1.401128889256808 1.000000000000000
7.210070630149467 -4.882712404373152 -1.546071500428300 1.000000000000000
7.251423226371023 -4.844158225788382 -1.696009515177795 1.000000000000000
7.316588593156578 -4.821019314904381 -1.853440078289544 1.000000000000000
7.405741651071575 -4.812707018621793 -2.019019997546377 1.000000000000000
7.531873505272799 -4.826641399084789 -2.198944816317688 0.000000000000000
9.359456501605512 -5.913922579292351 -2.912524286712541 24.000000000000000
9.365601702589405 -5.834098715516265 -3.095221627939743 15.000000000000000
7.861404243262865 -4.757198568349517 -2.901703138727650 2.000000000000000
6.715878348795257 -3.943538010470360 -2.739894516976624 29.000000000000000
7.495967494326403 -5.596120730195739 -0.572964306982066 50.000000000000000
7.392844495109171 -5.449201641651143 -0.716237209142679 47.000000000000000
7.106013074474242 -5.171689524567189 -0.831738929522433 2.000000000000000
7.122396529804281 -5.116593614960974 -0.977196731253512 1.000000000000000
7.132968380949292 -5.058194492391549 -1.121287899478735 1.000000000000000
7.161093192512263 -5.011766351537168 -1.266951587770565 1.000000000000000
7.193505657471396 -4.968077869726525 -1.414360150831656 1.000000000000000
7.216964937137457 -4.918623036486450 -1.560432158433471 1.000000000000000
7.248465392487147 -4.873447972949305 -1.708582543769092 1.000000000000000
7.326524206165241 -4.859056274655757 -1.869694942016820 1.000000000000000
7.422003397948825 -4.855062299013211 -2.037703519537778 1.000000000000000
7.567426502914222 -4.881720054491669 -2.224194558163755 0.000000000000000
9.286525106759507 -5.907331767174089 -2.908494255462980 24.000000000000000
9.305700133943310 -5.836219107319333 -3.094549328818045 15.000000000000000
7.837423308203824 -4.775667219013633 -2.909670514209819 2.000000000000000
6.645727611201601 -3.930111054081057 -2.726146661554098 33.000000000000000
7.485863195080895 -5.621934704283278 -0.583182994701125 50.000000000000000
7.386171331075824 -5.477082861650795 -0.726782219516070 53.000000000000000
7.106406117540661 -5.203426290951964 -0.842882510917479 1.000000000000000
7.129223260390830 -5.152938525994956 -0.989598024866290 1.000000000000000
7.139806577553734 -5.094422991193490 -1.134174775737671 1.000000000000000
7.167901141013905 -5.047922134722957 -1.280341889662903 1.000000000000000
7.193782232565771 -4.999662056625017 -1.426973198755014 1.000000000000000
7.220441289082861 -4.952392832011300 -1.574118428946985 1.000000000000000
7.268132429191529 -4.918165118566399 -1.726568521157276 1.000000000000000
7.336272357504463 -4.897197530542304 -1.885991580937267 1.000000000000000
7.431537192888822 -4.893271885799200 -2.054645760796074 1.000000000000000
7.586393364291946 -4.926478597087182 -2.244737034636582 0.000000000000000
8.604911854195823 -5.510503722650647 -2.712383583524553 32.000000000000000
9.245881236965884 -5.838060543540764 -3.093739685538319 16.000000000000000
7.969337095259778 -4.889733244205547 -2.975822417858219 13.000000000000000
6.621108153697480 -3.943337074301234 -2.730933088796230 25.000000000000000
7.482028506564014 -5.652552706137205 -0.593896734546048 50.000000000000000
7.379383958779623 -5.504974088316548 -0.737325352791687 53.000000000000000
7.113069996922553 -5.239933859580388 -0.854812474232312 1.000000000000000
7.116594447710776 -5.175342617798399 -0.999323899049629 1.000000000000000
7.143252810802238 -5.128423106605399 -1.146577394074095 1.000000000000000
7.097045723946411 -5.029248521865814 -1.279791114801350 2.000000000000000
7.197151107114822 -5.033557085187569 -1.440249635137578 1.000000000000000
7.223760271962099 -4.986229612342656 -1.587829268598881 1.000000000000000
7.271352672135362 -4.951997615778057 -1.740739478140929 1.000000000000000
7.342586382637067 -4.933261479944107 -1.901488991294028 1.000000000000000
7.447377468003022 -4.935889913574547 -2.073437631122270 0.000000000000000
7.624617500276877 -4.984136920856043 -2.271151938693489 0.000000000000000
8.546623727359309 -5.509852556492746 -2.711332452623469 36.000000000000000
9.186146371054788 -5.839623468836741 -3.092793008231903 16.000000000000000
7.743936011940376 -4.784314454580430 -2.908423325904561 0.000000000000000
6.570611150038840 -3.940959299795075 -2.724946405407633 37.000000000000000
6.896858049822461 -4.073926505713554 -2.995525974957264 11.000000000000000
7.478064615073627 -5.683197414931207 -0.604616205293068 50.000000000000000
7.369293470536613 -5.530481832662672 -0.747542937692912 53.000000000000000
7.113167957354315 -5.271784192452953 -0.865995980747606 1.000000000000000
7.126332231171295 -5.214148236410276 -1.012220874961956 1.000000000000000
7.152972684457973 -5.167133912699314 -1.160046940270419 1.000000000000000
7.129458713168281 -5.083732848509750 -1.297837733390359 1.000000000000000
7.200362771190988 -5.067518466478397 -1.453550327696731 1.000000000000000
7.230153550121971 -5.022377964164319 -1.602280632952714 1.000000000000000
7.277650345453696 -4.988114402992847 -1.755715282149420 1.000000000000000
7.358442608811870 -4.975980366108895 -1.919553533747036 1.000000000000000
7.456517482240010 -4.974323778995880 -2.090470276938960 1.000000000000000
7.643070064491452 -5.029266112624337 -2.291852167501891 0.000000000000000
8.566213523495026 -5.559410173146158 -2.734982339359783 52.000000000000000
9.129736686054750 -5.842981782697511 -3.092807127897084 16.000000000000000
6.539558164192651 -3.950024152114782 -2.726908912092802 67.000000000000000
6.820017519174156 -4.057306995687347 -2.977951809701444 12.000000000000000
7.464458411556581 -5.706595756925464 -0.614557962427067 17.000000000000000
7.365466119832781 -5.560785053077540 -0.758405189239145 54.000000000000000
7.122698530645374 -5.310819726416663 -0.878375474979742 2.000000000000000
7.129485482773672 -5.248344059506107 -1.024238929140275 1.000000000000000
7.152884448667479 -5.198952385013521 -1.171980444535299 1.000000000000000
7.171227589783066 -5.145365860955024 -1.317756051950707 1.000000000000000
7.203416816489208 -5.101545647433909 -1.466874969132897 1.000000000000000
7.239598783968554 -5.060864761037053 -1.617484874011001 1.000000000000000
7.283774438417817 -5.024315326733786 -1.770723419340004 1.000000000000000
7.364386005245753 -5.012240326782557 -1.935128334843759 1.000000000000000
7.475166574254903 -5.019372529694043 -2.110281520388934 1.000000000000000
7.667753901398959 -5.078835646896301 -2.314570063617964 0.000000000000000
9.044731702236746 -5.909136034799285 -2.906249087189567 29.000000000000000
9.066934157215220 -5.841915590001304 -3.090489803902228 16.000000000000000
6.540686669821803 -3.978526119328336 -2.742293165406930 85.000000000000000
6.669532733758471 -3.996043808582260 -2.927768944642942 19.000000000000000
7.463420789406243 -5.739698991387661 -0.625541052627369 48.000000000000000
7.364684288042196 -5.593526040532988 -0.769604944983948 54.000000000000000
7.288058015672961 -5.466985894686568 -0.910281048623553 49.000000000000000
7.129289825473090 -5.280240005197387 -1.035816620796852 1.000000000000000
7.152653900179170 -5.230817710753133 -1.183929162206529 1.000000000000000
7.177386629845476 -5.181812852474469 -1.331255320231921 1.000000000000000
7.199887234948621 -5.131058815058214 -1.478903391177844 1.000000000000000
7.232768903830300 -5.088136321276512 -1.629106122968103 1.000000000000000
7.286503183700100 -5.058363533614807 -1.784974429991704 1.000000000000000
7.373378288704710 -5.050792006615166 -1.951588255132302 1.000000000000000
7.493580238235747 -5.064577531008907 -2.130158126882223 0.000000000000000
7.714756683225784 -5.143656095029073 -2.344232773146340 0.000000000000000
8.994995403391769 -5.915778549702408 -2.908732686900218 29.000000000000000
9.007459515212194 -5.842645699879147 -3.089133908961704 15.000000000000000
6.538466706299459 -4.005113590961582 -2.756342187412208 60.000000000000000
6.577269552431860 -3.968762152333312 -2.902653305660090 11.000000000000000
7.455925831583853 -5.767961463802497 -0.635998856925064 50.000000000000000
7.363758887146615 -5.626311187716932 -0.780818462218031 54.000000000000000
7.284156581278040 -5.497070911450877 -0.921335060607379 57.000000000000000
7.224514483572655 -5.383391059662661 -1.061449563282703 13.000000000000000
7.158666696156304 -5.267428261859284 -1.196960583941119 1.000000000000000
7.183373224649305 -5.218342554980698 -1.344786263414744 1.000000000000000
7.218666770794686 -5.176691312634090 -1.495587211072415 1.000000000000000
7.241874421628052 -5.126780509438120 -1.644369930829056 1.000000000000000
7.298713756405680 -5.099212468055756 -1.801628626459739 1.000000000000000
7.385396751204139 -5.091662212870763 -1.968945590240451 0.000000000000000
7.498883976854450 -5.101180524649608 -2.146414768075157 0.000000000000000
7.758168171583536 -5.206635648151120 -2.373051168607653 4.000000000000000
8.932428566265047 -5.913675631503089 -2.906915966095105 29.000000000000000
8.948074316084558 -5.843099126831630 -3.087642244148002 16.000000000000000
6.513705791873604 -4.017906283324695 -2.760898758616870 54.000000000000000
7.448315365729441 -5.796231217462173 -0.646453313361213 50.000000000000000
7.356369715907100 -5.654282367101219 -0.791365601964790 55.000000000000000
7.283295605320646 -5.529588775388980 -0.932800675712213 57.000000000000000
7.236527375257838 -5.425178474806748 -1.075069329688750 56.000000000000000
7.177249766241812 -5.313554428119295 -1.212175371963843 1.000000000000000
7.189186880336577 -5.254954352934381 -1.358348537074495 1.000000000000000
7.176450513981308 -5.178630985732623 -1.499638334395126 1.000000000000000
7.247588272999529 -5.163243639853032 -1.658940427078954 1.000000000000000
7.310719601230036 -5.140180117546080 -1.818330902606811 1.000000000000000
7.387581692660928 -5.125970644327914 -1.983765532453251 1.000000000000000
7.520064903342819 -5.148857352612252 -2.167329188647245 0.000000000000000
7.775527107873468 -5.252558355408551 -2.394089580143702 11.000000000000000
8.879601822708171 -5.917699137026526 -2.908110794621354 28.000000000000000
8.895200115628807 -5.847496835888014 -3.088244105830511 17.000000000000000
7.552865599652842 -4.828827307579746 -2.919560252358708 1.000000000000000
6.472950466420453 -4.020680297818681 -2.758597143839579 49.000000000000000
7.443731426016581 -5.826967544391493 -0.657181629339530 52.000000000000000
7.348865530375265 -5.682261203470087 -0.801909615855137 55.000000000000000
7.279128753007686 -5.559735440093504 -0.943869923932877 57.000000000000000
7.241996417836069 -5.462299044732856 -1.087783540029918 37.000000000000000
7.211492422936455 -5.371670802518570 -1.230164957759563 57.000000000000000
7.194827105771558 -5.291647628736553 -1.371941795901589 1.000000000000000
7.111948083140382 -5.164163413461563 -1.498888488774562 3.000000000000000
7.259517809304300 -5.204369807814210 -1.675016441682163 1.000000000000000
7.319321032520816 -5.179002187258518 -1.834279141044212 1.000000000000000
7.408815244654010 -5.173757271655484 -2.003803474538943 0.000000000000000
7.540992953136102 -5.196706139349080 -2.188315923719246 0.000000000000000
7.827891620298097 -5.322599251213724 -2.426114999715784 5.000000000000000
8.817225547840769 -5.915035727656647 -2.906019610919618 29.000000000000000
8.839185439663604 -5.849536005362497 -3.087608991631972 16.000000000000000
7.624686927427676 -4.908025183571908 -2.964293854552448 1.000000000000000
6.441813210088183 -4.029247917108853 -2.760300670000886 63.000000000000000
7.439017200504123 -5.857728021350875 -0.667914304746193 51.000000000000000
7.344391572112543 -5.712693865633987 -0.812798396301352 15.000000000000000
7.281141995924626 -5.594755935385506 -0.955772597771762 57.000000000000000
7.234638452477212 -5.489897490680898 -1.098606391640666 58.000000000000000
7.210548906536921 -5.403888882315557 -1.242250141487427 60.000000000000000
7.206648481757808 -5.333124694566839 -1.386788611353298 46.000000000000000
7.143095098712792 -5.219155055759781 -1.518284859531446 3.000000000000000
7.264866764745534 -5.241013852767650 -1.689656972759069 1.000000000000000
7.311773739428200 -5.206560276318056 -1.846236949168502 1.000000000000000
7.423408153966450 -5.217225557711859 -2.022173301075499 1.000000000000000
7.561667166747072 -5.244725947189677 -2.209374435946670 16.000000000000000
7.940586256238046 -5.434560757427171 -2.477243484414887 1.000000000000000
8.764547075522575 -5.918554548648945 -2.906965877958585 30.000000000000000
8.780054038480639 -5.849189605780393 -3.085724556241276 16.000000000000000
6.426586932909508 -4.047697241750253 -2.768787357830887 82.000000000000000
7.431044950448299 -5.886034918733201 -0.678365594550793 51.000000000000000
7.339787690275794 -5.743151097238077 -0.823691772430053 55.000000000000000
7.279848774128462 -5.627404233027166 -0.967278359071599 57.000000000000000
7.233477692336816 -5.522322609643616 -1.110395186176784 58.000000000000000
7.212624404855696 -5.438536276633499 -1.254899343462037 27.000000000000000
7.208755392137147 -5.367636571491285 -1.399835466304128 57.000000000000000
7.227935690416508 -5.314063815287419 -1.549350645353132 35.000000000000000
7.273220189119048 -5.280047055193454 -1.705073363680870 1.000000000000000
7.332765943905550 -5.254661256215530 -1.865481893325788 1.000000000000000
7.440964763603970 -5.263082177406083 -2.041472356088749 3.000000000000000
7.566144438865844 -5.281786911500657 -2.225814312048479 25.000000000000000
9.398403190552411 -6.474317516298896 -2.951300419469277 22.000000000000000
8.705555569879078 -5.917500147083518 -2.905665883926419 29.000000000000000
8.727392368041862 -5.852843637983269 -3.085959786446255 16.000000000000000
6.411297080160595 -4.066105384083396 -2.777249134566837 90.000000000000000
7.426076915269057 -5.916833591162773 -0.689102244224907 45.000000000000000
7.341314937924190 -5.778560866556997 -0.835301917696358 55.000000000000000
7.275270932683305 -5.657653206855072 -0.978374696635141 58.000000000000000
7.235320870287246 -5.557209082064340 -1.122685673823013 58.000000000000000
7.211384293808472 -5.470850760152049 -1.267015598623875 60.000000000000000
7.210702330230982 -5.402210116535280 -1.412904017124065 35.000000000000000
7.226684437488795 -5.346219095850914 -1.562161777831068 53.000000000000000
7.268691431685069 -5.309907171674601 -1.717529242588521 43.000000000000000
7.350329197268620 -5.300641559013002 -1.883984011249742 24.000000000000000
7.439207588514421 -5.295512165208686 -2.055563514736591 35.000000000000000
7.592707695332303 -5.334570327178243 -2.248878226501172 21.000000000000000
9.398329716883044 -6.516492381973748 -2.970619728008142 25.000000000000000
8.653022749425810 -5.920525056770924 -2.906368928760944 31.000000000000000
8.668436547527447 -5.851966228226639 -3.083815021233488 17.000000000000000
6.402273286964576 -4.088514193265964 -2.788442656839583 88.000000000000000
7.420978046404827 -5.947655104162737 -0.699842551367442 51.000000000000000
7.333312588931592 -5.806610503216989 -0.845851604566386 55.000000000000000
7.276828041574552 -5.692827757786874 -0.990328114074083 49.000000000000000
7.230722106215360 -5.587301563212971 -1.134011933096993 58.000000000000000
7.213147617026189 -5.505611357552866 -1.279703494788639 59.000000000000000
7.212488908550060 -5.436844764564444 -1.425993951624810 57.000000000000000
7.237930048245679 -5.387828766175442 -1.577741995091318 53.000000000000000
7.273526728455149 -5.346772671551834 -1.732251404731716 50.000000000000000
7.345471980341686 -5.330675110511715 -1.896820564045554 42.000000000000000
7.453159547069982 -5.339344915908638 -2.074080190079494 35.000000000000000
7.631677023358358 -5.396533705906744 -2.275814089981103 20.000000000000000
9.382187826125394 -6.547658294988436 -2.984911798926990 25.000000000000000
8.594209670118948 -5.918941238040886 -2.904809592151091 31.000000000000000
8.609578051420806 -5.850814921881771 -3.081536390565381 15.000000000000000
6.399469935775747 -4.114977892477769 -2.802392814278825 77.000000000000000
7.415748154815098 -5.978499012865925 -0.710586277321464 51.000000000000000
7.328310327305502 -5.837147565988505 -0.856761366765557 56.000000000000000
7.271974912450717 -5.723142527680614 -1.001441201739227 46.000000000000000
7.235393822657033 -5.624726393423316 -1.146832694940108 58.000000000000000
7.211609614458735 -5.538020150801531 -1.291849673128614 59.000000000000000
7.217262261597495 -5.473927182616824 -1.439732838664609 57.000000000000000
7.236356597716902 -5.420105962808343 -1.590595656541439 53.000000000000000
7.284499993163861 -5.388388094577110 -1.748518685006072 49.000000000000000
7.359449790188750 -5.374585097554282 -1.914595992589085 43.000000000000000
7.463722403250999 -5.381028558983613 -2.091763737761002 34.000000000000000
7.663965959613438 -5.454266789997810 -2.300968394701119 18.000000000000000
9.331093936704422 -6.554334686821413 -2.988030581759102 21.000000000000000
8.535495357374149 -5.917084354101151 -2.903116902691950 30.000000000000000
8.557147461301126 -5.853719891534632 -3.081403374600523 17.000000000000000
6.402841034882320 -4.145550457553331 -2.819124347365058 50.000000000000000
7.413485041234477 -6.011877147777547 -0.721634743774684 50.000000000000000
7.329393956799227 -5.872688480986561 -0.868411326113808 56.000000000000000
7.266991257849340 -5.753480674346468 -1.012558239442530 58.000000000000000
7.230511865010484 -5.654893611376239 -1.158179784817023 58.000000000000000
7.213059352024626 -5.572891770574926 -1.304575064006804 57.000000000000000
7.218719387108708 -5.508691225673227 -1.452868676230475 57.000000000000000
7.240927618775013 -5.457166635983955 -1.604856232428557 53.000000000000000
7.288965249247215 -5.425428013688328 -1.763307251602060 49.000000000000000
7.363742199251361 -5.411673696956887 -1.929945237728191 43.000000000000000
7.483543489231082 -5.429695502173487 -2.112164671247028 34.000000000000000
7.708566726802824 -5.521285640749156 -2.330042894816656 15.000000000000000
9.273729023412306 -6.556321575140708 -2.989002074884642 13.000000000000000
8.483197740369210 -5.919362475050889 -2.903453114268279 30.000000000000000
8.501629160210848 -5.854214206989808 -3.080010006628435 17.000000000000000
6.418623747814810 -4.184381926432815 -2.841443484873517 14.000000000000000
7.404894556684149 -6.040252233360810 -0.732083029286424 50.000000000000000
7.324115052775129 -5.903288125374021 -0.879336114651754 56.000000000000000
7.268096909361471 -5.788795792463405 -1.024555800963616 58.000000000000000
7.234854637785401 -5.692445144919477 -1.171045106816013 57.000000000000000
7.214347980019308 -5.607822500559863 -1.317320775440003 58.000000000000000
7.216882647081781 -5.541109650335449 -1.465388924896460 56.000000000000000
7.245321301939766 -5.494304624706832 -1.619145429719943 52.000000000000000
7.299536911252357 -5.467252268257830 -1.779656572626868 49.000000000000000
7.377293286789589 -5.455819056737969 -1.947814719326277 43.000000000000000
7.496810002727246 -5.473930596636057 -2.130844810449674 32.000000000000000
7.749634371984776 -5.586342404820289 -2.358292949711465 13.000000000000000
9.210140387617232 -6.553565326449116 -2.987801792680662 9.000000000000000
8.427820094595468 -5.919191753727957 -2.902588058221794 32.000000000000000
8.446196663623578 -5.854454103799696 -3.078492011666884 19.000000000000000
6.464063948034624 -4.302013428239816 -2.745952246300603 0.000000000000000
7.396187452094325 -6.068631000612434 -0.742526061420190 51.000000000000000
7.318704984871888 -5.933909613285466 -0.890264031492730 56.000000000000000
7.265938959703229 -5.821682637520590 -1.036130446352211 57.000000000000000
7.232799228423232 -5.725147502373103 -1.182920706299167 29.000000000000000
7.218593305321089 -5.645250323556882 -1.330661293024814 59.000000000000000
7.218023960948736 -5.575983025839366 -1.478561258359344 55.000000000000000
7.249537176820413 -5.531519293294381 -1.633462895143546 51.000000000000000
7.303629985860523 -5.504463896230201 -1.794510029154819 48.000000000000000
7.393756745004735 -5.502429833331616 -1.966571413643344 41.000000000000000
7.519271713323273 -5.525218969295637 -2.152274202454725 29.000000000000000
7.793475468015392 -5.653968403726524 -2.387630921877245 10.000000000000000
9.152948431590911 -6.555016705348808 -2.988510498766147 9.000000000000000
8.375672474177325 -5.920989163875329 -2.902688051889013 32.000000000000000
8.393992665080843 -5.856631884918079 -3.078001641183761 20.000000000000000
7.575977291846957 -5.146976181110747 -3.083196436248889 7.000000000000000
6.457490959923135 -4.326816508530653 -2.758436768174612 16.000000000000000
7.396590151419744 -6.104627982437351 -0.753904057532075 51.000000000000000
7.316249291239793 -5.967069185912712 -0.901575087812547 55.000000000000000
7.260539813989914 -5.852114439024349 -1.047269880226695 58.000000000000000
7.227494159699305 -5.755418638697686 -1.194294965594219 56.000000000000000
7.219550940547127 -5.680306361541644 -1.343450726999180 57.000000000000000
7.225237041597180 -5.615760003327291 -1.493041619567751 55.000000000000000
7.253574775837925 -5.568810004079267 -1.647808274586120 50.000000000000000
7.310670779686096 -5.544122787453759 -1.810165536264528 47.000000000000000
7.397455957931351 -5.539809911884113 -1.982033170927387 40.000000000000000
7.547725028905039 -5.581323188790766 -2.175585978605964 27.000000000000000
7.852604257699453 -5.733344071343284 -2.421935616723375 7.000000000000000
9.095837144050329 -6.556209984767767 -2.989092384745877 8.000000000000000
8.320462645011409 -5.920320597445434 -2.901579121174026 30.000000000000000
8.338727680256662 -5.856373261465555 -3.076239408256875 18.000000000000000
7.606179608509531 -5.271647873360682 -2.959124272886422 0.000000000000000
6.435188152285706 -4.341093503521717 -2.764210671848877 50.000000000000000
7.387626871161493 -6.133038858096063 -0.764347811913110 52.000000000000000
7.313646888247316 -6.000267058126511 -0.912896722084241 56.000000000000000
7.261183774184683 -5.887574209285049 -1.059313045175297 56.000000000000000
7.231344545319311 -5.793151580461943 -1.207222776736722 58.000000000000000
7.217243459304851 -5.712963641123788 -1.355676688712687 57.000000000000000
7.232256678912080 -5.655629892233307 -1.507557578472106 57.000000000000000
7.260548412617602 -5.608582201589139 -1.662894595593337 49.000000000000000
7.320635593200552 -5.586254874115689 -1.826634882231234 46.000000000000000
7.410342652558303 -5.584324776338557 -2.000050640370509 39.000000000000000
7.569620836380239 -5.632992569953081 -2.197175254796825 25.000000000000000
7.961299063477535 -5.849876031665683 -2.471947336820727 5.000000000000000
9.038807765336001 -6.557145601237361 -2.989547749321810 8.000000000000000
8.271596932413830 -5.923878598483018 -2.902541393006649 25.000000000000000
8.289803886581652 -5.860281078919794 -3.076673723044161 18.000000000000000
6.486783149640730 -4.466289231356389 -2.670161207007369 3.000000000000000
6.422201146651654 -4.361640029572379 -2.773979935828312 67.000000000000000
7.384667346485815 -6.166563306940557 -0.775428374023346 52.000000000000000
7.307826989692463 -6.030968698344400 -0.923840488565221 56.000000000000000
7.261665575672046 -5.923089827331186 -1.071374801115563 55.000000000000000
7.228841426572772 -5.825981060710993 -1.219135886479500 56.000000000000000
7.220979061719724 -5.750589983900610 -1.369087370209562 56.000000000000000
7.232879165603572 -5.690711449146221 -1.520804451050129 55.000000000000000
7.264220313309609 -5.646031889859488 -1.677298762412276 49.000000000000000
7.324166434951464 -5.623718943993913 -1.841582817061001 46.000000000000000
7.419886310125372 -5.626604965048347 -2.017272344555236 37.000000000000000
7.594357441913470 -5.687176606612382 -2.219750726918311 22.000000000000000
8.025607526802062 -5.934792342643114 -2.508610706236169 3.000000000000000
8.972502177749874 -6.550990556388052 -2.986761356450886 8.000000000000000
8.222790688963691 -5.927219984366046 -2.903396724945420 17.000000000000000
8.237821367493066 -5.861753286595598 -3.075836719392036 18.000000000000000
6.458015028575789 -4.476218414512097 -2.673482858795257 11.000000000000000
6.415351443624520 -4.386411162363025 -2.786431224610043 76.000000000000000
7.381560302042843 -6.200124202550669 -0.786518518695278 52.000000000000000
7.308000873741876 -6.066775655601644 -0.935570614110564 55.000000000000000
7.258912951638315 -5.956140134488875 -1.082996518400846 57.000000000000000
7.229271268970832 -5.861346339120083 -1.231584350548699 56.000000000000000
7.212186587467449 -5.778395531626576 -1.380161478825089 26.000000000000000
7.239525790129098 -5.730747519758563 -1.535382427552401 54.000000000000000
7.273910997530100 -5.688403056723616 -1.693172603212112 49.000000000000000
7.333723757324342 -5.666052613709109 -1.858130143433641 44.000000000000000
7.438538301756854 -5.676107013962619 -2.037089369502629 36.000000000000000
7.621910326571054 -5.743900828612276 -2.243323927741316 20.000000000000000
8.092525487081749 -6.022449143742468 -2.546439387059494 0.000000000000000
8.924999683236745 -6.558245613861834 -2.990080119743618 9.000000000000000
8.167821845812179 -5.925830177038148 -2.901934356248830 14.000000000000000
8.182804781909921 -5.860763524515429 -3.073716449326708 17.000000000000000
6.441663755881009 -4.494696594236853 -2.681915468825336 4.000000000000000
6.414591839471800 -4.415460082192152 -2.801588798440888 76.000000000000000
7.378305475209546 -6.233721031003999 -0.797617967520325 51.000000000000000
7.304956727517563 -6.100085354943412 -0.946922315451895 56.000000000000000
7.259077065589107 -5.991757072023082 -1.095090565067392 57.000000000000000
7.232610578132584 -5.899272956955561 -1.244579770210596 55.000000000000000
7.221755207143499 -5.821098492202553 -1.394798936109767 56.000000000000000
7.236719322205379 -5.763501082489027 -1.548014445593819 54.000000000000000
7.277207426648977 -5.726017835809010 -1.707638080367756 48.000000000000000
7.346164358854868 -5.710901387953952 -1.875510210517685 42.000000000000000
7.453830088301534 -5.723390335644038 -2.056117720508037 35.000000000000000
7.658458485944917 -5.807895288184995 -2.269744906489888 24.000000000000000
9.403399958914731 -7.042585262601597 -2.978667828353673 23.000000000000000
8.868223447964718 -6.558410905460513 -2.990157733649740 9.000000000000000
8.116049785775877 -5.926455282403960 -2.901458884849749 13.000000000000000
8.137187949433889 -5.866231399680750 -3.074990315592474 17.000000000000000
6.404412637660926 -4.438124781226334 -2.812686117012304 64.000000000000000
7.377940044868188 -6.269934559415600 -0.809059524989541 52.000000000000000
7.304812283657594 -6.135991164860695 -0.958683433296202 56.000000000000000
7.256021520631455 -6.024890285217544 -1.106736076589375 57.000000000000000
7.229641564499016 -5.932242145821322 -1.256535702719764 56.000000000000000
7.224969723015060 -5.858926671901640 -1.408280779814606 55.000000000000000
7.246077013405774 -5.806158460746738 -1.563313098675865 53.000000000000000
7.286490346188899 -5.768587802971868 -1.723588464309328 48.000000000000000
7.352200418447133 -5.751044638548041 -1.891351520054798 41.000000000000000
7.465784413225498 -5.768427571811089 -2.074344822831734 31.000000000000000
7.688459915715480 -5.867432429208813 -2.294432568872982 24.000000000000000
7.803808626696692 -5.881779678813230 -2.488432182679287 13.000000000000000
8.817726281219192 -6.562929123521165 -2.992211314251385 9.000000000000000
8.042686154930772 -5.910920877691245 -2.893074107408693 14.000000000000000
8.085429116977021 -5.867010522694221 -3.073813189010591 17.000000000000000
6.415729853472996 -4.475843481968440 -2.833308238116006 29.000000000000000
7.368321697402325 -6.298430609530491 -0.819506693395168 51.000000000000000
7.298424836930851 -6.166812980920551 -0.969653834118485 55.000000000000000
7.255866641229643 -6.060606315057660 -1.118861197188481 57.000000000000000
7.229581302328755 -5.967771515423401 -1.269037955586664 57.000000000000000
7.228004504281701 -5.896826682255458 -1.421788298419812 55.000000000000000
7.246011944032411 -5.841497098874310 -1.576649152723153 53.000000000000000
7.289409249412615 -5.806364912805074 -1.738113717201480 47.000000000000000
7.364198456987690 -5.796125577643076 -1.908823033780724 40.000000000000000
7.486758239278192 -5.820780913724533 -2.095209922900394 30.000000000000000
7.727390837366499 -5.934307789147671 -2.321998688682993 23.000000000000000
7.786875382631120 -5.906323267898989 -2.499532202322747 39.000000000000000
8.761109059516654 -6.562600768194685 -2.992046658149856 8.000000000000000
7.997303427446481 -5.915586134623378 -2.894577442944717 21.000000000000000
8.033749704774559 -5.867556469595063 -3.072521888798815 17.000000000000000
6.448376092064921 -4.528801512493892 -2.863539529274667 1.000000000000000
7.361607694455964 -6.329525301614170 -0.830287666506488 53.000000000000000
7.297968548109369 -6.202806861021282 -0.981440836563136 56.000000000000000
7.255547881490157 -6.096375346125151 -1.131003350375725 57.000000000000000
7.232406035951288 -6.005886413381644 -1.282098015244216 55.000000000000000
7.230859105712764 -5.934797876438356 -1.435321134503915 55.000000000000000
7.248844281073159 -5.879373653116074 -1.590674710868784 51.000000000000000
7.295214327172052 -5.846672090524524 -1.753401661486962 47.000000000000000
7.372894259504737 -5.838897250463352 -1.925541258112525 42.000000000000000
7.504377096080901 -5.870903843633881 -2.115280704450663 26.000000000000000
7.775178360318238 -6.008599050297925 -2.352478462812752 34.000000000000000
7.788327490538615 -5.944934341236912 -2.516578347380134 39.000000000000000
7.799008946086765 -5.879344694591615 -2.680512902605772 24.000000000000000
7.951969669410643 -5.920054366423175 -2.895983196665180 31.000000000000000
7.982150830608123 -5.867869660056146 -3.071116697557196 16.000000000000000
6.470874847739706 -4.636411418811330 -2.755946998838251 2.000000000000000
7.360788922948577 -6.365850534483157 -0.841758519064713 53.000000000000000
7.300372289999586 -6.241438014993666 -0.993655842028877 56.000000000000000
7.252031838798644 -6.129633168765706 -1.142684306979853 56.000000000000000
7.228968188892996 -6.038990278700376 -1.294094021984274 55.000000000000000
7.233533084939699 -5.972839605725013 -1.448878929850752 56.000000000000000
7.248440835848141 -5.914828412102653 -1.604049346059003 41.000000000000000
7.303881327194254 -5.889534742134651 -1.769463783029210 46.000000000000000
7.384439146855318 -5.884215844732383 -1.943106373565558 41.000000000000000
7.500258379478487 -5.904280090236164 -2.129319341269312 29.000000000000000
7.758067372397673 -6.033084714789045 -2.363460063025698 36.000000000000000
7.795734598388291 -5.988332482287785 -2.535645904512048 40.000000000000000
7.791009606656617 -5.910888571339395 -2.694865786304326 40.000000000000000
7.897470560969989 -5.917421058974306 -2.893914779225501 31.000000000000000
7.887649145878749 -5.836145907936976 -3.052960512811903 14.000000000000000
