# This PCD file was generated using the MATLAB® pcwrite function
# from Computer Vision Toolbox®.
# .PCD v.7 - Point Cloud Data file format
VERSION .7
FIELDS x y z intensity
SIZE 8 8 8 8
TYPE F F F F
COUNT 1 1 1 1
WIDTH 630
HEIGHT 1
VIEWPOINT 0 0 0 1 0 0 0
POINTS 630
DATA ascii
-0.666055495154290 -5.491910952363491 -1.956708503759491 11.000000000000000
-0.677199143246070 -5.493142592781687 -2.066700214291968 11.000000000000000
-0.688650960423253 -5.496077480226480 -2.178347122488855 6.000000000000000
-0.700562859839509 -5.500388533002329 -2.292365081183617 7.000000000000000
-0.712433499536315 -5.502579775269020 -2.406731876536891 9.000000000000000
-0.723935020004183 -5.498720119200136 -2.520408525917017 5.000000000000000
-0.733745393684176 -5.481960537396686 -2.629277916781083 7.000000000000000
-0.746352216907439 -5.480723820361217 -2.747289714107798 6.000000000000000
-0.760531697722843 -5.494568722171914 -2.875553876053952 3.000000000000000
-0.774492159781259 -5.498591510847380 -3.001165988624170 7.000000000000000
-0.599336515204407 -5.507219615065214 -1.120906710205448 12.000000000000000
-0.609472689338450 -5.501078140674236 -1.221845461237490 22.000000000000000
-0.620367618426382 -5.500994560248428 -1.324034314557287 6.000000000000000
-0.632575016131971 -5.514249164599266 -1.431338184945099 6.000000000000000
-0.643611755324709 -5.514004899903086 -1.535940712479684 17.000000000000000
-0.653526466894571 -5.508211937297032 -1.639256054094895 10.000000000000000
-0.662953772002477 -5.496622637541618 -1.741851852670805 8.000000000000000
-0.673886284111387 -5.494493157787731 -1.848057957724908 15.000000000000000
-0.684653304314539 -5.494101477674296 -1.956139771567539 7.000000000000000
-0.696903497745103 -5.502732164792803 -2.068976615959049 6.000000000000000
-0.708535704247026 -5.505577333455443 -2.180800628473137 12.000000000000000
-0.719676074090726 -5.502462587531222 -2.291939750778925 7.000000000000000
-0.730269211992435 -5.493697684252848 -2.401581277419284 5.000000000000000
-0.741425954487146 -5.486273356062940 -2.513462197162851 8.000000000000000
-0.754283228367154 -5.491071719553591 -2.632429330888635 5.000000000000000
-0.768554797640565 -5.500372747619976 -2.755943243294959 4.000000000000000
-0.780979500697356 -5.499941046797642 -2.877195770405792 7.000000000000000
-0.793125118464156 -5.489945919003328 -2.995306721002029 5.000000000000000
-0.615882597343063 -5.501816290734045 -1.118306813581786 11.000000000000000
-0.627908295734167 -5.511203425001653 -1.222607042511309 5.000000000000000
-0.640310640361460 -5.522651454776317 -1.327772266955799 12.000000000000000
-0.649565971335599 -5.508854876336430 -1.428483811720372 17.000000000000000
-0.660286455735969 -5.504788234664051 -1.531937429491123 7.000000000000000
-0.670322228074288 -5.499024836444002 -1.635105488560765 12.000000000000000
-0.681261072285041 -5.498830020115745 -1.741153571992696 13.000000000000000
-0.692818311612554 -5.500430545948559 -1.848675903529434 6.000000000000000
-0.704226164789288 -5.503721808364824 -1.958205240764000 8.000000000000000
-0.716191672462332 -5.508546777695307 -2.069822670239712 14.000000000000000
-0.726537157139451 -5.500252939051087 -2.177374879471975 7.000000000000000
-0.737331153677740 -5.493487757147437 -2.286908619050505 8.000000000000000
-0.749039918336057 -5.492041344574986 -2.399587687545111 7.000000000000000
-0.761836122672595 -5.495429646435229 -2.516410682554012 3.000000000000000
-0.775392407646810 -5.503701199117621 -2.637260647906259 6.000000000000000
-0.788866038221434 -5.505764315361090 -2.757446949160989 7.000000000000000
-0.799934065541090 -5.494707834217877 -2.873289979687327 4.000000000000000
-0.811700591153209 -5.481249507096203 -2.989425026870413 6.000000000000000
-0.634638735632304 -5.515844268905932 -1.119639083103396 7.000000000000000
-0.645955135698058 -5.517393948034953 -1.222476987453166 24.000000000000000
-0.657170700337608 -5.517201407382805 -1.324975207689171 12.000000000000000
-0.666059755886939 -5.499567915423933 -1.424611225993774 7.000000000000000
-0.677376571198718 -5.499353543450735 -1.528978608394149 20.000000000000000
-0.688014742798724 -5.497406519841633 -1.633197253639105 8.000000000000000
-0.700067218925438 -5.504770950625656 -1.741625295559846 5.000000000000000
-0.712278886826000 -5.510076579176888 -1.850527189475538 13.000000000000000
-0.722392533685529 -5.502063312510640 -1.956247513071864 11.000000000000000
-0.733539414263103 -5.499442003433530 -2.065056313661579 8.000000000000000
-0.744006359484699 -5.491188504712052 -2.172465728789418 14.000000000000000
-0.755937659419980 -5.491792319271245 -2.284905113361164 6.000000000000000
-0.769328497498936 -5.501240172730212 -2.402330998192235 4.000000000000000
-0.782313283912106 -5.504525973157998 -2.519324460374973 8.000000000000000
-0.794010436734472 -5.498381200980120 -2.633487344770267 6.000000000000000
-0.806094874583943 -5.489818729579721 -2.748265884066750 5.000000000000000
-0.818331667798580 -5.485907800500468 -2.867522429883699 6.000000000000000
-0.832330929239336 -5.486427444870638 -2.991112688683231 3.000000000000000
-0.652563509003117 -5.522027002574241 -1.119358141775225 26.000000000000000
-0.662644157842888 -5.511895068228506 -1.219742381371973 6.000000000000000
-0.673054707159306 -5.503980060627957 -1.320303318703914 13.000000000000000
-0.683453540979382 -5.497925955336177 -1.422709192689610 18.000000000000000
-0.695402170502606 -5.501523407093108 -1.528123039047214 7.000000000000000
-0.707166062673028 -5.507156192233106 -1.634653123495042 7.000000000000000
-0.719408871508731 -5.514441868056926 -1.743262963357906 17.000000000000000
-0.729810523446584 -5.504614819581309 -1.847294315455028 9.000000000000000
-0.738034217054481 -5.481657766470221 -1.947621530419472 11.000000000000000
-0.751846103820014 -5.497719667314546 -2.063057414565457 11.000000000000000
-0.763980340850508 -5.500522545989207 -2.174829133485746 6.000000000000000
-0.777119989469118 -5.508356918448630 -2.290490030745958 6.000000000000000
-0.789162952855856 -5.506744425126166 -2.403453280216137 8.000000000000000
-0.800756859569554 -5.499138069811102 -2.515605084469050 5.000000000000000
-0.812066658702551 -5.489433556050463 -2.627977734976237 7.000000000000000
-0.825348912687068 -5.488009095087992 -2.746164478788144 5.000000000000000
-0.839891525041091 -5.498136878425599 -2.872746611217317 3.000000000000000
-0.854084020041698 -5.498505801140089 -2.996560435155313 7.000000000000000
-0.668168056348319 -5.508691903447089 -1.115107600804603 8.000000000000000
-0.678823393396656 -5.502472579407725 -1.216129233857791 25.000000000000000
-0.690311990483340 -5.502300921945190 -1.318390655365866 13.000000000000000
-0.702800331339793 -5.511609165029458 -1.424756858636573 5.000000000000000
-0.713940517115870 -5.507466195449769 -1.528301359025231 12.000000000000000
-0.725381422488004 -5.509239546350764 -1.633819271778282 15.000000000000000
-0.735780386486174 -5.501353807526931 -1.737696609673621 8.000000000000000
-0.746798736350938 -5.495343388391110 -1.842777439369917 15.000000000000000
-0.758702545399890 -5.498593090593261 -1.952255227085788 7.000000000000000
-0.771706144788537 -5.507086280842082 -2.065210478730080 5.000000000000000
-0.784020828284558 -5.509797541738182 -2.177158329077577 11.000000000000000
-0.796302054583677 -5.510212124687436 -2.289948772093685 7.000000000000000
-0.807439175051002 -5.501290183860997 -2.399788384743037 5.000000000000000
-0.818092537829475 -5.486489650262667 -2.508565310512837 8.000000000000000
-0.831148001519908 -5.487586921612203 -2.625868004550146 5.000000000000000
-0.847322821997173 -5.503865423139721 -2.752899097186414 5.000000000000000
-0.859346206831170 -5.496253804878872 -2.870595445053065 7.000000000000000
-0.873163296853246 -5.493125119261632 -2.992493655994152 5.000000000000000
-0.684177414272940 -5.499208009923420 -1.111627873612790 29.000000000000000
-0.696418268840599 -5.504636238593767 -1.215064391538700 6.000000000000000
-0.709547907572017 -5.516013454257958 -1.320148983753490 6.000000000000000
-0.721232286425649 -5.517549135235339 -1.424784730856205 18.000000000000000
-0.732012034910310 -5.509531342779088 -1.527389525851654 13.000000000000000
-0.742073987993350 -5.499860134132904 -1.629576847319339 9.000000000000000
-0.753107119213788 -5.495787540971919 -1.734500784516210 15.000000000000000
-0.765300292537995 -5.497306607049049 -1.842020502148692 6.000000000000000
-0.779486366324151 -5.515465224064527 -1.956849602511551 6.000000000000000
-0.791099677410752 -5.512681787330685 -2.065938240130418 13.000000000000000
-0.801441794696933 -5.500579618285808 -2.172173775877914 7.000000000000000
-0.812793327129222 -5.493712226407253 -2.281777592316497 8.000000000000000
-0.825136705660376 -5.492153140074993 -2.394516089512935 6.000000000000000
-0.839195010436774 -5.499020230341617 -2.513034866600870 4.000000000000000
-0.853544421491561 -5.507129046655242 -2.633987012881187 7.000000000000000
-0.866064479347057 -5.498398539561344 -2.748965226728595 6.000000000000000
-0.878230934562448 -5.490805272477944 -2.866584009811326 4.000000000000000
-0.890513010495699 -5.477258827337806 -2.982720623271305 6.000000000000000
-0.703108417500718 -5.513025095140082 -1.112841791808401 4.000000000000000
-0.716542051670818 -5.526125624116079 -1.218244259036361 11.000000000000000
-0.726838410465998 -5.514232277598310 -1.318182200518659 23.000000000000000
-0.737133088490050 -5.504229816957747 -1.419828486813253 10.000000000000000
-0.748539583040223 -5.500078120601847 -1.523274486065733 17.000000000000000
-0.759760596817228 -5.498040400653906 -1.627566154815639 11.000000000000000
-0.772523706923105 -5.505298050868165 -1.736051984633226 5.000000000000000
-0.786497268112412 -5.518011046449875 -1.847528115755989 10.000000000000000
-0.797142804453115 -5.509860671778098 -1.953458145674393 11.000000000000000
-0.807264010119653 -5.495954818278530 -2.058295764317300 7.000000000000000
-0.819904130411042 -5.498685644713182 -2.170077739980780 13.000000000000000
-0.831946661940360 -5.495463838231770 -2.281185208257593 6.000000000000000
-0.846125071600979 -5.504754965654434 -2.398716559185574 4.000000000000000
-0.859263729274459 -5.504282905394587 -2.514175717990745 9.000000000000000
-0.871550950812373 -5.498022537230946 -2.628399345654812 5.000000000000000
-0.884202284367734 -5.489338412643570 -2.743237159232618 6.000000000000000
-0.898230102499840 -5.492323535525381 -2.866210889672480 5.000000000000000
-0.912955088615438 -5.492634724627628 -2.989962673343258 3.000000000000000
-0.721111246946040 -5.519005635206472 -1.112452861062945 21.000000000000000
-0.732686351961797 -5.516559677591418 -1.214560016310997 15.000000000000000
-0.743600317869105 -5.508544940297242 -1.315270013339695 9.000000000000000
-0.754532725929952 -5.502388446556921 -1.417824301067528 24.000000000000000
-0.766075129857277 -5.498222367171195 -1.521254645531952 10.000000000000000
-0.779052110686375 -5.507573761212693 -1.628903027695811 4.000000000000000
-0.792005768771802 -5.514750646332755 -1.737569616160647 15.000000000000000
-0.803449163454886 -5.508588802344280 -1.842936474334060 9.000000000000000
-0.814213578035245 -5.500473338417783 -1.948720940180554 10.000000000000000
-0.825550950474033 -5.494025361903214 -2.056192342884215 11.000000000000000
-0.838919996077016 -5.500423881305930 -2.169408759579795 6.000000000000000
-0.852248893612254 -5.504475439359980 -2.283598467511189 6.000000000000000
-0.866633600705590 -5.513663784003024 -2.401298373609892 8.000000000000000
-0.877649235148332 -5.498684148276576 -2.510352257659362 4.000000000000000
-0.890077874313929 -5.492438580306539 -2.624496869728957 6.000000000000000
-0.904030292123534 -5.490849892496186 -2.742792862940556 5.000000000000000
-0.919418023215722 -5.500800869969188 -2.869467596529420 4.000000000000000
-0.933151474954783 -5.494042367097309 -2.989599102443253 7.000000000000000
-0.738633940986101 -5.521045119479557 -1.111251857093749 9.000000000000000
-0.748774516787179 -5.506950655405281 -1.210857217817801 12.000000000000000
-0.760330010538057 -5.502811613896887 -1.312336320093565 20.000000000000000
-0.771924274330432 -5.500498128971276 -1.415795623627554 6.000000000000000
-0.785780710759460 -5.511595442070561 -1.523433082726435 7.000000000000000
-0.798958600042807 -5.520849047301940 -1.631329198023164 15.000000000000000
-0.809332686208713 -5.509031095594555 -1.734295531565038 7.000000000000000
-0.820903868084843 -5.502877352471132 -1.839580844383755 15.000000000000000
-0.831791724936040 -5.494773078143867 -1.945285415056953 7.000000000000000
-0.846108489874598 -5.506877803621538 -2.059610953394488 5.000000000000000
-0.859100563268221 -5.509473133105753 -2.171614150298826 11.000000000000000
-0.872616784814723 -5.513426665937533 -2.285976891000554 6.000000000000000
-0.882544402845501 -5.493484020482695 -2.391209880731374 5.000000000000000
-0.894826838213962 -5.485835480037102 -2.503219929526388 7.000000000000000
-0.908571130604700 -5.486803563313861 -2.620570387957173 4.000000000000000
-0.925064761361051 -5.499382258697636 -2.745852501502896 6.000000000000000
-0.938276306612585 -5.495188208310683 -2.865373994384095 6.000000000000000
-0.950953051837751 -5.481497372137569 -2.981647003327087 5.000000000000000
-0.962763782872817 -5.465540687418667 -3.098336149057992 7.000000000000000
-0.753511804401539 -5.503600479233758 -1.106118314469786 23.000000000000000
-0.764806411045224 -5.497298779170293 -1.207135984948227 11.000000000000000
-0.778662035074958 -5.508597003296722 -1.312135850589910 4.000000000000000
-0.792612408779640 -5.521581460175795 -1.419661842866631 12.000000000000000
-0.803905199093249 -5.513453797071169 -1.522412446885647 13.000000000000000
-0.814457737652964 -5.503677550920103 -1.624748598730066 8.000000000000000
-0.826626617946877 -5.503263966462735 -1.730999176757333 16.000000000000000
-0.838325460487846 -5.497117956745883 -1.836202764380830 6.000000000000000
-0.853378358450226 -5.515144958553544 -1.951067775211877 6.000000000000000
-0.865591844495890 -5.512253918074749 -2.060221226327840 12.000000000000000
-0.877000041874971 -5.503736498109394 -2.167984198726977 6.000000000000000
-0.888321839314414 -5.493079277453854 -2.276204815345949 9.000000000000000
-0.901298968334990 -5.491400461561349 -2.388999192222987 6.000000000000000
-0.917317077576107 -5.505326064728671 -2.510839361688907 4.000000000000000
-0.931858832934462 -5.509665098935711 -2.630248203697090 7.000000000000000
-0.943733805981270 -5.493702290927214 -2.741814297524395 5.000000000000000
-0.955878223276111 -5.482512677930074 -2.857601714480611 5.000000000000000
-0.968055927757500 -5.465433158224869 -2.971788033105609 6.000000000000000
-0.930512984514551 -5.174540940322946 -2.932349167914957 6.000000000000000
-0.935861181220386 -5.128437910694711 -3.026561158416274 20.000000000000000
-0.771550321997113 -5.509431071171597 -1.105650655783799 7.000000000000000
-0.785186876126813 -5.518563956459934 -1.210185699807881 5.000000000000000
-0.797590977763597 -5.518181829012265 -1.312822125860521 21.000000000000000
-0.808934147909183 -5.511913562602439 -1.415605320259053 10.000000000000000
-0.820338833961678 -5.503809572149122 -1.518205648459420 14.000000000000000
-0.832147768109534 -5.501654741345685 -1.622634031153938 14.000000000000000
-0.844466998388816 -5.501225102724140 -1.728867218091072 5.000000000000000
-0.860393008583504 -5.521338411853171 -1.842824466023647 9.000000000000000
-0.871565726331103 -5.513068469945805 -1.948895387232049 11.000000000000000
-0.882737908860346 -5.502750638680853 -2.055263776929454 6.000000000000000
-0.894865876088140 -5.497950668581854 -2.164331192228522 14.000000000000000
-0.908117993384529 -5.498266820832617 -2.277012006341303 6.000000000000000
-0.923690614071263 -5.511018154787515 -2.396220888624224 5.000000000000000
-0.936887151449692 -5.506762346719316 -2.510216509029220 8.000000000000000
-0.949151552021854 -5.496782990224388 -2.622858000287917 4.000000000000000
-0.960508481990346 -5.477362723053645 -2.732459891037187 7.000000000000000
-0.957807054527430 -5.382190190094041 -2.804170180989907 3.000000000000000
-0.931719465906674 -5.154298047111003 -2.801555010774958 15.000000000000000
-0.942210874554884 -5.134610963892317 -2.908708462075107 19.000000000000000
-0.955135307695760 -5.129715785533429 -3.026343751731137 21.000000000000000
-0.791296531468196 -5.526860201288595 -1.107488200704008 8.000000000000000
-0.802889912901489 -5.520421407148592 -1.208957929481669 22.000000000000000
-0.814307605914019 -5.512301344956166 -1.309814110988664 8.000000000000000
-0.825198772047279 -5.502202256660203 -1.411530131954335 21.000000000000000
-0.837296169752110 -5.497936973229920 -1.515031406443404 14.000000000000000
-0.851588524150584 -5.510968453732568 -1.623849650521716 4.000000000000000
-0.865849542832061 -5.521781761033129 -1.733820853692620 13.000000000000000
-0.877248889079449 -5.511719974437211 -1.838138544832446 9.000000000000000
-0.888540120574038 -5.503483510957327 -1.944063193096123 9.000000000000000
-0.899825618424569 -5.493201535168903 -2.050286504478056 11.000000000000000
-0.914531856100654 -5.503151501200347 -2.164996775751287 6.000000000000000
-0.929185944187329 -5.510700056211861 -2.280810025318042 7.000000000000000
-0.942501112690432 -5.508820407864956 -2.393948488683054 6.000000000000000
-0.952726661701673 -5.486570031390850 -2.499735425745411 5.000000000000000
-0.963847190521132 -5.469593405539006 -2.608647651832026 7.000000000000000
-0.931003806544883 -5.202953650153867 -2.594426569889671 9.000000000000000
-0.938681608065017 -5.169811581445250 -2.692422896024143 18.000000000000000
-0.949471708124993 -5.148678262879950 -2.797447340133090 19.000000000000000
-0.961343761070992 -5.135884874720857 -2.908419626990475 20.000000000000000
-0.972487736149337 -5.120737648580005 -3.020081048159879 21.000000000000000
-0.807745542897518 -5.520932141291464 -1.104626375379492 14.000000000000000
-0.818884347367631 -5.510626416666974 -1.205165931134961 8.000000000000000
-0.830991366927173 -5.506375118843295 -1.306784756061994 24.000000000000000
-0.843754802193591 -5.507779093791814 -1.411365044120441 10.000000000000000
-0.857779582010463 -5.514901350101891 -1.518134805387949 5.000000000000000
-0.869896148844250 -5.512635685662072 -1.622797734590180 16.000000000000000
-0.881933299279521 -5.508315253484229 -1.728078911350670 7.000000000000000
-0.894046600871780 -5.502056630507639 -1.833433257622584 13.000000000000000
-0.906070458305984 -5.497580467183909 -1.940527075673808 7.000000000000000
-0.921188377073125 -5.509525302583974 -2.054956669648377 5.000000000000000
-0.934861553302494 -5.511971620643693 -2.167076078354287 11.000000000000000
-0.947202776106770 -5.504817054880901 -2.277020002816837 6.000000000000000
-0.957507523368601 -5.484833268349325 -2.382208924737919 6.000000000000000
-0.955698676442752 -5.394460950240648 -2.456511163454040 7.000000000000000
-0.934151038231948 -5.196448388393738 -2.477198010763430 16.000000000000000
-0.946012018859063 -5.183104492609091 -2.583391778044839 20.000000000000000
-0.955664592632287 -5.160621112159516 -2.686542559335779 19.000000000000000
-0.968494293158436 -5.149945642407666 -2.797083960907473 20.000000000000000
-0.980492070355066 -5.137103791452040 -2.908101775354489 21.000000000000000
-0.991755645815039 -5.121909198798209 -3.019809745374743 21.000000000000000
-0.823001902128526 -5.507197050717213 -1.100192943835060 11.000000000000000
-0.835408576372019 -5.504654718655780 -1.202200041134883 22.000000000000000
-0.848828451997966 -5.508101528141908 -1.305558813213527 5.000000000000000
-0.864148110776680 -5.524795080631569 -1.414111508923642 8.000000000000000
-0.875954031953138 -5.516551851961609 -1.517005009393174 14.000000000000000
-0.886997271505956 -5.506665143275737 -1.619487215192821 7.000000000000000
-0.898550774383651 -5.498578713704151 -1.723503012777797 16.000000000000000
-0.912029397650892 -5.499846695366629 -1.831205260282236 6.000000000000000
-0.927326317675387 -5.513983363591264 -1.944853044984472 6.000000000000000
-0.940139297090138 -5.510978042738167 -2.054067943015681 12.000000000000000
-0.950803831354572 -5.495001611110304 -2.159011201494015 6.000000000000000
-0.961342519147730 -5.476991241001135 -2.264156246126920 9.000000000000000
-0.934312818343632 -5.247158968576916 -2.277717786724601 9.000000000000000
-0.940517209386008 -5.205379886429079 -2.369190498209956 19.000000000000000
-0.953504313600957 -5.201361475826896 -2.478360006481749 20.000000000000000
-0.964830510769876 -5.184408888212667 -2.582903514517921 20.000000000000000
-0.975892302286078 -5.168883180745672 -2.689748106820282 19.000000000000000
-0.987532179698149 -5.151158287333724 -2.796691705013927 20.000000000000000
-1.000323373549369 -5.141700008003617 -2.909697265357071 21.000000000000000
-1.011709147611683 -5.126422580612148 -3.021511563047332 21.000000000000000
-0.839953450253018 -5.505061760481849 -1.098066124916226 14.000000000000000
-0.855491795956336 -5.521822584357505 -1.204269543719683 5.000000000000000
-0.868496247749007 -5.521319194682978 -1.307038108882526 15.000000000000000
-0.880985053348060 -5.518767956354624 -1.410943506909726 13.000000000000000
-0.892291028477807 -5.506717215562692 -1.512706920828845 8.000000000000000
-0.904064723362241 -5.500647816650644 -1.616154872884547 16.000000000000000
-0.918252546778759 -5.507646977436157 -1.724811013494721 5.000000000000000
-0.931904599670203 -5.508828654751780 -1.832692191749397 8.000000000000000
-0.945501211168467 -5.511699213707130 -1.942575413542332 11.000000000000000
-0.956530440759592 -5.497577805946752 -2.047638587119796 6.000000000000000
-0.956913085020529 -5.422881368983401 -2.129293546143699 8.000000000000000
-0.938742282370825 -5.244883331775992 -2.166902342826640 18.000000000000000
-0.948274115290029 -5.223194497337746 -2.266053716320864 18.000000000000000
-0.959096610590471 -5.206722600049102 -2.368580473129799 20.000000000000000
-0.971566707371407 -5.199095513040451 -2.476098539923264 20.000000000000000
-0.983664231218340 -5.185659062893319 -2.582386641007506 21.000000000000000
-0.994838487686103 -5.170088523577726 -2.689279651094011 19.000000000000000
-1.006585167071493 -5.152316115419193 -2.796270542744983 19.000000000000000
-1.018834150951753 -5.139376312837140 -2.907378903394422 20.000000000000000
-1.030336688359800 -5.124086017245578 -3.019179490604709 21.000000000000000
-0.859915280897771 -5.522268744064403 -1.099777081052276 6.000000000000000
-0.872632509695859 -5.519614035417493 -1.202093758008969 22.000000000000000
-0.885782089406899 -5.519091669192592 -1.304843759664307 9.000000000000000
-0.897164997377565 -5.508866574490608 -1.406776468363266 13.000000000000000
-0.909829342003869 -5.504457998900642 -1.510480952136621 15.000000000000000
-0.923004069987279 -5.505951935134149 -1.616137610099908 4.000000000000000
-0.938018062610200 -5.516655663861269 -1.726084702615834 11.000000000000000
-0.949905072956161 -5.506512789801435 -1.830409038473467 9.000000000000000
-0.959108503139558 -5.483306103807180 -1.931095298310348 7.000000000000000
-0.938070356349720 -5.288141425737133 -1.968243955392915 10.000000000000000
-0.944707228160694 -5.251613051806091 -2.060700998971190 20.000000000000000
-0.955151755488723 -5.235314317549147 -2.161644078115479 19.000000000000000
-0.966764184157985 -5.224525297831001 -2.265364964978763 18.000000000000000
-0.978364965709816 -5.211600963676392 -2.369574094490176 19.000000000000000
-0.990975098683184 -5.203897584432748 -2.477200493404775 20.000000000000000
-1.001830999603317 -5.183326461909321 -2.580084773317424 20.000000000000000
-1.013114181386468 -5.167742815366640 -2.686964430300503 19.000000000000000
-1.024963771246078 -5.149955725745790 -2.793941533119685 21.000000000000000
-1.038027518142955 -5.140429754032898 -2.906973824345735 20.000000000000000
-1.050344546939694 -5.128485222563734 -3.020819699131255 21.000000000000000
-0.878139774544282 -5.527783037153102 -1.099136584108517 26.000000000000000
-0.889763865049178 -5.517357235201548 -1.199893913486472 6.000000000000000
-0.901170565304634 -5.505282071705570 -1.299901889830823 24.000000000000000
-0.913287080773357 -5.498922503429690 -1.402591176846280 12.000000000000000
-0.927999852343848 -5.505957127617553 -1.509274124500668 4.000000000000000
-0.943277279633602 -5.518775440673831 -1.618310727005914 15.000000000000000
-0.954582440359980 -5.506771478382401 -1.721436681795325 7.000000000000000
-0.957360811126890 -5.444237178759192 -1.808202925209063 6.000000000000000
-0.941354685172151 -5.280000689872894 -1.858068909283563 19.000000000000000
-0.951637889217061 -5.263653775070972 -1.957741112605956 21.000000000000000
-0.962314273449374 -5.249300932148829 -2.058443820670612 21.000000000000000
-0.973534684878385 -5.236634271076748 -2.160878462182278 19.000000000000000
-0.985269240530228 -5.225802694272834 -2.264648035389999 18.000000000000000
-0.996986820079793 -5.212834760800048 -2.368905873432268 21.000000000000000
-1.008352559805772 -5.197968903849914 -2.473192347906341 19.000000000000000
-1.020682219764589 -5.184469572015564 -2.579512175412472 20.000000000000000
-1.032775571678065 -5.172335303949958 -2.688256334886602 19.000000000000000
-1.045437275419909 -5.157928692079503 -2.797218709823315 20.000000000000000
-1.057235499863550 -5.141427874217958 -2.906539611297751 23.000000000000000
-1.068976673332551 -5.126040584031652 -3.018432176268220 24.000000000000000
-0.892636126842472 -5.509994148157825 -1.093850644431037 7.000000000000000
-0.904981804148208 -5.503474069791667 -1.195155679102684 28.000000000000000
-0.918401261427921 -5.502962109266240 -1.297663726466779 8.000000000000000
-0.935179855265881 -5.523361352369116 -1.407158132357590 5.000000000000000
-0.948800440618963 -5.522627981333060 -1.512208287134545 15.000000000000000
-0.958361376707504 -5.501247032682784 -1.611573317300260 7.000000000000000
-0.941157294811696 -5.327420284987339 -1.663855779065048 10.000000000000000
-0.947648534952501 -5.288396717912105 -1.754971910937283 22.000000000000000
-0.958752004681432 -5.277663603099215 -1.855811813207672 21.000000000000000
-0.970492808941919 -5.268694327345266 -1.958218525290738 21.000000000000000
-0.981967311094484 -5.257946809758518 -2.060475562993188 20.000000000000000
-0.991932442270977 -5.237901073600663 -2.160084806933132 19.000000000000000
-1.003094904767199 -5.223411787643077 -2.262337266797643 18.000000000000000
-1.014924919157021 -5.210428773598740 -2.366580529736616 20.000000000000000
-1.027802895883119 -5.202661150145013 -2.474235672684808 19.000000000000000
-1.039548077198700 -5.185558251706116 -2.578910896745967 21.000000000000000
-1.051766069000369 -5.173376579487533 -2.687701416249468 20.000000000000000
-1.063118739889193 -5.151999844630343 -2.792957598286329 25.000000000000000
-1.075740732590289 -5.138944630017702 -2.904140142255247 24.000000000000000
-1.089038046783077 -5.130325151423523 -3.020010591592372 24.000000000000000
-0.910225752421346 -5.511536393373476 -1.092391717356319 24.000000000000000
-0.923351219877292 -5.508841238552911 -1.194585590558472 6.000000000000000
-0.938889035755756 -5.519799617393768 -1.299924444864873 8.000000000000000
-0.951954189531719 -5.517141026851157 -1.403895334727187 15.000000000000000
-0.958390082703603 -5.474557708816921 -1.497411881283372 5.000000000000000
-0.945125489177750 -5.324734783997740 -1.558307187235903 17.000000000000000
-0.955023446700392 -5.306234328913867 -1.655719620862337 21.000000000000000
-0.966287991871911 -5.293506588491562 -1.755185321941978 23.000000000000000
-0.976827396057397 -5.278995137053641 -1.854836537616115 20.000000000000000
-0.988001259393129 -5.266292785319406 -1.955921729193262 21.000000000000000
-0.999591546930151 -5.255530519717484 -2.058164156626935 20.000000000000000
-1.010344832142294 -5.239114644468542 -2.159263083155598 19.000000000000000
-1.022323530140158 -5.228196950866247 -2.263129524060576 19.000000000000000
-1.033563732604275 -5.211556571932301 -2.365857161409866 20.000000000000000
-1.045862671842415 -5.200186889825796 -2.471868035015333 20.000000000000000
-1.058428371875085 -5.186592420672874 -2.578280908556815 24.000000000000000
-1.070770935046257 -5.174363004878216 -2.687117619012583 26.000000000000000
-1.082944097730690 -5.156397634604066 -2.794296246828503 26.000000000000000
-1.094965004025213 -5.139833558126504 -2.903649192777376 23.000000000000000
-1.108406073472876 -5.131161398730858 -3.019562000764819 25.000000000000000
-0.927829432025887 -5.513027566639327 -1.090905859614559 4.000000000000000
-0.943075807942894 -5.521865706427863 -1.195655109406042 13.000000000000000
-0.955494751738424 -5.513534704776212 -1.296726971505028 14.000000000000000
-0.947197657472667 -5.388580963748912 -1.369529771418326 8.000000000000000
-0.950725920191868 -5.331410779369172 -1.456654841169154 21.000000000000000
-0.960852401276945 -5.314770848267003 -1.553825438513469 21.000000000000000
-0.972894849518514 -5.307586350263688 -1.654611358076251 23.000000000000000
-0.982881052723411 -5.287343126076629 -1.751651650108415 23.000000000000000
-0.994217120743689 -5.276558394851681 -1.852529034196328 22.000000000000000
-1.006204756799083 -5.267533278613810 -1.954970369619689 21.000000000000000
-1.017205648145393 -5.253064605311612 -2.055828037994297 20.000000000000000
-1.028771658580532 -5.240274903586380 -2.158413261945960 19.000000000000000
-1.040153535072929 -5.225702245897144 -2.260765503253453 18.000000000000000
-1.051493731714865 -5.209047876166604 -2.363479882708657 20.000000000000000
-1.064639281489724 -5.201214521098877 -2.471163026961034 27.000000000000000
-1.076591523266011 -5.184050225927479 -2.575872269172719 28.000000000000000
-1.089789968212789 -5.175294500553729 -2.686504914888691 26.000000000000000
-1.101330912970839 -5.153823542856507 -2.791857644872462 26.000000000000000
-1.114945099926143 -5.144089508726642 -2.905061884084256 24.000000000000000
-1.127043596884715 -5.128554308992488 -3.017091220105179 24.000000000000000
-0.948100863747310 -5.529946798065063 -1.092450988709134 20.000000000000000
-0.960203922826704 -5.519410986033472 -1.193354429262832 9.000000000000000
-0.945647783043308 -5.357550900762107 -1.258353931200761 19.000000000000000
-0.956679268647332 -5.344125047076090 -1.356579617329694 24.000000000000000
-0.969074659990520 -5.336581479098819 -1.456450624052769 23.000000000000000
-0.979304813333926 -5.319889794957808 -1.553743431871806 20.000000000000000
-0.989377167531761 -5.301366832599101 -1.651133709481155 21.000000000000000
-1.001561513241035 -5.292347076070583 -1.751808483140058 23.000000000000000
-1.011596660391007 -5.274072684266111 -1.850197156457607 22.000000000000000
-1.024422537034042 -5.268720991182853 -1.953991193093228 20.000000000000000
-1.036253696919717 -5.257877142645230 -2.056333199768226 20.000000000000000
-1.047212725288382 -5.241381771420004 -2.157535314709862 20.000000000000000
-1.058704259591303 -5.226766978753298 -2.259937220485856 22.000000000000000
-1.069413242568335 -5.206488690946942 -2.361077471761797 29.000000000000000
-1.083429994129088 -5.202187805282528 -2.470429413359384 29.000000000000000
-1.096975182891652 -5.192016919530221 -2.578682949769466 28.000000000000000
-1.108075781226182 -5.172683001681017 -2.684053394994267 26.000000000000000
-1.121208921873326 -5.158107397073517 -2.793134911486936 26.000000000000000
-1.133455376907591 -5.141444759524946 -2.902579661837507 24.000000000000000
-1.146426937733117 -5.129280401148399 -3.016585460886992 24.000000000000000
-0.963078200294428 -5.515856389208938 -1.087853240901812 6.000000000000000
-0.975956838864180 -5.509202850623863 -1.189366301587589 17.000000000000000
-0.961716853755337 -5.351264195527326 -1.255178155828971 25.000000000000000
-0.973540296183763 -5.341660192954788 -1.354290099907935 24.000000000000000
-0.984652376405242 -5.326500456926935 -1.452073200633032 23.000000000000000
-0.996379272454167 -5.317395117903866 -1.551425636476285 20.000000000000000
-1.007966467809441 -5.306376647969552 -1.651143382524723 21.000000000000000
-1.019560971656629 -5.293559523085887 -1.750699003433003 23.000000000000000
-1.030415091137163 -5.278962731280357 -1.850443520270160 22.000000000000000
-1.041924766389233 -5.266168051338013 -1.951617492300049 21.000000000000000
-1.053871561979397 -5.255308472984550 -2.053944396673848 21.000000000000000
-1.065667835585073 -5.242435168996530 -2.156629213162928 31.000000000000000
-1.078012450358571 -5.231385794257005 -2.260639694537350 29.000000000000000
-1.088069902672442 -5.207458050500856 -2.360272132439863 28.000000000000000
-1.100730879002200 -5.196008291647110 -2.466297906812055 29.000000000000000
-1.114397836746822 -5.185848853762202 -2.574471815224874 28.000000000000000
-1.127869727580994 -5.176992387366942 -2.685192674418561 26.000000000000000
-1.140361963486342 -5.158879252763147 -2.792510599378905 26.000000000000000
-1.152721069847056 -5.142166876271404 -2.902001025449137 24.000000000000000
-1.165823785931690 -5.129950455218001 -3.016050269336457 24.000000000000000
-0.979348387469238 -5.509461308528073 -1.084763949342684 24.000000000000000
-0.992346009279087 -5.502804437746200 -1.186190843746741 9.000000000000000
-0.978453153957773 -5.348768112035464 -1.252880325163846 24.000000000000000
-0.991099016268135 -5.342964253856093 -1.352943355047926 23.000000000000000
-1.003029063095816 -5.331568467955038 -1.451814853930308 24.000000000000000
-1.014883944923133 -5.322407223688537 -1.551285893562286 22.000000000000000
-1.025141972461737 -5.303818391200764 -1.648786950899901 21.000000000000000
-1.036842625424787 -5.290985734865546 -1.748328150992122 23.000000000000000
-1.047798195031605 -5.276375519173911 -1.848059610280672 22.000000000000000
-1.060900167543448 -5.270937758959561 -1.951949275898492 23.000000000000000
-1.072225431412817 -5.256350595562912 -2.052960555090384 36.000000000000000
-1.082634177311608 -5.236167609703610 -2.152707133171533 34.000000000000000
-1.095091781744635 -5.225129033039148 -2.256638335588301 29.000000000000000
-1.107500463755278 -5.211950492095143 -2.361058828307976 29.000000000000000
-1.121052927806312 -5.203971017967738 -2.468876257978258 29.000000000000000
-1.133321555320690 -5.186666019415854 -2.573728395787404 29.000000000000000
-1.145386401227189 -5.170789902707842 -2.680880037215103 26.000000000000000
-1.158752882236124 -5.156144419841558 -2.789989691673831 25.000000000000000
-1.172000160816482 -5.142833233660650 -2.901393105699687 24.000000000000000
-1.185233935425808 -5.130564394080083 -3.015485618687764 24.000000000000000
-0.995584336690272 -5.503022077846532 -1.081654214280437 6.000000000000000
-1.013645365546001 -5.523304484937156 -1.188793775042676 6.000000000000000
-0.996605900445546 -5.353889726292399 -1.252351978438100 24.000000000000000
-1.009391374935717 -5.348031765357744 -1.352534394730841 23.000000000000000
-1.019990633683068 -5.328990242762524 -1.449461313640563 24.000000000000000
-1.031961756607291 -5.319812710920823 -1.548916929220298 21.000000000000000
-1.043783239201743 -5.308720555330189 -1.648738491992058 21.000000000000000
-1.055601431769135 -5.295827438399272 -1.748397369005218 23.000000000000000
-1.066668714756176 -5.281156699783230 -1.848247214334466 34.000000000000000
-1.078405497924749 -5.268282544300310 -1.949523176437336 40.000000000000000
-1.089834043525757 -5.253680854514125 -2.050520723251541 35.000000000000000
-1.102619398317285 -5.244381240302014 -2.154732435552666 33.000000000000000
-1.114439696606976 -5.229638246638796 -2.257282430693874 28.000000000000000
-1.126196780632567 -5.212809714855915 -2.360194841108812 29.000000000000000
-1.139884747606146 -5.204780790694495 -2.468056661220007 30.000000000000000
-1.152258712817378 -5.187428316093229 -2.572956145007258 29.000000000000000
-1.166003726651374 -5.178469614924604 -2.683764474900459 26.000000000000000
-1.178708287004381 -5.160256524919268 -2.791174550467117 25.000000000000000
-1.192083475459476 -5.146859056181463 -2.902682008649812 25.000000000000000
-1.205450761591792 -5.134502327066735 -3.016877577019665 24.000000000000000
-1.167018192691113 -4.834739297043232 -3.076112557686062 7.000000000000000
-1.016763064931250 -5.523577313370158 -1.083829568250526 7.000000000000000
-1.031485670081288 -5.524498567231118 -1.187218974359096 19.000000000000000
-1.013345332766367 -5.351295672552163 -1.250003944587822 24.000000000000000
-1.026989282577122 -5.349231640752505 -1.351132068690549 24.000000000000000
-1.039157247481963 -5.337745358427600 -1.450176093993526 23.000000000000000
-1.049773376454462 -5.320943810530397 -1.547621666708518 22.000000000000000
-1.060961685560663 -5.306061808435661 -1.646330582487234 22.000000000000000
-1.073642047076709 -5.296882751907972 -1.747205158900565 42.000000000000000
-1.085577185494865 -5.285881391157450 -1.848403660716030 42.000000000000000
-1.097432590228225 -5.272942463854153 -1.949795754121098 39.000000000000000
-1.109745205626257 -5.261931487360876 -2.052334914410827 36.000000000000000
-1.119563738599461 -5.238013864428837 -2.150760747099612 33.000000000000000
-1.132264934230525 -5.226885168939393 -2.254786807978386 28.000000000000000
-1.144906467791801 -5.213614650581976 -2.359302323833357 28.000000000000000
-1.157941079724784 -5.201992313291067 -2.465528833403989 28.000000000000000
-1.171209107042111 -5.188135666916148 -2.572155036006608 28.000000000000000
-1.184294126205234 -5.175644693754499 -2.681203727180514 26.000000000000000
-1.197100959089921 -5.157414318418559 -2.788598723717203 25.000000000000000
-1.210597715687825 -5.143998363717896 -2.900089309803930 24.000000000000000
-1.224899166929859 -5.135001911377117 -3.016252211107007 24.000000000000000
-1.184907942930620 -4.831979152893484 -3.073609381945385 7.000000000000000
-1.033736081230495 -5.520897811927814 -1.081423628654794 14.000000000000000
-1.047148213923174 -5.514104865037816 -1.183141646399025 9.000000000000000
-1.030811433163542 -5.352483132934366 -1.248525570788372 24.000000000000000
-1.044600477702341 -5.350380207177827 -1.349702737873708 23.000000000000000
-1.056133559832037 -5.335065887375534 -1.447769968316244 24.000000000000000
-1.067598326283489 -5.322023010279874 -1.546299095184454 28.000000000000000
-1.079654119645311 -5.310855876261813 -1.646223813309807 45.000000000000000
-1.090927735365655 -5.294157253958797 -1.744756615280596 44.000000000000000
-1.102976437716246 -5.283139680355543 -1.845939894930359 42.000000000000000
-1.115718859269001 -5.273865099918885 -1.948677073023912 40.000000000000000
-1.127368332738997 -5.259156785688895 -2.049840614750265 35.000000000000000
-1.138048521252381 -5.238856463118719 -2.149745222605342 33.000000000000000
-1.150871443720944 -5.227682207566360 -2.253818461349929 28.000000000000000
-1.163629324979647 -5.214365222675658 -2.358381249628235 28.000000000000000
-1.177588087207926 -5.206236283790895 -2.466331294494951 23.000000000000000
-1.190172535426582 -5.188787995585895 -2.571325042226278 28.000000000000000
-1.203381614734859 -5.176246906952251 -2.680418744820551 26.000000000000000
-1.217106901478606 -5.161411367410165 -2.789721757943302 25.000000000000000
-1.229915768080879 -5.144496984531338 -2.899393381308235 23.000000000000000
-1.243542125539536 -5.132068757060732 -3.013614649355444 24.000000000000000
-1.176002698332344 -4.655884381694361 -3.078209589649404 8.000000000000000
-1.049963341981111 -5.514311630259503 -1.078239409816132 10.000000000000000
-1.063494138691143 -5.507513930040878 -1.179870555347185 17.000000000000000
-1.048290623311186 -5.353619613000546 -1.247020372076467 23.000000000000000
-1.061468738718907 -5.347668508572105 -1.347286769455073 24.000000000000000
-1.073098870349941 -5.332338587339574 -1.445340099915267 40.000000000000000
-1.085436414231724 -5.323050234410252 -1.544949187709659 48.000000000000000
-1.098383969727347 -5.315593781730247 -1.646086086046755 45.000000000000000
-1.108202231200062 -5.291383055622133 -1.742283895763884 45.000000000000000
-1.120364429914091 -5.280348949352510 -1.843451794122946 41.000000000000000
-1.133227430667191 -5.271056153559660 -1.946172298745483 38.000000000000000
-1.144980062999482 -5.256332433264665 -2.047321666554544 34.000000000000000
-1.156546374269680 -5.239645274260591 -2.148701441355293 34.000000000000000
-1.169490976163572 -5.228425124964041 -2.252821690528731 28.000000000000000
-1.182365151570207 -5.215061355113657 -2.357431591956059 28.000000000000000
-1.196459203520615 -5.206881851841061 -2.465425471450927 22.000000000000000
-1.209966339855322 -5.192893938505268 -2.572204113178493 28.000000000000000
-1.222481856494512 -5.176793684294785 -2.679604683677682 26.000000000000000
-1.235500538677941 -5.158461622379665 -2.787090976154645 25.000000000000000
-1.250074259238379 -5.148349044960102 -2.900588984611235 23.000000000000000
-1.264664166217807 -5.139206269217762 -3.016893678789073 24.000000000000000
-1.066155726211678 -5.507681537044159 -1.075034908255978 10.000000000000000
-1.083575263205993 -5.520085725118434 -1.180687188171261 5.000000000000000
-1.066543987935894 -5.358529827440361 -1.246377956412005 26.000000000000000
-1.078325894355997 -5.344909281349991 -1.344847217976844 45.000000000000000
-1.090053011594909 -5.329563485237074 -1.442886512772413 48.000000000000000
-1.102506636002815 -5.320257519951550 -1.542479510064477 49.000000000000000
-1.116364292520102 -5.316528674136003 -1.644758226450251 45.000000000000000
-1.127050526572260 -5.296008860594082 -1.742237429015391 44.000000000000000
-1.138538845307955 -5.281210143802325 -1.842230364184741 41.000000000000000
-1.151527512952380 -5.271874216743282 -1.944999390681422 38.000000000000000
-1.163388131011360 -5.257109228260805 -2.046199066258456 34.000000000000000
-1.175869724888754 -5.244004274953560 -2.149114597772498 33.000000000000000
-1.188123331684794 -5.229113845587475 -2.251796469175576 29.000000000000000
-1.201113746567120 -5.215702972448470 -2.356453324596032 29.000000000000000
-1.214517373928925 -5.203934848499262 -2.462816607260832 20.000000000000000
-1.228137682546711 -5.189927284176958 -2.569578295686740 28.000000000000000
-1.241594646995193 -5.177284950842008 -2.678761518003749 25.000000000000000
-1.256393203834661 -5.165784737719425 -2.790010781503026 25.000000000000000
-1.269429516666703 -5.148733463154676 -2.899832482680093 24.000000000000000
-1.282476964366152 -5.132789702383104 -3.012219564869095 24.000000000000000
-1.252062393068095 -4.876183276690413 -3.099503253101912 4.000000000000000
-1.183973791338875 -4.481478032764089 -3.077768136698338 8.000000000000000
-1.085346904255106 -5.516427443087434 -1.074814571252036 4.000000000000000
-1.102208270898155 -5.524914742809156 -1.179826263588729 23.000000000000000
-1.083287517930601 -5.355739334233891 -1.243929393991341 50.000000000000000
-1.095951815119373 -5.345907469092054 -1.343340221553106 51.000000000000000
-1.108569371056926 -5.334312379044882 -1.442456721126489 49.000000000000000
-1.120358341817481 -5.321182579681651 -1.541076617048135 47.000000000000000
-1.133558518531171 -5.313666427448790 -1.642245469736189 45.000000000000000
-1.144326424160391 -5.293133299714051 -1.739712880456579 43.000000000000000
-1.157536044566703 -5.285717214547571 -1.842270293242646 41.000000000000000
-1.169840319530957 -5.272638917791165 -1.943798464191622 37.000000000000000
-1.180988768884716 -5.254183626779793 -2.043629111127385 35.000000000000000
-1.194405361827937 -5.244683250837197 -2.148012437120525 32.000000000000000
-1.206768310042349 -5.229748294465765 -2.250742771266843 28.000000000000000
-1.219874908605732 -5.216289999809830 -2.355446421644552 28.000000000000000
-1.233401409103411 -5.204472607338868 -2.461854959879050 19.000000000000000
-1.247138994297424 -5.190414094411087 -2.568661491407841 28.000000000000000
-1.260719781381659 -5.177720632240908 -2.677889222372690 25.000000000000000
-1.274799278488915 -5.162725255463409 -2.787323220612282 25.000000000000000
-1.289649306136653 -5.152467099470951 -2.900963883961785 24.000000000000000
-1.302817440787673 -5.136435728219996 -3.013454948368165 24.000000000000000
-1.301209802138860 -5.064841455659934 -3.093866525861498 24.000000000000000
-1.270960216512480 -4.876486451844835 -3.098966926738059 4.000000000000000
-1.178197668895702 -4.337017062552788 -3.093552852649317 34.000000000000000
-1.105367912685513 -5.528966572151973 -1.075309453892844 20.000000000000000
-1.118543694833054 -5.518175313019452 -1.176480011530955 8.000000000000000
-1.100804844032087 -5.356722427782509 -1.242343562404277 51.000000000000000
-1.113590278559996 -5.346854117336235 -1.341806148227534 49.000000000000000
-1.126323550141199 -5.335221520009468 -1.440974181873216 48.000000000000000
-1.139832549138906 -5.329583133667184 -1.541824043545111 47.000000000000000
-1.151552031019911 -5.314498330075016 -1.640864229448551 45.000000000000000
-1.163224343727068 -5.297649572616348 -1.739607464895044 45.000000000000000
-1.174925734869545 -5.282773409999860 -1.839703947960027 41.000000000000000
-1.187338239609205 -5.269677932810891 -1.941216729066498 37.000000000000000
-1.201074516923717 -5.262148442749157 -2.045286721041595 34.000000000000000
-1.212953463648975 -5.245308179554010 -2.146881924216083 31.000000000000000
-1.226267349164956 -5.233920655718062 -2.251205667641181 30.000000000000000
-1.239494507291244 -5.220385766159475 -2.356019061653448 28.000000000000000
-1.253147909803585 -5.208488940251648 -2.462535131816634 19.000000000000000
-1.267006880173666 -5.194348177980911 -2.569448300997511 28.000000000000000
-1.280714867473738 -5.181571231573296 -2.678781999410132 25.000000000000000
-1.294915989560267 -5.166488805252038 -2.788320283824390 25.000000000000000
-1.308176283366003 -5.149333488532528 -2.898231087321391 24.000000000000000
-1.322327131359613 -5.136652683127269 -3.012681558112586 24.000000000000000
-1.281538150119709 -4.915088866936872 -3.001593143632391 32.000000000000000
-1.281154885971503 -4.843783763237176 -3.077466655083568 11.000000000000000
-1.188590420523727 -4.311987458771220 -3.075256244224039 8.000000000000000
-1.121561275027545 -5.522187144357975 -1.072028660552552 8.000000000000000
-1.134843551890231 -5.511391752280592 -1.173113406975905 21.000000000000000
-1.118334503147512 -5.357654245780793 -1.240730801478247 51.000000000000000
-1.131241093733464 -5.347749152873061 -1.340244972306994 49.000000000000000
-1.143279256003295 -5.332296955450172 -1.438444201799075 49.000000000000000
-1.156916297108022 -5.326637878875985 -1.539275670180433 45.000000000000000
-1.168734856713834 -5.311537116464835 -1.638301649611122 45.000000000000000
-1.180500895590273 -5.294672488739192 -1.737031051103837 42.000000000000000
-1.193972178470006 -5.287170071425335 -1.839684503621153 42.000000000000000
-1.204824118281187 -5.266667632878867 -1.938610556247457 38.000000000000000
-1.218687746640644 -5.259117368818948 -2.042662154438373 33.000000000000000
-1.232363150318464 -5.249496834804902 -2.147202842562963 31.000000000000000
-1.244095332466894 -5.230854079982153 -2.248549843269690 28.000000000000000
-1.257434126520739 -5.217299988025802 -2.353346606942331 28.000000000000000
-1.271206168187987 -5.205383049913903 -2.459845153994423 18.000000000000000
-1.285178073977807 -5.191221676925270 -2.566740894439459 28.000000000000000
-1.299876325047331 -5.181893414613252 -2.677849543788682 24.000000000000000
-1.312447630223787 -5.159886055562647 -2.783724323910344 25.000000000000000
-1.327567377233548 -5.149548949826960 -2.897386144828006 24.000000000000000
-1.341848453103259 -5.136812892725106 -3.011878489255090 24.000000000000000
-1.290735040839277 -4.878694178003072 -2.978581234727124 8.000000000000000
-1.289350333448101 -4.804481943900895 -3.051790452892783 23.000000000000000
-1.185405915957483 -4.177947396793639 -3.093508099882437 40.000000000000000
-1.136925173607441 -5.511515194209732 -1.067981935059276 22.000000000000000
-1.155115733394843 -5.523730500056145 -1.173799388828083 4.000000000000000
-1.136685333901608 -5.362351335950585 -1.239973629365542 49.000000000000000
