# This PCD file was generated using the MATLAB® pcwrite function
# from Computer Vision Toolbox®.
# .PCD v.7 - Point Cloud Data file format
VERSION .7
FIELDS x y z intensity
SIZE 8 8 8 8
TYPE F F F F
COUNT 1 1 1 1
WIDTH 633
HEIGHT 1
VIEWPOINT 0 0 0 1 0 0 0
POINTS 633
DATA ascii
0.097700184375772 -5.409503489304331 -1.976189938537588 54.000000000000000
0.093864346260103 -5.437641520991475 -2.094953024220516 54.000000000000000
0.089545903986999 -5.441213445709476 -2.205801842711526 55.000000000000000
0.084557775143856 -5.413084667622520 -2.304955609944088 5.000000000000000
0.079394705254715 -5.379707251953173 -2.401689064816670 5.000000000000000
0.074328207744548 -5.369881794955585 -2.509985821820130 6.000000000000000
0.069246049380744 -5.354444846694371 -2.616624804658334 6.000000000000000
0.063938226553664 -5.368948486767559 -2.739906576805403 5.000000000000000
0.059516053974240 -5.408886589619980 -2.879720073192615 4.000000000000000
0.054381708974334 -5.480617701569705 -3.041002505584274 5.000000000000000
0.103963863187301 -5.523221916444720 -1.483782725622547 27.000000000000000
0.098932792079257 -5.507834839164457 -1.584232207454968 6.000000000000000
0.095495762276286 -5.555808599571217 -1.703882438526139 44.000000000000000
0.089668634227561 -5.471909319222895 -1.783733146588192 49.000000000000000
0.084102004697089 -5.417279706430946 -1.871318100991215 54.000000000000000
0.079989021255877 -5.425117068172770 -1.980879237383999 52.000000000000000
0.075839432987334 -5.449433771801406 -2.098456563084989 55.000000000000000
0.071342571572875 -5.452935746494487 -2.209492697902391 53.000000000000000
0.066191081197443 -5.417369290757503 -2.305704384418667 5.000000000000000
0.061062442226329 -5.391271508323734 -2.405759526986453 5.000000000000000
0.055820054653112 -5.377739983306602 -2.512547072881226 5.000000000000000
0.050689415585117 -5.369435276227608 -2.622817454103541 5.000000000000000
0.045238685027869 -5.394510446272001 -2.751789691535167 5.000000000000000
0.040296349668588 -5.409518056435011 -2.878866895378628 4.000000000000000
0.034775886265602 -5.488257648087275 -3.044009629739360 5.000000000000000
0.086959672234748 -5.558506167465487 -1.492308011656097 4.000000000000000
0.077649460328337 -5.563989525528643 -1.705400574973010 41.000000000000000
0.071836120591586 -5.472439683100861 -1.782913202206241 51.000000000000000
0.066482263881033 -5.432932508651146 -1.875720785466434 55.000000000000000
0.062478403406887 -5.466985024672663 -1.995136884805794 41.000000000000000
0.057857628553312 -5.472375911406282 -2.106240816971900 54.000000000000000
0.053027815259099 -5.460901554208281 -2.211652383638630 49.000000000000000
0.047863822362375 -5.428964389053149 -2.309557255601521 5.000000000000000
0.042683404231223 -5.406439314357341 -2.411429465519273 5.000000000000000
0.037361604800045 -5.400044377400918 -2.521849486505391 6.000000000000000
0.032031976613596 -5.384376353176358 -2.628978744651522 5.000000000000000
0.026363035753979 -5.420024700188579 -2.763637682419956 5.000000000000000
0.021158736600602 -5.431284039633778 -2.889257688176128 5.000000000000000
0.015138693294937 -5.502840662959890 -3.050865362162097 5.000000000000000
0.059753512461680 -5.572121476098143 -1.706890674107264 22.000000000000000
0.054078439410454 -5.480526641247358 -1.784544551690681 51.000000000000000
0.048796737699208 -5.452319183151557 -1.881397991767674 52.000000000000000
0.044663083434685 -5.505052289644060 -2.007985183526712 28.000000000000000
0.039725839995223 -5.495271063118122 -2.113991911170261 50.000000000000000
0.034780314899577 -5.487355565346978 -2.221287741187760 47.000000000000000
0.029521011682843 -5.451552890572818 -2.318075838094254 5.000000000000000
0.024236491019269 -5.428864713961006 -2.420325703291226 8.000000000000000
0.018689746864876 -5.404178068349474 -2.522658537918418 2.000000000000000
0.013371127314917 -5.438809557065980 -2.654406866876681 2.000000000000000
0.007311461796716 -5.445490504611732 -2.775450180909373 5.000000000000000
0.001932087380996 -5.633118804147887 -2.995391260819501 3.000000000000000
0.041836750991818 -5.584028916113849 -1.709523544813247 0.000000000000000
0.036296275849103 -5.492368404386728 -1.787385770015496 50.000000000000000
0.031051155545857 -5.483002970390843 -1.890955909698705 42.000000000000000
0.026508466997705 -5.524284733506998 -2.013945253555553 45.000000000000000
0.021487773268134 -5.529319104001061 -2.126016115115046 38.000000000000000
0.016324752057398 -5.502638315745158 -2.226387447989131 10.000000000000000
0.011035345726365 -5.477774625036673 -2.328125292687022 0.000000000000000
0.005608906887413 -5.422012645526438 -2.416162952268518 40.000000000000000
0.018414398666826 -5.496554022214942 -1.787723354099979 50.000000000000000
0.013070942942644 -5.498514204847422 -1.895264279603695 59.000000000000000
0.008173644437791 -5.505885879751143 -2.006178922901341 57.000000000000000
0.003000847674201 -5.518515233262097 -2.120783962398674 53.000000000000000
-0.002218697643446 -5.488205404547454 -2.219458608507235 30.000000000000000
-0.007548932390580 -5.448724637039306 -2.314679857634881 3.000000000000000
-0.012924690313410 -5.396837718718557 -2.403838511671902 51.000000000000000
0.000508393150729 -5.504494020264823 -1.789270611843057 49.000000000000000
-0.004998056491231 -5.502631158664669 -1.895633232227171 53.000000000000000
-0.010056961207432 -5.498708944847560 -2.002499137923588 54.000000000000000
-0.015369111625001 -5.492722144985568 -2.109792223986286 59.000000000000000
-0.020619855729577 -5.462593185241870 -2.208011438851432 53.000000000000000
-0.026003114403479 -5.434345907053705 -2.307471430057144 59.000000000000000
-0.031474096898917 -5.404494764046563 -2.406138343200094 45.000000000000000
-0.017470779155859 -5.519993144015796 -1.793261403670504 49.000000000000000
-0.023123138791206 -5.514262013562631 -1.898579407407715 53.000000000000000
-0.028314579954372 -5.506514937463169 -2.004268327359638 52.000000000000000
-0.033701449719845 -5.489279809078962 -2.107384964814166 56.000000000000000
-0.039031027580577 -5.462887088893758 -2.207035394569806 51.000000000000000
-0.044447086641103 -5.430959671686203 -2.304929825614483 56.000000000000000
-0.050106955164442 -5.415755097002846 -2.410035274084561 21.000000000000000
-0.035621719078180 -5.546856571762055 -1.800926779586007 27.000000000000000
-0.041378667964589 -5.533407627051179 -1.904098694587370 51.000000000000000
-0.046621346634414 -5.514270509801203 -2.006008772357384 54.000000000000000
-0.052008168742828 -5.485785694709577 -2.104952840826552 53.000000000000000
-0.057519530228777 -5.470547075287198 -2.209028338593454 51.000000000000000
-0.063035964109903 -5.442250008605432 -2.308611121662313 21.000000000000000
-0.068536290235567 -5.405037350787150 -2.404148500720487 0.000000000000000
-0.059839000589743 -5.560068439191016 -1.912186770564107 9.000000000000000
-0.065065542351899 -5.529493456121904 -2.010453827846712 54.000000000000000
-0.070528493519667 -5.500912383679856 -2.109657004984328 50.000000000000000
-0.076057181692206 -5.478155968894852 -2.210992194824474 42.000000000000000
-0.081423266617616 -5.435077864574041 -2.304455436251826 0.000000000000000
-0.123032108528388 -9.511611333582005 -3.084495572884717 4.000000000000000
-0.083608324204529 -5.544665929125677 -2.014867088052362 10.000000000000000
-0.089026890065883 -5.508519255959499 -2.111466272420333 5.000000000000000
-0.094515812601891 -5.478295418915542 -2.209934402704567 1.000000000000000
-0.153882144415128 -9.504141857914034 -3.080206459034295 4.000000000000000
-0.101627294127276 -5.525955130190077 -2.006960834748484 0.000000000000000
-0.184902236446478 -9.507999612510133 -3.079573108640910 4.000000000000000
-0.216030815362874 -9.515575267249767 -3.080125650053614 3.000000000000000
-0.213957932518182 -8.953213151184181 -3.072005903733773 12.000000000000000
-0.231206219671960 -8.906708997824436 -2.881245305776348 21.000000000000000
-0.239446033009159 -8.809365359719978 -3.020861393086724 47.000000000000000
-0.236052156655985 -7.995807342024555 -3.058339472420335 24.000000000000000
-0.250377650778805 -8.932924725833278 -2.715836312185795 15.000000000000000
-0.259865551710581 -8.895100987806771 -2.875682929627881 35.000000000000000
-0.273090316839192 -8.964249757976173 -3.072140614534566 27.000000000000000
-0.249149874955183 -7.875177172128591 -2.853753466470880 27.000000000000000
-0.264102594343603 -8.036712853611302 -3.072321651171936 19.000000000000000
-0.267513066460127 -8.894441065294005 -2.533151968454464 15.000000000000000
-0.279088047584323 -8.928823295650249 -2.712769879062545 19.000000000000000
-0.265116305941957 -7.855766523224951 -2.690633694299883 14.000000000000000
-0.274958679948445 -7.867414320186385 -2.849311081445342 42.000000000000000
-0.279189771293328 -8.728951391235062 -2.318783448504977 0.000000000000000
-0.295846878302164 -8.890241339550972 -2.530135875627596 31.000000000000000
-0.325183608133369 -9.429593141057900 -2.862975517728917 3.000000000000000
-0.281885214436941 -7.890132280200675 -2.547541820425555 13.000000000000000
-0.290760796652400 -7.851667307752337 -2.687600165110733 40.000000000000000
-0.327176167445849 -8.551191816961417 -3.095169505049365 8.000000000000000
-0.325305640754223 -9.982588069742521 -2.276323278870500 2.000000000000000
-0.330652931454026 -9.754384542201805 -2.405276458491901 4.000000000000000
-0.304030509120622 -8.647387041502419 -2.295335880427938 20.000000000000000
-0.296520023868655 -8.128482893899159 -2.311661246600305 0.000000000000000
-0.300357607934525 -7.964077505043112 -2.416368928997006 17.000000000000000
-0.307264986087951 -7.882135783435837 -2.543318249807661 50.000000000000000
-0.319731326951033 -7.930698499463312 -2.712994137328073 7.000000000000000
-0.341261163457402 -8.208736237169303 -2.969492584078853 4.000000000000000
-0.343475049446698 -8.009596942668654 -3.056923568949756 5.000000000000000
-0.335330480976178 -9.751123249068698 -2.040630503055415 2.000000000000000
-0.337651519512110 -9.455834208123534 -2.154253206995860 2.000000000000000
-0.339479028471534 -9.163863726005467 -2.257762520822174 3.000000000000000
-0.319317889631917 -8.330070483206001 -2.209374986321055 21.000000000000000
-0.321152642554540 -8.093409322842447 -2.299997068064910 33.000000000000000
-0.325896744460959 -7.959790207012309 -2.413401577090036 42.000000000000000
-0.334840921668797 -7.927322702634982 -2.556234012265706 9.000000000000000
-0.350208656382738 -8.032338276837811 -2.746072049936192 4.000000000000000
-0.350885014394911 -7.817382947669807 -2.826270255328458 4.000000000000000
-0.351916663929910 -7.613333373979929 -2.904073965706079 3.000000000000000
-0.353891508262610 -7.438934605977042 -2.986902865574440 4.000000000000000
-0.356372727453634 -7.278670289109328 -3.070899103123445 6.000000000000000
-0.343190080976763 -9.155759651178641 -1.914127941953804 4.000000000000000
-0.348375239266177 -8.971933579372990 -2.042132840925285 4.000000000000000
-0.350829072549616 -8.728578197113960 -2.148687417639154 3.000000000000000
-0.346221873353582 -8.341109037808293 -2.210548898758938 13.000000000000000
-0.347208477054262 -8.096713337329895 -2.299229307086587 22.000000000000000
-0.354617174163542 -8.028101128367174 -2.432417507850577 4.000000000000000
-0.357691497170397 -7.862125908451487 -2.533546327286691 3.000000000000000
-0.358304251477941 -7.642303115441445 -2.611106500142570 4.000000000000000
-0.359366677949577 -7.456071601585656 -2.694057880374400 3.000000000000000
-0.361413175104088 -7.291721128959039 -2.779843070094697 4.000000000000000
-0.361932674015040 -7.104693362499056 -2.851180977128981 2.000000000000000
-0.362774740800829 -6.928429921831341 -2.921649757535808 2.000000000000000
-0.363926578642717 -6.763132372936493 -2.991122523651580 3.000000000000000
-0.366402886661798 -6.622809465063166 -3.067736578344960 6.000000000000000
-0.354987485019399 -8.748195358205269 -1.827073578199684 4.000000000000000
-0.354935565955792 -8.460741551415895 -1.923987823288958 4.000000000000000
-0.359440367182532 -8.293276685283647 -2.039771664616003 3.000000000000000
-0.360939289628407 -8.077789979101929 -2.139048359136139 3.000000000000000
-0.364249251058507 -7.903884718700724 -2.242789521241898 3.000000000000000
-0.362567331053022 -7.648870574507697 -2.315885114785141 3.000000000000000
-0.364356131438752 -7.473581930859633 -2.406744218277339 4.000000000000000
-0.366305747090719 -7.301409147761488 -2.493074518868855 3.000000000000000
-0.367585684832498 -7.136079525488050 -2.576910120709774 3.000000000000000
-0.367379674613531 -6.943954516848891 -2.645775470937537 2.000000000000000
-0.368729946322446 -6.788973204917882 -2.723023512493432 4.000000000000000
-0.370287322735217 -6.640754632756275 -2.798914290604066 2.000000000000000
-0.370356810273594 -6.470315700163733 -2.860228412784312 2.000000000000000
-0.372021467712130 -6.328679354241649 -2.930132020704326 3.000000000000000
-0.373238202481369 -6.186759197746503 -2.995690216512302 3.000000000000000
-0.375855765642332 -6.062249723988506 -3.066313214176708 5.000000000000000
-0.372901558205083 -5.866447017876132 -3.096527056936603 7.000000000000000
-0.362897205963208 -8.309321491417583 -1.733637208348382 2.000000000000000
-0.365332942939983 -8.105429112492425 -1.841453432254817 2.000000000000000
-0.367297766964172 -7.900655978984023 -1.941510610871634 2.000000000000000
-0.366591199892571 -7.659928902030220 -2.026752108177868 2.000000000000000
-0.370582943071173 -7.518817198048882 -2.131908118242682 2.000000000000000
-0.371555621872322 -7.338465847390057 -2.220324621884108 2.000000000000000
-0.373041650363020 -7.172502242250601 -2.308243382315768 3.000000000000000
-0.372272111603866 -6.964284462564254 -2.376463633091852 2.000000000000000
-0.373068688806011 -6.804801247178187 -2.455816715440054 4.000000000000000
-0.374594230762961 -6.659640999722098 -2.536012010440712 2.000000000000000
-0.375326301129163 -6.506608583084833 -2.608366330523280 3.000000000000000
-0.376499598921608 -6.364106576281205 -2.680942285418728 2.000000000000000
-0.376111207271600 -6.199405102692858 -2.739135033632049 2.000000000000000
-0.377187023351040 -6.059908300135554 -2.804386803449874 3.000000000000000
-0.378507174754171 -5.930985933472781 -2.870564086657465 3.000000000000000
-0.371948069599287 -5.676824243332419 -2.870140265533146 6.000000000000000
-0.367633459808434 -5.477434565192678 -2.890012495346996 7.000000000000000
-0.376282315507381 -5.461074326431175 -3.003766771943304 8.000000000000000
-0.370105454248455 -7.913480512680360 -1.649336875281626 2.000000000000000
-0.369195109081039 -7.660488374540258 -1.738708956370846 2.000000000000000
-0.373263569254725 -7.519674803102375 -1.846258151899260 3.000000000000000
-0.374914693302998 -7.346359339193723 -1.942191399472945 2.000000000000000
-0.377681337500963 -7.195248647937300 -2.038601898767864 2.000000000000000
-0.376069890499761 -6.982165302350151 -2.111008083385075 2.000000000000000
-0.376615752965461 -6.814371396942680 -2.191512500340289 3.000000000000000
-0.379887501026277 -6.695205303691631 -2.283192376472784 3.000000000000000
-0.379199073641614 -6.522362866305587 -2.352472465893555 2.000000000000000
-0.381245770309057 -6.397713081428513 -2.434882952082077 3.000000000000000
-0.378890235058878 -6.205699170759125 -2.486394174666708 2.000000000000000
-0.379221824032876 -6.061686306860253 -2.552233125206256 2.000000000000000
-0.381649372863105 -5.954055310255189 -2.629442739177862 2.000000000000000
-0.376210059965093 -5.725897615104825 -2.648577446879353 2.000000000000000
-0.368688223634137 -5.477523797631179 -2.649909062616603 7.000000000000000
-0.376647680350487 -5.455326378536104 -2.756977807044292 10.000000000000000
-0.385559935879683 -5.455686880148703 -2.877364106542266 9.000000000000000
-0.395061920964213 -5.450014634208624 -2.996513067803294 7.000000000000000
-0.376426637784770 -7.548936905637331 -1.571704355492070 2.000000000000000
-0.378080404160214 -7.367513423002048 -1.670597848039646 2.000000000000000
-0.380520038738581 -7.208535940162270 -1.768286769590059 3.000000000000000
-0.379783940949914 -7.005751013884865 -1.850608788925349 3.000000000000000
-0.380997817919250 -6.840933173306576 -1.936717320905243 3.000000000000000
-0.384397916155405 -6.732925729760496 -2.034179284031882 3.000000000000000
-0.384536197592579 -6.570317447994357 -2.111588157127699 3.000000000000000
-0.385283833124646 -6.418558174331126 -2.187448589260981 3.000000000000000
-0.382537322116040 -6.224893820438201 -2.243823995205196 2.000000000000000
-0.383330868535425 -6.090991554640125 -2.316821815878500 3.000000000000000
-0.385921716822419 -5.990046840555562 -2.398686990091700 3.000000000000000
-0.381347635942703 -5.781350622541691 -2.432943682002877 2.000000000000000
-0.369722370905757 -5.474945504630438 -2.416669834664798 7.000000000000000
-0.378189374873535 -5.467996497993981 -2.528098711415028 11.000000000000000
-0.386751990510590 -5.462544629404337 -2.641482362159915 11.000000000000000
-0.396078429884014 -5.458281105238992 -2.757294553284366 9.000000000000000
-0.405691064707402 -5.465666566729828 -2.881452366663095 9.000000000000000
-0.415359153397979 -5.459888599563581 -3.000771443153268 9.000000000000000
-0.382358505627956 -7.219601759950311 -1.501535347867756 2.000000000000000
-0.382594179871467 -7.027787112055903 -1.592006909893746 1.000000000000000
-0.383433339497386 -6.854726665276229 -1.679977743457605 3.000000000000000
-0.388033606312109 -6.761693045984950 -1.784643682153718 3.000000000000000
-0.388612148995214 -6.598073067229916 -1.866503789749309 3.000000000000000
-0.389043107086700 -6.449272510291925 -1.947057664482805 3.000000000000000
-0.387111030074964 -6.265426976255251 -2.012221124928192 3.000000000000000
-0.386472623187815 -6.104115975945786 -2.078943737509449 3.000000000000000
-0.388773571542411 -6.002558200930255 -2.162363094976213 3.000000000000000
-0.384606298654394 -5.802939787844660 -2.205984545205321 2.000000000000000
-0.371399362560389 -5.477883413578861 -2.192395908755382 8.000000000000000
-0.379529017775207 -5.471585802328885 -2.301393172063295 13.000000000000000
-0.387945686929354 -5.466995247102910 -2.411971208813884 12.000000000000000
-0.396807349677383 -5.463722206711869 -2.524937142806845 11.000000000000000
-0.405779567024904 -5.461888742562042 -2.639983770188580 11.000000000000000
-0.415530310779889 -5.461181150519898 -2.757582093434270 9.000000000000000
-0.424520399410964 -5.457937558433953 -2.876205145451203 7.000000000000000
-0.434613092657928 -5.455716220004475 -2.997310792438848 7.000000000000000
-0.385816506275273 -6.882456866423321 -1.429871709387956 2.000000000000000
-0.389923260700254 -6.773770788760771 -1.532946558786757 2.000000000000000
-0.390769093585118 -6.613424057795170 -1.619358436935666 3.000000000000000
-0.392163727677862 -6.475158246525476 -1.707570582185965 3.000000000000000
-0.392764832306247 -6.324471379697933 -1.787695039397142 2.000000000000000
-0.390401774377317 -6.142692317578717 -1.853132900286014 2.000000000000000
-0.392401243138988 -6.032776985447959 -1.936162985967972 3.000000000000000
-0.391891778941386 -5.884171350928320 -2.002731221735093 2.000000000000000
-0.372571117274082 -5.472241839198785 -1.970112691166533 8.000000000000000
-0.381102693585604 -5.473858147779399 -2.079678271976434 18.000000000000000
-0.389301742309998 -5.469782885521291 -2.187952316366326 16.000000000000000
-0.397829037594892 -5.467213475187055 -2.298356994372152 14.000000000000000
-0.406386647747622 -5.462645743531032 -2.408860181333640 11.000000000000000
-0.415671916127654 -5.463018536137499 -2.523424128433599 10.000000000000000
-0.424803079756242 -5.461179440696711 -2.638458159596465 10.000000000000000
-0.435003125824522 -5.464026415470637 -2.757840389065692 9.000000000000000
-0.444156856827839 -5.460745698695679 -2.876512663053902 7.000000000000000
-0.453837833514973 -5.451489942968275 -2.993824414120873 7.000000000000000
-0.392048428220955 -6.627443641754886 -1.375386783887428 2.000000000000000
-0.393778454435721 -6.488599304811914 -1.466940213647635 2.000000000000000
-0.393691798806133 -6.325582209664424 -1.547447083531366 2.000000000000000
-0.393001163277726 -6.165472801546669 -1.624511994123348 3.000000000000000
-0.395670391338556 -6.058564891526107 -1.711169306814857 3.000000000000000
-0.396420866493049 -5.935504557991676 -1.789295989675529 3.000000000000000
-0.375409476312492 -5.496060996365547 -1.762678997811037 6.000000000000000
-0.383192709907815 -5.482852388587231 -1.864915288166409 18.000000000000000
-0.390668154085643 -5.471512147096703 -1.968633337510199 20.000000000000000
-0.399088268897498 -5.469392289407854 -2.076769736440297 20.000000000000000
-0.407702572859012 -5.469043248027525 -2.186449304989414 16.000000000000000
-0.416660340789210 -5.470147314917729 -2.298387807466743 14.000000000000000
-0.425366723138227 -5.465546707095886 -2.408942992974298 11.000000000000000
-0.434532265523868 -5.462261903753922 -2.521884336169538 9.000000000000000
-0.444406317714630 -5.467601489665193 -2.640375158000520 9.000000000000000
-0.454496677350615 -5.466816801732557 -2.758069402058595 9.000000000000000
-0.463514393267681 -5.459969120349809 -2.874932279560724 7.000000000000000
-0.473944038599339 -5.457698731887572 -2.996070359692666 7.000000000000000
-0.395001276711490 -6.345072594220755 -1.315329527329556 1.000000000000000
-0.394614328982449 -6.183974533693348 -1.396654036615322 2.000000000000000
-0.396834385652972 -6.068782884718358 -1.483238608084672 3.000000000000000
-0.399367400262319 -5.967758396141838 -1.571057416164761 3.000000000000000
-0.380822526754617 -5.558356078638079 -1.568628670585659 4.000000000000000
-0.383711927834082 -5.479926080938201 -1.650718420534268 21.000000000000000
-0.391917264404128 -5.476286557972835 -1.755101818364972 23.000000000000000
-0.401169275551121 -5.482075210266160 -1.863419062191602 19.000000000000000
-0.408760952936423 -5.470731643508400 -1.967128304933461 20.000000000000000
-0.417614031382720 -5.472336822125992 -2.076668540233679 19.000000000000000
-0.426387787448017 -5.471956724009521 -2.186400481449400 16.000000000000000
-0.435219589962186 -5.469349885790949 -2.296845605457987 13.000000000000000
-0.444070781970427 -5.464743641708585 -2.407389056842656 9.000000000000000
-0.453688867034802 -5.465073969758922 -2.521989079475194 9.000000000000000
-0.463141661027897 -5.463192462939585 -2.637059710112841 8.000000000000000
-0.473702166479217 -5.465991305110527 -2.756473346493487 9.000000000000000
-0.484115936382656 -5.473253610431192 -2.880753838154567 8.000000000000000
-0.495360184129126 -5.477833604861249 -3.005957632008869 6.000000000000000
-0.396976341674111 -6.074451207694040 -1.257818869907536 2.000000000000000
-0.400068254559982 -5.976721247337583 -1.348461539428107 2.000000000000000
-0.384544565820170 -5.610384986949829 -1.369908674002086 2.000000000000000
-0.384459957498650 -5.484439111447244 -1.442558204686352 22.000000000000000
-0.393078243432792 -5.480720601755381 -1.545462772128115 27.000000000000000
-0.401374765707345 -5.479111286974766 -1.649222181029315 25.000000000000000
-0.409434466030328 -5.471666713020465 -1.752377470652449 26.000000000000000
-0.418563719388663 -5.473692423381699 -1.859330972964552 24.000000000000000
-0.427142299798137 -5.473654557369893 -1.966946680087426 20.000000000000000
-0.435863112750742 -5.471499272883693 -2.075124828480555 18.000000000000000
-0.444792295189668 -5.471113194684463 -2.184844210713770 17.000000000000000
-0.453469159060328 -5.464822804472928 -2.293733514925777 13.000000000000000
-0.463079420260653 -5.467537948281806 -2.407415675497158 8.000000000000000
-0.472865881046675 -5.467831945469595 -2.522064962415550 9.000000000000000
-0.482798372442409 -5.469504929019556 -2.638917498331037 8.000000000000000
-0.494829634649191 -5.486473881403782 -2.765618191534592 6.000000000000000
-0.503514271212891 -5.472366050691750 -2.879114305810266 7.000000000000000
-0.513963996836015 -5.466450237596473 -2.998549450957547 7.000000000000000
-0.386311489930323 -5.643615366739533 -1.167281039445608 2.000000000000000
-0.384319948770527 -5.485285426607036 -1.236300111473539 24.000000000000000
-0.392999467222890 -5.481590310330878 -1.337181770908186 31.000000000000000
-0.401555676270952 -5.479728089484538 -1.440046215983610 29.000000000000000
-0.410305377211168 -5.476021730090674 -1.542871190024084 25.000000000000000
-0.419617531439630 -5.485887403895941 -1.649998945176741 22.000000000000000
-0.427812477519746 -5.478395579719757 -1.753277603856687 25.000000000000000
-0.436506553627652 -5.472815508513288 -1.857785896818185 24.000000000000000
-0.445238498724161 -5.472771848996202 -1.965389266300328 19.000000000000000
-0.454107562269002 -5.470610476884074 -2.073555239702167 18.000000000000000
-0.463192135694224 -5.470217982231319 -2.183261842359761 15.000000000000000
-0.472641983522026 -5.471275628592529 -2.295224727860386 12.000000000000000
-0.481786678029913 -5.466629245006267 -2.405807617935214 8.000000000000000
-0.492388765949883 -5.474156207767176 -2.523781114940527 6.000000000000000
-0.502170771926738 -5.472170884161035 -2.639012377834316 6.000000000000000
-0.514100612180680 -5.485536889370376 -2.763961214617932 8.000000000000000
-0.524593403581899 -5.489062392403135 -2.886723369708973 5.000000000000000
-0.535557929745794 -5.486466589875219 -3.008365347172677 5.000000000000000
-0.391998828132827 -5.478587845200859 -1.131846341673593 38.000000000000000
-0.401406593357494 -5.484398920398700 -1.234802505965514 33.000000000000000
-0.410509765116470 -5.484572628641663 -1.336616928629403 27.000000000000000
-0.419212363705887 -5.482686187907887 -1.439537828276912 27.000000000000000
-0.428403337861401 -5.482793415031542 -1.543499578294717 24.000000000000000
-0.436686774156496 -5.477332905119180 -1.646154581980525 22.000000000000000
-0.445308094923858 -5.473676366734527 -1.750503851137495 22.000000000000000
-0.455071898385390 -5.479440843210202 -1.858777451191990 22.000000000000000
-0.463647705422004 -5.475591294420421 -1.965153119154896 18.000000000000000
-0.472991163334836 -5.477127389651609 -2.074784547112134 17.000000000000000
-0.481587127362694 -5.469271095485476 -2.181653392004708 16.000000000000000
-0.491199597473046 -5.470321243870745 -2.293602503551726 7.000000000000000
-0.502493639997023 -5.487559865370057 -2.413802573895036 6.000000000000000
-0.512632957460962 -5.487664565379827 -2.528802299271230 9.000000000000000
-0.522589185807902 -5.485552137750743 -2.644269707668809 5.000000000000000
-0.533366513436451 -5.484545776584207 -2.762276920747988 4.000000000000000
-0.544393864627608 -5.491589714403287 -2.886877504989749 7.000000000000000
-0.555528577432813 -5.488950719773986 -3.008565105751927 8.000000000000000
-0.409209388223168 -5.481569302768204 -1.131145284894624 34.000000000000000
-0.418488540806656 -5.483464423348328 -1.233280689497211 31.000000000000000
-0.427435102394248 -5.479754534898304 -1.334138475010255 27.000000000000000
-0.436581491267514 -5.481736525278567 -1.437990705432237 25.000000000000000
-0.445608750509086 -5.477996809656563 -1.540859433842767 23.000000000000000
-0.454652427176822 -5.480188281316441 -1.645730102958616 22.000000000000000
-0.463416882889840 -5.476504199087282 -1.750134437702439 21.000000000000000
-0.472703820888392 -5.474686160088707 -1.855899390120781 23.000000000000000
-0.481416387590037 -5.470853976274030 -1.962197500774679 20.000000000000000
-0.491250668780986 -5.476134775544506 -2.073161040656117 12.000000000000000
-0.502008139782643 -5.490486244037925 -2.188874740962189 7.000000000000000
-0.511465016453526 -5.487692811240521 -2.299655440800490 11.000000000000000
-0.521265752558487 -5.486542036040808 -2.412134843238829 8.000000000000000
-0.531919997979647 -5.490256982519165 -2.528786938761130 5.000000000000000
-0.542393360138468 -5.491695779410778 -2.646032295585138 6.000000000000000
-0.554420227920288 -5.501292572790907 -2.769522384713369 10.000000000000000
-0.563851866220667 -5.490534695973947 -2.885148839360933 6.000000000000000
-0.574420525160437 -5.480898666139107 -3.002992985637654 5.000000000000000
-0.426742989186947 -5.488408188910019 -1.131223219831185 33.000000000000000
-0.435874753556986 -5.486372989352326 -1.232608867774708 30.000000000000000
-0.444960107311108 -5.482638763946270 -1.333522660840599 25.000000000000000
-0.453626218133873 -5.476881115880354 -1.435408128977516 23.000000000000000
-0.463433714489737 -5.480828639707427 -1.540354054896820 22.000000000000000
-0.472308532769537 -5.479174430702070 -1.644132661257518 21.000000000000000
-0.480877873126463 -5.471686362234552 -1.747312457597034 22.000000000000000
-0.490982645322243 -5.477432326341122 -1.855555752960729 20.000000000000000
-0.501210675614366 -5.488576782949015 -1.967286648234881 7.000000000000000
-0.510892347201816 -5.489999220874889 -2.077152272791702 12.000000000000000
-0.520818529211990 -5.493133343343689 -2.188682282076420 14.000000000000000
-0.530429666542109 -5.490305539327916 -2.299514177750859 6.000000000000000
-0.541468806895036 -5.500060498214957 -2.416851267069427 6.000000000000000
-0.552316032697025 -5.503650110764437 -2.533740013953368 10.000000000000000
-0.561875103477910 -5.494194304192383 -2.646035017884618 7.000000000000000
-0.572624548943804 -5.489516609633098 -2.762407015359837 5.000000000000000
-0.581805824610971 -5.475322453486049 -2.875985050865227 7.000000000000000
-0.592499771136318 -5.465809284355629 -2.993571928024315 6.000000000000000
-0.443372466070112 -5.483479778138401 -1.128860655297255 31.000000000000000
-0.452958917431073 -5.485341807426067 -1.231037560281317 26.000000000000000
-0.462177746160760 -5.481599255125801 -1.331938938975064 26.000000000000000
-0.471304738177083 -5.479690845164485 -1.434822666810212 22.000000000000000
-0.480941248094315 -5.479772453714896 -1.538744088985852 21.000000000000000
-0.489959440228414 -5.478110981765711 -1.642510218655875 21.000000000000000
-0.500039194464574 -5.485802036777733 -1.750524726270525 10.000000000000000
-0.511034653251735 -5.498997566514156 -1.861572815295518 10.000000000000000
-0.520058662959469 -5.494988812088622 -1.968308142060505 17.000000000000000
-0.528831744741271 -5.485174715933340 -2.074063480571289 9.000000000000000
-0.540375189987899 -5.503128748768606 -2.191408822771786 6.000000000000000
-0.550883785685117 -5.507561125620322 -2.305496367862037 10.000000000000000
-0.561023078213655 -5.506227251472332 -2.418328877728404 10.000000000000000
-0.570928332331400 -5.498895573007374 -2.530333637388789 6.000000000000000
-0.579478782954110 -5.478698220714733 -2.637372583925757 6.000000000000000
-0.591131858344511 -5.481247814198122 -2.757060304998509 7.000000000000000
-0.601589779572558 -5.477686021755114 -2.876056603090849 5.000000000000000
-0.614775257186517 -5.489080445506663 -3.005160768728958 5.000000000000000
-0.460300514161990 -5.482410136012907 -1.127279263184215 31.000000000000000
-0.469704514649868 -5.480373081743783 -1.228570125721643 24.000000000000000
-0.479728928536601 -5.484384528425913 -1.331271009031441 26.000000000000000
-0.488658514820596 -5.478594847869760 -1.433201782300127 23.000000000000000
-0.498443448152465 -5.478667082572377 -1.537109341371574 14.000000000000000
-0.509727365486944 -5.499898284842910 -1.647723541512881 7.000000000000000
-0.518577010665750 -5.492270300470695 -1.751282053404452 17.000000000000000
-0.528324709268723 -5.490315734590456 -1.857338454909224 12.000000000000000
-0.538950716958394 -5.501346766639549 -1.969299336788242 6.000000000000000
-0.549342507563534 -5.506379292244776 -2.080806069609018 9.000000000000000
-0.559625049683831 -5.509367544478712 -2.192629714204152 16.000000000000000
-0.569177084643036 -5.502716344630294 -2.302219424133128 7.000000000000000
-0.578317477269596 -5.490463672943566 -2.410172929806402 6.000000000000000
-0.588345645413305 -5.483238521031162 -2.521912116431338 9.000000000000000
-0.599328627579081 -5.484677285022348 -2.639048365476473 6.000000000000000
-0.611563825241036 -5.490708797201988 -2.760630832252887 4.000000000000000
-0.622991266945248 -5.494089978480760 -2.883496694929133 7.000000000000000
-0.634798190784639 -5.491339761131102 -3.005242566715232 8.000000000000000
-0.477563137313509 -5.485196987537898 -1.126475680067907 29.000000000000000
-0.486765988117119 -5.479246718291463 -1.226951617996654 24.000000000000000
-0.496246157689693 -5.475502785917556 -1.327759387986879 21.000000000000000
-0.507787292224257 -5.496723316756325 -1.436593486301152 10.000000000000000
-0.517385352406123 -5.492855709562515 -1.539750808099178 14.000000000000000
-0.527075085794035 -5.494914897014319 -1.644901859840068 17.000000000000000
-0.536787835459656 -5.494890433222875 -1.750800373137457 6.000000000000000
-0.548563431128037 -5.511767332344544 -1.863286085422349 7.000000000000000
-0.558266408388067 -5.511399700423415 -1.971601369303179 18.000000000000000
-0.567691951888426 -5.505174249089113 -2.079068621986110 11.000000000000000
-0.576589205121113 -5.493355727870278 -2.184991472663591 7.000000000000000
-0.586654807836070 -5.490475614881650 -2.295847046044834 8.000000000000000
-0.597092151863987 -5.489233361668678 -2.408396575177359 9.000000000000000
-0.607660046532379 -5.485615184964789 -2.521784945298073 5.000000000000000
-0.619626889609048 -5.494185794619142 -2.642417259230390 5.000000000000000
-0.632473243431331 -5.503666141610861 -2.765953831507257 9.000000000000000
-0.642038952697165 -5.489291478530245 -2.879807119748605 6.000000000000000
-0.653175789168755 -5.479581600095134 -2.997656897702376 5.000000000000000
-0.494492412632860 -5.484031404552485 -1.124845237235167 30.000000000000000
-0.505609792537333 -5.497511990485470 -1.229657127885184 10.000000000000000
-0.516340254043509 -5.505291136599605 -1.333606479937805 10.000000000000000
-0.524822704652303 -5.491671812011524 -1.433911377261338 23.000000000000000
-0.535298912876242 -5.495483579762651 -1.539135893426110 11.000000000000000
-0.545527423371144 -5.501328631222112 -1.645480817769045 4.000000000000000
-0.556549668278046 -5.512634615038977 -1.755122807046183 12.000000000000000
-0.566617642570836 -5.510527707254788 -1.861549041713583 18.000000000000000
-0.575689737171035 -5.502654455189115 -1.967170372210639 8.000000000000000
-0.584449437893326 -5.489022065206997 -2.071683282313412 9.000000000000000
-0.594650041553612 -5.488393824007065 -2.181747134908491 13.000000000000000
-0.605671250550730 -5.492874407065219 -2.295593405737224 7.000000000000000
-0.617496515206967 -5.502526526545500 -2.412985677199591 5.000000000000000
-0.628645439541215 -5.502397966647703 -2.528273230482666 9.000000000000000
-0.638743054055606 -5.492879271597689 -2.640581113798281 7.000000000000000
-0.650528891906862 -5.491681093801950 -2.758740822326855 5.000000000000000
-0.661055397200697 -5.484440006594338 -2.876092414353079 7.000000000000000
-0.671900716310012 -5.471262742186845 -2.991958795401464 6.000000000000000
-0.513236008248844 -5.502330057800331 -1.127187976720741 9.000000000000000
-0.523090198225242 -5.500172469089090 -1.228852902016794 21.000000000000000
-0.532870426453340 -5.496310828793519 -1.330043751873799 20.000000000000000
-0.543349882190211 -5.501984872362985 -1.435227288554936 6.000000000000000
-0.554002685863273 -5.505728552230768 -1.540639520850729 7.000000000000000
-0.564804179363163 -5.515317500629013 -1.648309772533438 18.000000000000000
-0.574451969677854 -5.511354404368484 -1.753374336524104 12.000000000000000
-0.583865460111028 -5.501695613905857 -1.857240559652513 8.000000000000000
-0.592248380179894 -5.486366545655954 -1.960040811534659 13.000000000000000
-0.603146115367291 -5.491440468339065 -2.071303055133502 11.000000000000000
-0.613919276855792 -5.494474292467525 -2.182886018764689 7.000000000000000
-0.625540995849153 -5.502560769320269 -2.298377567426552 7.000000000000000
-0.637151503969427 -5.508473514492091 -2.414344942448911 10.000000000000000
-0.646770663743453 -5.493818226609930 -2.523103050112970 5.000000000000000
-0.656994039261007 -5.484349946672738 -2.635273134763499 6.000000000000000
-0.668936780960328 -5.483200689631555 -2.753292171256524 7.000000000000000
-0.681351552838172 -5.490100338473392 -2.877890605102867 4.000000000000000
-0.693656080411099 -5.487311472317278 -2.999586312791130 5.000000000000000
-0.530213991055341 -5.501064855289860 -1.125503701275087 30.000000000000000
-0.540588900387238 -5.502783058409688 -1.228022089726990 8.000000000000000
-0.551670503839241 -5.510503994557363 -1.332074089966883 5.000000000000000
-0.562336940891907 -5.516095644866023 -1.437515217866724 15.000000000000000
-0.573171891381427 -5.519751904510599 -1.543182716201115 17.000000000000000
-0.582158690012253 -5.510182900370383 -1.645410484988183 8.000000000000000
-0.590717422209805 -5.494855200618691 -1.746778535284750 10.000000000000000
-0.601057673282794 -5.492816471613406 -1.852911461068860 15.000000000000000
-0.611203268782359 -5.492514500726326 -1.960920963104020 6.000000000000000
-0.623546578730903 -5.508694000060939 -2.076506700650300 6.000000000000000
-0.634082995094134 -5.507892392465563 -2.186929388058156 13.000000000000000
-0.644189760428814 -5.501179583097819 -2.296531895503823 7.000000000000000
-0.653812903729772 -5.488868208985624 -2.404503788997506 5.000000000000000
-0.664401555129594 -5.481575417751849 -2.516252275317404 8.000000000000000
-0.676072349127279 -5.482937848943919 -2.633385411094197 5.000000000000000
-0.689518178389679 -5.492433180482456 -2.756736918823695 4.000000000000000
-0.701241413513597 -5.492181767231550 -2.877811653959093 7.000000000000000
-0.712808732187159 -5.482370943123354 -2.995739733907887 6.000000000000000
-0.547962103249975 -5.507553002078138 -1.125389471561716 5.000000000000000
-0.559287310244869 -5.516999301359086 -1.229762746794029 8.000000000000000
-0.569762507957760 -5.516903567642329 -1.332201827750217 27.000000000000000
-0.579795819431560 -5.514745608828354 -1.435758223963234 12.000000000000000
-0.588330033235226 -5.495396137708043 -1.534986990712612 7.000000000000000
-0.598236896294720 -5.493563307823683 -1.639076202879225 18.000000000000000
-0.608977964585863 -5.497269403296987 -1.746188691471700 10.000000000000000
-0.620318508700304 -5.502735486399672 -1.854914314592889 5.000000000000000
-0.631059827582762 -5.506099002787351 -1.964443245684474 10.000000000000000
-0.641462278348932 -5.503559754168472 -2.073261242041742 12.000000000000000
-0.651273698803907 -5.495381646214049 -2.180671257136217 6.000000000000000
-0.661505393369999 -5.488739154648106 -2.290067489567764 9.000000000000000
-0.672574662443044 -5.487426006539669 -2.402620058642587 7.000000000000000
-0.685104014924182 -5.494572426543304 -2.520984398643672 4.000000000000000
-0.696506954450554 -5.492220116252105 -2.636630474116107 5.000000000000000
-0.710167583514645 -5.501605834213953 -2.760146961353319 8.000000000000000
-0.721149344220003 -5.494206642520469 -2.877702728326020 5.000000000000000
-0.732395440284132 -5.480863782986388 -2.993772388041408 5.000000000000000
-0.566552372107181 -5.521788721233344 -1.126837933209546 25.000000000000000
-0.576046419340717 -5.511738453387570 -1.227145363929451 22.000000000000000
-0.585426609061600 -5.500043703831504 -1.326702280598802 8.000000000000000
-0.596414188244780 -5.505646295297032 -1.431973808120243 11.000000000000000
-0.606292498890527 -5.497821252727094 -1.534265582893448 16.000000000000000
-0.616347596800014 -5.495958439395505 -1.638407907804456 7.000000000000000
-0.628985799010901 -5.514792432021569 -1.750383185579734 6.000000000000000
-0.639646839042781 -5.512598022389100 -1.856884208790189 16.000000000000000
-0.649242096402912 -5.504645983466988 -1.962589436677757 8.000000000000000
-0.659346522237929 -5.498375912084895 -2.069992389603725 7.000000000000000
-0.669734372682253 -5.493908709211690 -2.178790252616311 13.000000000000000
-0.680103511487971 -5.487256131807608 -2.288172930003662 6.000000000000000
-0.692705849238152 -5.496851967768301 -2.405488942163943 4.000000000000000
-0.704510599439275 -5.496673925682194 -2.520711123870248 8.000000000000000
-0.717009403058384 -5.501442820364616 -2.639840981988209 6.000000000000000
-0.727588249399852 -5.485863305951314 -2.751057819776273 6.000000000000000
-0.738702940035038 -5.478581484492070 -2.868352642923156 7.000000000000000
-0.751975034859915 -5.479301569736108 -2.991777373875746 5.000000000000000
-0.583171821927732 -5.516475843907602 -1.124279720395859 9.000000000000000
-0.593611002675134 -5.514197836995377 -1.226233335046194 6.000000000000000
-0.603106281389460 -5.502477315555788 -1.325846976518233 24.000000000000000
-0.613406544821868 -5.500351058865410 -1.429169912924234 11.000000000000000
-0.625142310156222 -5.507855471738587 -1.535652693317027 5.000000000000000
-0.636674675692128 -5.517353463638265 -1.643386781804933 10.000000000000000
-0.646887011568214 -5.513309020369290 -1.748531052106016 14.000000000000000
-0.657693790935314 -5.511102818867810 -1.855017142031960 7.000000000000000
-0.666055495154290 -5.491910952363491 -1.956708503759491 11.000000000000000
-0.676282150499630 -5.485704349595795 -2.063901703507551 10.000000000000000
-0.688188157358453 -5.492383879769339 -2.176883179530193 7.000000000000000
-0.701496943652628 -5.507722384379666 -2.295421567958528 7.000000000000000
-0.711962313359373 -5.498940502930878 -2.405140122650292 9.000000000000000
-0.723459685125651 -5.495109666068685 -2.518753628657715 5.000000000000000
-0.734224652595792 -5.485541177852206 -2.630995276622221 7.000000000000000
-0.747318994390480 -5.487823203548213 -2.750848379540579 6.000000000000000
-0.760531697722843 -5.494568722171914 -2.875553876053952 3.000000000000000
-0.773510547411448 -5.491622446828562 -2.997362229449742 7.000000000000000
-0.598912356311834 -5.503322078182648 -1.120113428740334 12.000000000000000
-0.609472689338450 -5.501078140674236 -1.221845461237490 22.000000000000000
-0.620803575993793 -5.504860332954153 -1.324964767343343 6.000000000000000
-0.632575016131971 -5.514249164599266 -1.431338184945099 6.000000000000000
-0.643611755324709 -5.514004899903086 -1.535940712479684 18.000000000000000
-0.653526466894571 -5.508211937297032 -1.639256054094895 10.000000000000000
-0.663410666400825 -5.500410799249090 -1.743052301914548 8.000000000000000
-0.674348166417152 -5.498259088670382 -1.849324618422457 15.000000000000000
-0.685119689399222 -5.497844053612766 -1.957472291847898 7.000000000000000
-0.696903497745103 -5.502732164792803 -2.068976615959049 6.000000000000000
-0.709010912633510 -5.509269873585191 -2.182263271416446 12.000000000000000
-0.720155538497183 -5.506128452013256 -2.293466692651529 7.000000000000000
-0.730269211992435 -5.493697684252848 -2.401581277419284 5.000000000000000
-0.741425954487146 -5.486273356062940 -2.513462197162851 8.000000000000000
-0.754283228367154 -5.491071719553591 -2.632429330888635 5.000000000000000
-0.769050639445494 -5.503921375199086 -2.757721271193859 3.000000000000000
-0.780480153190516 -5.496424460450585 -2.875356131166402 7.000000000000000
-0.794131622421598 -5.496912855448763 -2.999107871663199 5.000000000000000
-0.615882597343063 -5.501816290734045 -1.118306813581786 11.000000000000000
-0.628350484674825 -5.515084554174191 -1.223468033386317 5.000000000000000
-0.639414474314768 -5.514922061557594 -1.325913943279164 12.000000000000000
-0.650019578857482 -5.512701842032197 -1.429481356281630 17.000000000000000
-0.660745625733003 -5.508616321058116 -1.533002754546401 7.000000000000000
-0.670322228074288 -5.499024836444002 -1.635105488560765 12.000000000000000
-0.680791884218729 -5.495042947099136 -1.739954430414189 13.000000000000000
-0.692818311612554 -5.500430545948559 -1.848675903529434 6.000000000000000
-0.704704904534217 -5.507463291579213 -1.959536447589808 8.000000000000000
-0.715708412224503 -5.504829809559211 -2.068426028761817 13.000000000000000
-0.726049548309156 -5.496561494125550 -2.175913554049512 7.000000000000000
-0.737823035701541 -5.497152525497768 -2.288434241878424 8.000000000000000
-0.747551759557906 -5.481130004155299 -2.394820294788398 7.000000000000000
-0.761335901974846 -5.491821353824307 -2.514758410273938 3.000000000000000
-0.775392407646810 -5.503701199117621 -2.637260647906259 6.000000000000000
-0.788866038221434 -5.505764315361090 -2.757446949160989 7.000000000000000
-0.799934065541090 -5.494707834217877 -2.873289979687327 4.000000000000000
-0.811184898274459 -5.477767137650779 -2.987525773359059 6.000000000000000
-0.635086926829785 -5.519739639152334 -1.120429788670560 7.000000000000000
-0.646409393880686 -5.521273971908395 -1.223336675911291 24.000000000000000
-0.656710496765943 -5.513337820963069 -1.324047353902273 11.000000000000000
-0.665593979833871 -5.495722063734825 -1.423614994367204 7.000000000000000
-0.677376571198718 -5.499353543450735 -1.528978608394149 20.000000000000000
-0.688014742798724 -5.497406519841633 -1.633197253639105 8.000000000000000
-0.700548695692236 -5.508556900385371 -1.742823112131758 5.000000000000000
-0.711792357531720 -5.506312865666522 -1.849263168171251 13.000000000000000
-0.721901444267660 -5.498322956757743 -1.954917637128239 11.000000000000000
-0.733539414263103 -5.499442003433530 -2.065056313661579 7.000000000000000
-0.744506363758546 -5.494878819567370 -2.173925719198551 14.000000000000000
-0.756441954056017 -5.495455956575629 -2.286429399627583 6.000000000000000
-0.769328497498936 -5.501240172730212 -2.402330998192235 4.000000000000000
-0.781800627762753 -5.500918813280437 -2.517673526914701 8.000000000000000
-0.793493839182921 -5.494803854720536 -2.631773950271392 6.000000000000000
-0.806615607707059 -5.493365124107872 -2.750041249624932 6.000000000000000
-0.818331667798580 -5.485907800500468 -2.867522429883699 6.000000000000000
-0.832859058001544 -5.489908680559007 -2.993010602825796 3.000000000000000
-0.652103309067290 -5.518132766324188 -1.118568749573691 25.000000000000000
-0.662644157842888 -5.511895068228506 -1.219742381371973 6.000000000000000
-0.673054707159306 -5.503980060627957 -1.320303318703914 13.000000000000000
-0.682975601440236 -5.494081251870907 -1.421714291156261 18.000000000000000
-0.694918580676109 -5.497697591093739 -1.527060366558308 7.000000000000000
-0.707654774533894 -5.510962105289244 -1.635782807754541 7.000000000000000
-0.718915111130208 -5.510657076109047 -1.742066489120872 17.000000000000000
-0.730309368643745 -5.508377372431330 -1.848556990995325 9.000000000000000
-0.739041085017720 -5.489136153600468 -1.950278585713359 11.000000000000000
-0.750830095571608 -5.490290316412769 -2.060269499140368 11.000000000000000
-0.763467946255705 -5.496833396058966 -2.173370495569257 6.000000000000000
-0.776603287348461 -5.504694447093279 -2.288967098544664 6.000000000000000
-0.789683852494705 -5.510379239928231 -2.405039718024861 8.000000000000000
-0.801281946034845 -5.502744061988027 -2.517254661573621 5.000000000000000
-0.812066658702551 -5.489433556050463 -2.627977734976237 7.000000000000000
-0.825882083819295 -5.491554320601614 -2.747938486849376 5.000000000000000
-0.840428196942075 -5.501650064929384 -2.874582232055155 3.000000000000000
-0.853543460535342 -5.495025734177342 -2.994663877917873 7.000000000000000
-0.667695852774928 -5.504798834964088 -1.114319538895907 8.000000000000000
-0.678823393396656 -5.502472579407725 -1.216129233857791 24.000000000000000
-0.690796419950346 -5.506162185750064 -1.319315841790684 12.000000000000000
-0.702310233479724 -5.507765643993872 -1.423763304341848 5.000000000000000
-0.714436309141645 -5.511290824752165 -1.529362679413443 12.000000000000000
-0.726383330530114 -5.516848993237988 -1.636075928231014 15.000000000000000
-0.735780386486174 -5.501353807526931 -1.737696609673621 8.000000000000000
-0.747309892227975 -5.499104745946477 -1.844038751785640 15.000000000000000
-0.758186772085546 -5.494855093930722 -1.950928065136716 7.000000000000000
-0.771185776518282 -5.503372803916363 -2.063817889061348 5.000000000000000
-0.784545607955431 -5.513485491899988 -2.178615597035461 11.000000000000000
-0.795243845873267 -5.502889583657951 -2.286905650801866 7.000000000000000
