# This PCD file was generated using the MATLAB® pcwrite function
# from Computer Vision Toolbox®.
# .PCD v.7 - Point Cloud Data file format
VERSION .7
FIELDS x y z intensity
SIZE 8 8 8 8
TYPE F F F F
COUNT 1 1 1 1
WIDTH 638
HEIGHT 1
VIEWPOINT 0 0 0 1 0 0 0
POINTS 638
DATA ascii
3.932677561251314 -4.487340957363614 -2.155030007122273 23.000000000000000
3.927209024137967 -4.437848683848013 -2.253470288243840 20.000000000000000
7.322403168781891 -9.405539882760612 -1.725157195044104 36.000000000000000
7.414947354943795 -9.438633877249659 -1.948421477670348 32.000000000000000
7.578611480087645 -9.560799352828123 -2.194670765478291 27.000000000000000
7.376176323314988 -9.220110516997668 -2.333855372921886 10.000000000000000
7.106054710613121 -8.801875319494604 -2.437654879150208 4.000000000000000
6.936694960863247 -8.512778243053274 -2.561844180377340 19.000000000000000
6.976411083249352 -8.482137145056026 -2.759712639021762 25.000000000000000
5.637009358833041 -6.790578223720969 -2.377345762810965 29.000000000000000
5.555586727094092 -6.629271052965255 -2.487613600230730 31.000000000000000
6.121830435773664 -7.235893093537705 -2.900480521315147 28.000000000000000
6.160299953244950 -7.212264574514069 -3.078104643000242 29.000000000000000
3.953281395990890 -4.584147033376189 -2.077778183661721 9.000000000000000
3.909637911954556 -4.490166071590596 -2.155774581663001 25.000000000000000
3.904172930740657 -4.440763642906250 -2.254026618013620 27.000000000000000
3.924752100358390 -4.420707600655188 -2.367506971529729 0.000000000000000
7.325118983661428 -9.466951625244940 -1.741457665427195 37.000000000000000
7.422204413260231 -9.506319773800257 -1.967019574390298 31.000000000000000
7.595013602013163 -9.641057000870662 -2.217334501422334 24.000000000000000
7.349493062374581 -9.244149309027934 -2.343556118062092 14.000000000000000
7.117096752089369 -8.870898863340184 -2.459793320136624 0.000000000000000
5.909236228509929 -7.297623371282846 -2.198262115074576 1.000000000000000
6.934015277795519 -8.484043424996718 -2.762324979083436 29.000000000000000
5.870163634963621 -7.116505185259765 -2.492723178959417 20.000000000000000
5.523652452462772 -6.633374285106063 -2.489952846560677 28.000000000000000
6.122053263187730 -7.282730901246099 -2.919691501293866 12.000000000000000
6.133267720255271 -7.227068426859869 -3.084401566780807 30.000000000000000
3.927646952467850 -4.584036949862599 -2.077414416784580 13.000000000000000
3.886619059395617 -4.492905567172908 -2.156476721787049 26.000000000000000
3.878699689716715 -4.440778763004541 -2.253112668074837 27.000000000000000
3.911460256185187 -4.434840146931879 -2.373827191571648 13.000000000000000
7.332340917193561 -9.534737477224018 -1.758946819681840 35.000000000000000
7.429101441905715 -9.574132095582616 -1.985660188000259 26.000000000000000
7.610975449840166 -9.721495356479808 -2.240063556212585 23.000000000000000
7.327583209665102 -9.274278207334632 -2.354780677343859 14.000000000000000
5.858830050680739 -7.281105174480596 -2.195362811790390 8.000000000000000
6.901448298081605 -8.497830463448322 -2.768781826615492 33.000000000000000
5.841801907482790 -7.127328203376779 -2.497768435039640 20.000000000000000
5.494192397731320 -6.640320944684315 -2.493345473114018 21.000000000000000
6.118451672182393 -7.256326590834396 -3.096858011326669 20.000000000000000
3.899601996541293 -4.580947554087729 -2.075697419006155 16.000000000000000
3.863621375703020 -4.495559576747068 -2.157136517962742 30.000000000000000
3.855715553797705 -4.443515442482241 -2.253581167968953 34.000000000000000
3.893219083290330 -4.443361555715027 -2.377142666037891 13.000000000000000
7.336801294275412 -9.599504313283616 -1.775896311040679 34.000000000000000
7.442868444343824 -9.651445851633170 -2.006291676996094 26.000000000000000
7.628912488910068 -9.805218561510781 -2.263573987647956 21.000000000000000
7.283743734813502 -9.276603385767190 -2.358917300105648 17.000000000000000
5.828033217598211 -7.288695174280634 -2.199703496153518 35.000000000000000
5.894893321900729 -7.304634655840694 -2.381680345491658 5.000000000000000
5.801235109754057 -7.123094296394078 -2.497518537675942 19.000000000000000
5.457419001654288 -6.638262323021462 -2.493342168884254 19.000000000000000
3.876500087939793 -4.583516924771011 -2.076541275424225 17.000000000000000
3.835765123910476 -4.492412696432384 -2.155012315307078 28.000000000000000
3.832753022768977 -4.446166758818880 -2.254007413303979 27.000000000000000
3.865217204677850 -4.440632928161165 -2.374442915294689 13.000000000000000
7.343315275296265 -9.667532514019754 -1.793465878674988 34.000000000000000
7.451414705086596 -9.722659629679054 -2.025676335999509 26.000000000000000
7.648794549726108 -9.892245470088170 -2.287873575091123 20.000000000000000
7.177225248412816 -9.198376261880021 -2.342501201371670 14.000000000000000
5.802081728133958 -7.302274406753182 -2.205831387148962 72.000000000000000
5.858933676509632 -7.306358291914401 -2.383887724796411 21.000000000000000
5.763177414086682 -7.121698057551074 -2.498243156867319 14.000000000000000
5.445008123329308 -6.665803776322149 -2.504444559667318 30.000000000000000
3.853419734817940 -4.586000788762051 -2.077342800981459 17.000000000000000
3.815260896970336 -4.497746867814453 -2.156955586263746 30.000000000000000
3.804956109741811 -4.443062059851882 -2.251517829208377 28.000000000000000
3.842127928859442 -4.443400736207263 -2.374687111126644 14.000000000000000
7.347085493677494 -9.732525366767300 -1.810488534574243 33.000000000000000
7.461970101414624 -9.797148272891434 -2.045762431118188 27.000000000000000
7.670591331182126 -9.982594771979306 -2.312970005954477 18.000000000000000
7.145746923595475 -9.215690816152645 -2.350353097942020 12.000000000000000
5.783328717039454 -7.324939011230852 -2.214687660239061 21.000000000000000
5.823015585904360 -7.307947167127692 -2.386028853301074 52.000000000000000
5.727599867189695 -7.123160738575084 -2.499951370285245 11.000000000000000
5.442144081806212 -6.705265956755119 -2.520018301926097 38.000000000000000
3.937389488779448 -4.761322033121551 -2.031943038217454 0.000000000000000
3.825518878917877 -4.582598523751834 -2.075474904004001 21.000000000000000
3.787498666327817 -4.494394581863312 -2.154732279213059 28.000000000000000
3.786894257064898 -4.451213844951396 -2.254733508049654 25.000000000000000
3.819060648552656 -4.446083003025271 -2.374888985381494 12.000000000000000
7.355262814765948 -9.803955055601904 -1.828725838790262 33.000000000000000
7.472123496515435 -9.871784747814104 -2.065899403564158 26.000000000000000
7.126183689676651 -9.248439778968345 -2.362120165398538 14.000000000000000
5.776489450593777 -7.362873820468489 -2.228151415644486 8.000000000000000
5.801571408058227 -7.327629456421331 -2.394059261294027 59.000000000000000
5.692065561069803 -7.124489687176567 -2.501593961017222 11.000000000000000
5.436658202079495 -6.741789738056981 -2.534481154317649 19.000000000000000
3.901876890743578 -4.749166262857445 -2.026711754842776 1.000000000000000
3.804913951447307 -4.587805184826435 -2.077502685476318 20.000000000000000
3.764619361349662 -4.496687049105661 -2.155214756481748 29.000000000000000
3.761590572624052 -4.450760490811541 -2.253590783034236 26.000000000000000
3.798421321065511 -4.451499054316514 -2.376553731160754 12.000000000000000
7.360694893922665 -9.872346599753575 -1.846414713144047 33.000000000000000
7.484245450045754 -9.949720121755810 -2.086747599063425 26.000000000000000
7.118388607692088 -9.296725148294442 -2.377845484246020 13.000000000000000
5.764671861525160 -7.394702950990479 -2.239760387977416 8.000000000000000
5.782446355673183 -7.350304849845891 -2.403054048100856 23.000000000000000
5.651779340284755 -7.119643873742135 -2.501048859941867 12.000000000000000
5.442979446404331 -6.793325337453238 -2.554582080406860 0.000000000000000
3.876092060444600 -4.748623510738342 -2.026430628524304 2.000000000000000
3.777108072279763 -4.584197792605153 -2.075535884679688 23.000000000000000
3.746563354174110 -4.504666308361228 -2.158420830949067 32.000000000000000
3.743524505795003 -4.458777479431928 -2.256737393544702 37.000000000000000
3.777784659219953 -4.456843768612717 -2.378182224040110 12.000000000000000
7.368119654711996 -9.944034479539631 -1.864737789495809 32.000000000000000
7.112720925776761 -9.348171408559313 -2.394375983051022 10.000000000000000
5.759845505964070 -7.435760549194135 -2.254158113902762 15.000000000000000
5.767996219779667 -7.379045363641874 -2.414020117961496 14.000000000000000
5.611577386049547 -7.114637353995264 -2.500426875857922 13.000000000000000
6.005858556762813 -7.544471726851991 -2.837836034532266 0.000000000000000
3.850349365125065 -4.747981026013504 -2.026101168031045 4.000000000000000
3.761321279065532 -4.595083902977028 -2.080127438463860 18.000000000000000
3.750001139041372 -4.538622865262965 -2.174067603387852 12.000000000000000
3.730217902693791 -4.472464143122721 -2.262751176533620 14.000000000000000
3.752379975881986 -4.456451022082820 -2.376752575338226 12.000000000000000
7.111514129995859 -9.405923821904757 -2.412521468379885 9.000000000000000
5.752432326388177 -7.473779370831777 -2.267629653725150 10.000000000000000
5.781916117547973 -7.444476962879427 -2.436986819577919 16.000000000000000
5.566704584726815 -7.103401852508190 -2.497594480327957 16.000000000000000
5.971183253642335 -7.549666149000080 -2.840564660426448 1.000000000000000
3.827030721070849 -4.750194968413837 -2.026984859843753 10.000000000000000
3.764546538599338 -4.629351565543413 -2.095296981652123 9.000000000000000
3.741341217575652 -4.558148813963756 -2.182793916848390 48.000000000000000
3.738256703502283 -4.511953288848368 -2.281810320331346 35.000000000000000
3.731769704125738 -4.461639414917735 -2.378302883701281 14.000000000000000
7.114708492861091 -9.470021736224089 -2.432298373360804 6.000000000000000
5.878728421969456 -7.756220837234021 -2.173102497533263 0.000000000000000
5.768445864824888 -7.542714468949919 -2.290483517617671 10.000000000000000
5.759978208776006 -7.464079830240395 -2.444946486576768 14.000000000000000
5.533797065813873 -7.107185014564341 -2.500023040522189 15.000000000000000
5.874913173125385 -7.476324372029180 -2.813720862566210 1.000000000000000
3.798992142369474 -4.746397740719253 -2.025297802573776 17.000000000000000
3.765202707285754 -4.660750609095293 -2.109160101288161 40.000000000000000
3.718364690425465 -4.560233829878680 -2.183164548499990 36.000000000000000
3.720009767378025 -4.519888889325204 -2.284904321578185 26.000000000000000
3.725354866243394 -4.483837986902503 -2.388917752407304 9.000000000000000
7.390940235476354 -9.988766220721059 -2.338650855386211 2.000000000000000
7.122244018099356 -9.540504171415447 -2.453722947248203 4.000000000000000
5.849233717310169 -7.766747238585537 -2.178393502608241 9.000000000000000
5.767599073601043 -7.590144151511844 -2.306810934053098 18.000000000000000
5.820406293962776 -7.591152847335543 -2.488116762048757 5.000000000000000
5.493842194943541 -7.101705659355338 -2.499174796795590 13.000000000000000
5.599842473126360 -7.172782817526579 -2.700187943230163 17.000000000000000
3.716096348427028 -4.716545978842911 -1.893261196630852 8.000000000000000
3.789907685767560 -4.766244745208020 -2.033693871293541 17.000000000000000
3.742071347455507 -4.662783376467397 -2.109728232425171 38.000000000000000
3.695412272502957 -4.562234166216102 -2.183493427708217 35.000000000000000
3.694673060302233 -4.519115363055448 -2.283596136113637 21.000000000000000
3.728243085492988 -4.517462697079413 -2.405609751387312 10.000000000000000
7.124725721724321 -9.604825703167254 -2.473570415811421 0.000000000000000
5.817383964336700 -7.774054069303139 -2.182757691322960 18.000000000000000
5.764154266268263 -7.634539019719315 -2.322213502467982 13.000000000000000
6.163856455294133 -8.091183383413004 -2.653633180096702 41.000000000000000
5.458670068957719 -7.102176643656248 -2.500401567862406 17.000000000000000
3.667937930344755 -4.728953224565401 -1.780665251812011 0.000000000000000
3.695498457761350 -4.721223668508756 -1.895331691445115 23.000000000000000
3.776023105611900 -4.780135261589827 -2.039542200296584 10.000000000000000
3.718963999711754 -4.664731171374632 -2.110254455664959 33.000000000000000
3.670134691273278 -4.561229845502897 -2.182383477853059 35.000000000000000
3.671728748321335 -4.521134286203305 -2.283700673220458 21.000000000000000
3.726242273158400 -4.545431650457185 -2.419277915566833 16.000000000000000
6.205059629953067 -8.641051446791742 -1.641085275854075 16.000000000000000
5.780881338107625 -7.774990033375769 -2.185306599913718 15.000000000000000
5.772134127905677 -7.694531421752461 -2.342360734201852 38.000000000000000
6.515770395482116 -8.608681046440841 -2.825056954117752 40.000000000000000
5.437571860723405 -7.120884487150267 -2.508033568382147 27.000000000000000
3.390128930632886 -4.399431277438697 -1.656999175853760 2.000000000000000
3.665542075692353 -4.713790284189145 -1.892532284536519 13.000000000000000
3.773786598072109 -4.808910664983168 -2.051735101913128 11.000000000000000
3.691199737007456 -4.660683315488563 -2.108065353408811 31.000000000000000
3.644902275417285 -4.560127555385804 -2.181226279245001 33.000000000000000
3.646471789868477 -4.520171180902746 -2.282300589543295 20.000000000000000
3.714743388150437 -4.561968563958565 -2.426854009133313 6.000000000000000
6.164770438893027 -8.639326411227533 -1.644762778037337 28.000000000000000
6.219374430684633 -8.640897828690036 -1.838663211435416 5.000000000000000
5.749059054578384 -7.782067086225711 -2.189555172278788 5.000000000000000
5.779776940052829 -7.754642582936838 -2.362547974991458 43.000000000000000
5.822614215692424 -7.742951377349895 -2.542464092806796 5.000000000000000
5.439676823598308 -7.170222610260384 -2.526445680025236 27.000000000000000
3.373127778172345 -4.406123271848435 -1.659924909566014 1.000000000000000
3.409607284938039 -4.413601246494085 -1.772175555480695 8.000000000000000
3.664170082773793 -4.700185011762375 -2.005258701442239 19.000000000000000
3.670492333179375 -4.665410255333685 -2.109841980220013 25.000000000000000
3.624374036181055 -4.564794871826691 -2.182827667041399 35.000000000000000
3.623587706750215 -4.522014518155465 -2.282319177740029 20.000000000000000
3.686894605792299 -4.558369198066191 -2.423719129746893 5.000000000000000
6.138257042931939 -8.656795189816664 -1.652058569319964 26.000000000000000
6.176530886404259 -8.636112130727646 -1.841252148618705 26.000000000000000
5.731089995773779 -7.807903338571449 -2.199062735773247 6.000000000000000
5.761649358249887 -7.780526960895785 -2.372302865013756 0.000000000000000
5.797326262926443 -7.759619272805826 -2.549426002511884 4.000000000000000
5.791449836931489 -7.683938553666232 -2.708544459629183 19.000000000000000
3.385450095377480 -4.411315884136155 -1.771416332225903 3.000000000000000
3.652801471091378 -4.716736553109978 -2.012226056224517 30.000000000000000
3.645149140609464 -4.664128383562325 -2.108897855364829 28.000000000000000
3.599212830610776 -4.563510802802833 -2.181582029782194 36.000000000000000
3.600729209605428 -4.523773695026639 -2.282296368852935 20.000000000000000
3.661426023080719 -4.557538666229794 -2.422062093202334 5.000000000000000
6.127618193507209 -8.696805330086731 -1.663639481731093 9.000000000000000
6.149746122696412 -8.653646967189450 -1.848565063402763 30.000000000000000
6.188007333174053 -8.633756285591062 -2.037810993591146 22.000000000000000
6.493479678213468 -8.748244825114499 -2.875892582918587 35.000000000000000
3.424120670786428 -4.572874237411106 -1.612549174665656 0.000000000000000
4.862971368762278 -6.378564054575327 -2.561606930869350 4.000000000000000
3.655219351496411 -4.751290885001088 -2.026867143784159 1.000000000000000
3.622161936740976 -4.665724343626684 -2.109251823115062 26.000000000000000
3.576406888340627 -4.565076515841359 -2.181698002369578 36.000000000000000
3.577896660868528 -4.525448860634341 -2.282232261170885 20.000000000000000
3.636003225920259 -4.556609840715116 -2.420357680301741 5.000000000000000
6.131993238215760 -8.683982827953590 -1.858592254983145 18.000000000000000
6.156391790964906 -8.644957462531945 -2.043627800543227 31.000000000000000
6.200171593975500 -8.630928751649444 -2.237083165465751 16.000000000000000
6.501623541838353 -8.816633450674091 -2.900015502832348 6.000000000000000
3.409027696176450 -4.582695923335046 -1.616639799383348 17.000000000000000
3.310554363737011 -4.410562404512377 -1.662759477688770 3.000000000000000
4.873672518040001 -6.435075046793997 -2.584511816384455 3.000000000000000
4.602851164715363 -6.023019555489513 -2.569243583171775 5.000000000000000
3.596900804171810 -4.664253859741726 -2.108216435006754 27.000000000000000
3.549030091999529 -4.560650909609612 -2.178950363537185 35.000000000000000
3.550497282031906 -4.521191276221535 -2.279178469120472 20.000000000000000
3.610626647094040 -4.555582954537493 -2.418606036464368 5.000000000000000
6.102787409610138 -8.698170835702609 -1.865141803197970 0.000000000000000
6.136099012623188 -8.672088016564537 -2.053187361212432 21.000000000000000
6.163742128128976 -8.635854568489247 -2.241123568621653 29.000000000000000
6.214068710536086 -8.631992767219247 -2.438400075338543 6.000000000000000
3.387040533551096 -4.583192109428469 -1.617430836899841 14.000000000000000
3.343908184106082 -4.484535333746045 -1.691022441202842 14.000000000000000
3.576265530754425 -4.668663860595050 -2.109835683249171 25.000000000000000
3.528586051726936 -4.564996433715345 -2.180392633386083 36.000000000000000
3.527738283357388 -4.522685562916934 -2.279026525321153 21.000000000000000
3.587580346602156 -4.557359171025780 -2.418346675508118 6.000000000000000
6.124720257621897 -8.712032345911217 -2.065768179073511 1.000000000000000
6.140914763454103 -8.659805141743252 -2.250076615368591 25.000000000000000
6.172836898471732 -8.630709017278960 -2.440387363498991 22.000000000000000
6.230877110710020 -8.636251776998289 -2.641232605342403 2.000000000000000
3.439204146586893 -4.725358532700200 -1.556009503678222 15.000000000000000
3.367358390299056 -4.586708529084969 -1.619277104297393 19.000000000000000
3.287936703467210 -4.438777138190637 -1.674130745034365 6.000000000000000
3.369091271607530 -4.507985644172097 -1.810810159988133 2.000000000000000
4.719079046915479 -6.258108835480203 -2.669225871343208 3.000000000000000
3.553357051285126 -4.670007719091078 -2.110065773788108 25.000000000000000
3.505870494056948 -4.566304760663436 -2.180382744300490 34.000000000000000
3.507282338337153 -4.527034074546763 -2.280313374753744 21.000000000000000
3.562287185888289 -4.556143497805676 -2.416503762186011 5.000000000000000
6.127001211431700 -8.696499929929702 -2.262326484804343 7.000000000000000
6.147470197506736 -8.651511942085442 -2.448594553354936 28.000000000000000
6.187120903466386 -8.631988804880677 -2.641863016566896 21.000000000000000
3.421501340175515 -4.732080462339317 -1.559063525685745 21.000000000000000
3.343151274015006 -4.583941670738213 -1.618894165262696 21.000000000000000
3.250448376327919 -4.417402982371485 -1.666421388533736 8.000000000000000
3.274474578039257 -4.410705542983584 -1.771856893450631 5.000000000000000
4.734075320193086 -6.320197663813127 -2.695546021322914 5.000000000000000
3.530475534482319 -4.671267847359077 -2.110254771029099 24.000000000000000
3.480914675129808 -4.564556181754105 -2.178912547138212 35.000000000000000
3.482301871257714 -4.525423790543355 -2.278599831786888 21.000000000000000
3.534778529427326 -4.551916284605368 -2.413069183808050 6.000000000000000
6.128765940362817 -8.681802680444878 -2.459470322258178 14.000000000000000
6.154703201225318 -8.643365592771772 -2.647254376616631 28.000000000000000
3.419564856078932 -4.760714630574192 -1.569329921114963 26.000000000000000
3.321249874530858 -4.584195360839408 -1.619566659507168 23.000000000000000
3.289905764768834 -4.500888675122392 -1.698265348258567 25.000000000000000
3.261867071725795 -4.423199805446047 -1.776992596352904 3.000000000000000
3.402252746090518 -4.572764345360422 -1.950148326030613 0.000000000000000
3.509879949496178 -4.675453056294752 -2.111761695482889 24.000000000000000
3.460522043012315 -4.568671808993929 -2.180240604045801 35.000000000000000
3.457369877735680 -4.523717149154474 -2.276840065303595 22.000000000000000
3.511843752244239 -4.553420247194030 -2.412677664394180 6.000000000000000
6.131230419747935 -8.667311294693661 -2.656475947723465 20.000000000000000
3.392789220116077 -4.754792033242238 -1.568195787674579 23.000000000000000
3.306115766378799 -4.593730758814658 -1.623508624806667 18.000000000000000
3.286130770190617 -4.525828322352293 -1.708018313075201 31.000000000000000
3.357139208005836 -4.583010095477036 -1.841308991675630 20.000000000000000
4.657245278717950 -6.301810900983618 -2.687359630213903 11.000000000000000
3.484794824571534 -4.673537529806270 -2.110509888186209 24.000000000000000
3.437889863744491 -4.569730842185182 -2.180108555724781 36.000000000000000
3.434731704090331 -4.524871824915578 -2.276522147707309 22.000000000000000
3.488936580754897 -4.554840424438626 -2.412245062876094 6.000000000000000
3.859356336993970 -4.993373932587747 -2.779640522344148 0.000000000000000
6.493568344159464 -9.240357851300992 -2.834094730179328 44.000000000000000
3.377251421538283 -4.764517973038338 -1.572210329540005 26.000000000000000
3.282006671745800 -4.590715737132197 -1.623004999210671 16.000000000000000
3.286695311364122 -4.556995512999372 -1.720116805557312 19.000000000000000
3.330500722907927 -4.577302505577893 -1.839122265413619 25.000000000000000
4.631305817939467 -6.309154037868055 -2.690308113799101 13.000000000000000
3.461996347104119 -4.674547395314876 -2.110576210799469 24.000000000000000
3.415286189902384 -4.570707091279286 -2.179935991443627 37.000000000000000
3.414356584291680 -4.528907597856072 -2.277654294528824 23.000000000000000
3.463825527437816 -4.553243181854147 -2.410218505108793 6.000000000000000
3.821367746834050 -4.978481026729607 -2.769742805740234 28.000000000000000
5.565371248190390 -8.315212463853179 -1.619376593259419 0.000000000000000
6.505865788068529 -9.319376649314430 -2.860302294487846 44.000000000000000
3.350564130752542 -4.758413436793653 -1.570988723783868 28.000000000000000
3.257948137442620 -4.587607594811474 -1.622456930017635 18.000000000000000
3.287083078689073 -4.588211261197277 -1.732229273629344 22.000000000000000
3.312844761539098 -4.583818264891464 -1.841839759694194 25.000000000000000
3.353203006078650 -4.599032620190255 -1.960950932188526 0.000000000000000
3.434771307274685 -4.669417839577814 -2.107867905290795 24.000000000000000
3.392711376309435 -4.571600715195228 -2.179723014028851 37.000000000000000
3.391765402214548 -4.529903221069517 -2.277258058298267 23.000000000000000
3.443206489260254 -4.557430049007471 -2.411257020875178 6.000000000000000
3.646026673256731 -4.783039704183873 -2.659473009094301 36.000000000000000
3.861013123071011 -4.972511974664442 -3.042164743285964 12.000000000000000
5.531057779074528 -8.317852702647395 -1.623307198776792 50.000000000000000
6.506658804819869 -9.382619541479970 -2.881669262337071 40.000000000000000
3.330586409791325 -4.761694021423544 -1.572852254107997 28.000000000000000
3.236155601228033 -4.587546584194778 -1.622975434959893 43.000000000000000
3.262910601949667 -4.585210395902045 -1.731416769295095 13.000000000000000
3.288524752860176 -4.581011653716975 -1.840804492154226 13.000000000000000
3.333105037276011 -4.602590358886976 -1.962324335772740 0.000000000000000
3.416484929574550 -4.676317962287061 -2.110586895055822 26.000000000000000
3.370165776888440 -4.572411874051962 -2.179469726864438 36.000000000000000
3.369203434838385 -4.530816287298976 -2.276821465424890 23.000000000000000
3.418173305371265 -4.555653076918475 -2.409143477921253 6.000000000000000
3.567046748406234 -4.712013607018384 -2.618473078333652 28.000000000000000
3.595975528995804 -4.706314746080468 -2.744876227753973 7.000000000000000
3.629519624552340 -4.707233592417998 -2.877734386874679 26.000000000000000
5.542632125467940 -8.320447110685159 -1.809693067904534 44.000000000000000
6.509300122273270 -9.449149963501386 -2.904044229249089 10.000000000000000
3.299604280276782 -4.749055075113362 -1.569443049976379 29.000000000000000
3.223212346026018 -4.599991153689382 -1.627908952738105 77.000000000000000
3.238789352874212 -4.582116345621443 -1.730559829331951 20.000000000000000
3.268669967946658 -4.584302173287544 -1.842212318011874 14.000000000000000
3.370403480722223 -4.685864869258174 -1.997677352373898 2.000000000000000
3.393772699795020 -4.677078982315570 -2.110531462761920 28.000000000000000
3.347649744656754 -4.573140729165143 -2.179176233889879 35.000000000000000
3.348874242292660 -4.534630267306491 -2.277843200954935 23.000000000000000
3.395390602427398 -4.556733257855170 -2.408544928728612 6.000000000000000
3.690728582658367 -4.909429888236941 -2.726613412575089 37.000000000000000
3.567928898005122 -4.702356324106064 -2.740764926059814 31.000000000000000
3.603493833596561 -4.706412067153729 -2.875110718803944 29.000000000000000
3.563508099694449 -4.565786251833463 -3.054719287591021 18.000000000000000
5.523293293255670 -8.346052605955917 -1.818301706343966 0.000000000000000
5.545315035030487 -8.310939435336616 -1.993266380700667 31.000000000000000
3.257773462596837 -4.720401889874096 -1.560722289349671 31.000000000000000
3.208022689250982 -4.609253974452904 -1.631708375979299 33.000000000000000
3.223503128261507 -4.591440096775261 -1.734384449830156 61.000000000000000
3.246628309754019 -4.584422937954955 -1.842339530123646 15.000000000000000
3.345658690056226 -4.683300868848217 -1.996428035641853 14.000000000000000
3.366697628441777 -4.671662576532138 -2.107685899196936 32.000000000000000
3.322968804241815 -4.570768441431259 -2.177404459638074 32.000000000000000
3.324168556842729 -4.532395395503170 -2.275827626275725 23.000000000000000
3.370447287784836 -4.554770910239847 -2.406342252360769 7.000000000000000
3.719018625464225 -4.981685627808879 -2.765162702108618 32.000000000000000
3.570506225757411 -4.738839270888460 -2.760221668002933 28.000000000000000
3.575338717346501 -4.702627833269146 -2.870691296187279 56.000000000000000
3.526879510100570 -4.551081455925415 -3.042190411983536 20.000000000000000
4.915206587361475 -7.538174318494395 -1.480227059457401 22.000000000000000
5.523558910846133 -8.333276021824190 -2.001305499543302 1.000000000000000
5.555285387395984 -8.311012193256698 -2.181674720970834 34.000000000000000
3.227069582607483 -4.707469346072117 -1.557180228747115 31.000000000000000
3.212456539304685 -4.646906063973963 -1.645552495571191 7.000000000000000
3.214741711428679 -4.610123766401291 -1.741737806692671 33.000000000000000
3.226803786905339 -4.587571240338896 -1.843676608201342 48.000000000000000
3.325337421543551 -4.686804933796200 -1.997760382384653 34.000000000000000
3.341879975682710 -4.669192034602974 -2.106167128252423 39.000000000000000
3.302707789274844 -4.574352179387173 -2.178469049033997 31.000000000000000
3.301696350268600 -4.533061763809721 -2.275270589646276 23.000000000000000
3.345554759342419 -4.552713018480024 -2.404093909065074 7.000000000000000
3.505310458413195 -4.728369620436919 -2.623062203354754 20.000000000000000
3.568515366057965 -4.769583961019636 -2.776319671974469 37.000000000000000
3.564588531669689 -4.721695011000884 -2.880226522858625 19.000000000000000
3.547182671445650 -4.654937510285464 -2.972397663626634 26.000000000000000
3.499028039708719 -4.547422488324524 -3.037073507508924 23.000000000000000
4.892010482008654 -7.552128246021795 -1.485931492215308 78.000000000000000
4.927024147830452 -7.543938048334280 -1.648948686160367 12.000000000000000
5.528926345707847 -8.326869991380709 -2.188157583534850 7.000000000000000
5.558326193019218 -8.302221943631229 -2.368532189075038 12.000000000000000
3.213852046276547 -4.719919712527261 -1.562022065126047 15.000000000000000
3.210151255017372 -4.675133368428566 -1.656055828562600 7.000000000000000
3.210236195697437 -4.635083607516531 -1.751456399447494 7.000000000000000
3.217868137192953 -4.606223839409601 -1.851238124308441 39.000000000000000
3.307201339599489 -4.693327509536707 -2.000374011923101 58.000000000000000
3.323639012666343 -4.675806842101549 -2.108743248676482 37.000000000000000
3.280282567589214 -4.574835103081110 -2.178055567791408 32.000000000000000
3.274911382679994 -4.527641398348509 -2.271660802926742 22.000000000000000
3.325051401419953 -4.556504391827799 -2.404937609413015 7.000000000000000
3.419050718478929 -4.644463558965495 -2.575054646781363 13.000000000000000
3.497176516679226 -4.707271998740342 -2.738271487829953 13.000000000000000
3.517013538919157 -4.648274500215797 -2.965764646377544 27.000000000000000
3.477682948207036 -4.552077780944168 -3.037526162518514 22.000000000000000
2.972510603951476 -4.619253259972717 -0.910661314445419 3.000000000000000
4.899288606858456 -7.551352635635391 -1.653223674821204 39.000000000000000
4.934577844679832 -7.544292646367258 -1.816591853104008 8.000000000000000
3.286880848952528 -4.983415599898975 -1.310926101453721 14.000000000000000
5.531725144616649 -8.318119831370801 -2.375020714724764 12.000000000000000
5.570763150302882 -8.306657353403104 -2.559495562875936 22.000000000000000
3.215710126383797 -4.754707726988021 -1.574251191517135 8.000000000000000
3.212015363018973 -4.709736472640122 -1.668813850018473 6.000000000000000
3.212088160337025 -4.669503425969338 -1.764744572192622 7.000000000000000
3.208838140662004 -4.624871510464333 -1.858791354275180 7.000000000000000
3.291219185946976 -4.702887543027136 -2.004276684416279 46.000000000000000
3.303221884931478 -4.679298411834795 -2.109907000772806 33.000000000000000
3.257888316012604 -4.575236380195003 -2.177602302012168 33.000000000000000
3.256844155186682 -4.534148953576025 -2.274036810522593 22.000000000000000
3.300240592055774 -4.554268791527569 -2.402603548042281 7.000000000000000
3.391610896963997 -4.639694811438234 -2.570957716553930 15.000000000000000
3.424179339771976 -4.641681059471630 -2.698372989640438 12.000000000000000
3.620043414387321 -4.863587843015159 -2.962482568932033 13.000000000000000
3.501919641472593 -4.661433276054103 -2.971789803731747 31.000000000000000
3.449940775312712 -4.548217419296051 -3.032313135816732 22.000000000000000
2.905161276396115 -4.544582060070569 -0.897683606519155 20.000000000000000
2.938697809818495 -4.559675104227462 -0.999837049951769 7.000000000000000
4.904476441523954 -7.548494468956756 -1.819944528458428 52.000000000000000
3.268931074331803 -4.989533736824399 -1.313889919422117 29.000000000000000
3.289746097296151 -4.980237924251560 -1.423129239799133 10.000000000000000
5.541729284564950 -8.319397653229212 -2.565006671344059 35.000000000000000
3.221671280485361 -4.795955642674197 -1.588618152356741 5.000000000000000
3.220138288348966 -4.753929853358985 -1.684967760300240 6.000000000000000
3.213741013392603 -4.703980418289930 -1.778049752729987 6.000000000000000
3.214796585735003 -4.665402519462798 -1.875133660232448 6.000000000000000
3.281669054748511 -4.721704339316328 -2.012118373055464 16.000000000000000
3.280660464780998 -4.679647926860887 -2.109650728307774 27.000000000000000
3.235525382963817 -4.575556177978308 -2.177109358383581 34.000000000000000
3.232314290145454 -4.531555101764303 -2.271848738229593 23.000000000000000
3.275481775499244 -4.551938344333204 -2.400224249473660 7.000000000000000
3.372820041202153 -4.646633274941851 -2.573353488712397 20.000000000000000
3.398784044913570 -4.639998374568069 -2.695660605500372 17.000000000000000
3.424983648016362 -4.634375119815321 -2.820835028791521 10.000000000000000
3.473990044865379 -4.657423741114506 -2.966879381417318 27.000000000000000
3.428642654327180 -4.552709609800353 -3.032685403690890 23.000000000000000
2.889054672918229 -4.549502580122568 -0.900380680794213 26.000000000000000
2.916035115971181 -4.554786761989916 -1.000328323713944 10.000000000000000
3.007963953902352 -4.660672120154359 -1.125116989668185 1.000000000000000
3.246709660190762 -4.989048775265274 -1.315098741710319 25.000000000000000
3.273785883674626 -4.989650569785501 -1.426958015952812 23.000000000000000
3.298192440760399 -4.985015722469175 -1.537897548748317 6.000000000000000
3.336541189627357 -5.000879392085292 -1.657224847670557 15.000000000000000
3.227999212073824 -4.798216597539699 -1.701153305832643 6.000000000000000
3.217337866811372 -4.741672808574646 -1.792565766493791 6.000000000000000
3.214080607390384 -4.696615484607315 -1.887724778389016 6.000000000000000
3.280600275721393 -4.752940384922850 -2.025245547657408 3.000000000000000
3.260273764575238 -4.682994529078184 -2.110742338762882 25.000000000000000
3.211051986517191 -4.572744135080625 -2.175125792907103 34.000000000000000
3.209977259499085 -4.531888601942696 -2.271130047593183 25.000000000000000
3.252912627560514 -4.552504437800055 -2.399376331730426 7.000000000000000
3.356150671279588 -4.656473607270228 -2.577357215534035 20.000000000000000
3.375569523629680 -4.641147428937212 -2.694602184741191 18.000000000000000
3.399496497579142 -4.632820994675342 -2.817870329564957 15.000000000000000
3.431295963485885 -4.633271443822547 -2.949165939519850 10.000000000000000
3.407352699755805 -4.557129853432720 -3.033021443778317 23.000000000000000
2.885569121081248 -4.574391745563351 -0.907020951017272 17.000000000000000
2.897647601647357 -4.556448274097011 -1.002238246199818 10.000000000000000
2.908706145224065 -4.537255478139136 -1.096695621780330 26.000000000000000
3.156679166258290 -4.883532013506157 -1.288575847349064 4.000000000000000
3.266288889101850 -5.012054483283206 -1.434493203026949 0.000000000000000
3.277800999418708 -4.987997617311799 -1.539739061627500 27.000000000000000
3.322318833580987 -5.013676137879026 -1.662182045533980 27.000000000000000
3.380538731234800 -5.059523528770759 -1.794300852264326 11.000000000000000
3.220713830558090 -4.779433157625667 -1.807102961493942 6.000000000000000
3.217452722868711 -4.734150507057121 -1.902850743656875 5.000000000000000
4.358955783598081 -6.359244844970732 -2.709445234425309 15.000000000000000
3.237764527033116 -4.683186814387928 -2.110408995675738 21.000000000000000
3.195157914038083 -4.582065506771090 -2.178912021174420 34.000000000000000
3.187672265962061 -4.532140898589562 -2.270371863846998 26.000000000000000
3.230375066782516 -4.552988647310752 -2.398488546015856 7.000000000000000
3.343694140676595 -4.672200955360237 -2.584617520318218 20.000000000000000
3.360861587153955 -4.653950338004413 -2.700313249121593 17.000000000000000
3.376174565893294 -4.634072007086643 -2.816623143722139 17.000000000000000
3.403583604715196 -4.628998542601962 -2.944134361455473 13.000000000000000
3.383968056445640 -4.558645009151284 -3.031437262008831 23.000000000000000
2.907086511699311 -4.639412285804402 -0.921632060978297 18.000000000000000
2.931776620904896 -4.641162078817998 -1.022426722683470 16.000000000000000
2.898661189773691 -4.552161781453608 -1.101658033317453 26.000000000000000
2.982962364799679 -4.646115800092504 -1.227142820669007 6.000000000000000
3.300942395375132 -5.099760782230046 -1.460726965056602 14.000000000000000
3.257419658643659 -4.990910637771634 -1.541546033454651 37.000000000000000
3.288970576024175 -4.997459934718375 -1.657507390913184 26.000000000000000
3.332012834120724 -5.021308486031184 -1.781237648761666 8.000000000000000
3.223868498540610 -4.817260590125196 -1.821660866062659 2.000000000000000
3.220603146185956 -4.771752819115100 -1.917997499488517 5.000000000000000
4.330933659040465 -6.362500172853670 -2.710572853001260 14.000000000000000
3.215287177361333 -4.683297603398940 -2.110036000899872 24.000000000000000
3.170748867388932 -4.579091322809330 -2.176849622120027 33.000000000000000
3.165399655402609 -4.532312162605296 -2.269574295386065 28.000000000000000
3.212101459235125 -4.559398254812650 -2.400724009458594 7.000000000000000
3.331162096660882 -4.687907058169099 -2.591862361264237 16.000000000000000
3.341882283565489 -4.660838079618759 -2.702593420839847 17.000000000000000
3.354986372442745 -4.638146989693862 -2.817101159475327 18.000000000000000
3.384336274252564 -4.636113304280395 -2.946357991258461 15.000000000000000
3.358520858930577 -4.557236602768235 -3.027925393155792 24.000000000000000
2.886543330514258 -4.637626985883775 -0.922975373921877 37.000000000000000
2.908977955446748 -4.636185809997333 -1.022864795515139 31.000000000000000
2.930440138359250 -4.633289974876240 -1.122657830420452 15.000000000000000
2.934630103675542 -4.601970289008307 -1.216667421149298 17.000000000000000
2.994406314701573 -4.657820668478077 -1.335160455815624 2.000000000000000
3.211775711904716 -4.954766537425602 -1.531269191235320 30.000000000000000
3.276845216830596 -5.013362134287481 -1.663472733598877 42.000000000000000
3.285881333469648 -4.986066580556073 -1.769211100071890 25.000000000000000
3.243695717252514 -4.880573884647547 -1.845852824678622 0.000000000000000
3.223531474225293 -4.809421542099465 -1.933164572680897 5.000000000000000
4.305045214569399 -6.368783967058103 -2.712983686175928 14.000000000000000
3.192842062040172 -4.683327066593345 -2.109623462654230 25.000000000000000
3.152724543816015 -4.585231253582486 -2.179118698462863 33.000000000000000
3.145267861119106 -4.535442406812948 -2.270259072505606 26.000000000000000
3.187501450136174 -4.556721817916616 -2.398177803980029 7.000000000000000
3.318554579325832 -4.703591643524948 -2.599091601886671 13.000000000000000
3.333380160089666 -4.682400779423725 -2.713380852216048 16.000000000000000
3.344271452925008 -4.656720973621280 -2.826386778731200 18.000000000000000
3.365076635133796 -4.643168475470518 -2.948550448622746 17.000000000000000
3.337289072351291 -4.561422998463435 -3.028145616817906 23.000000000000000
2.872255762439030 -4.645829922042093 -0.926288923929324 76.000000000000000
2.890392973360844 -4.637795219830605 -1.024736043311952 53.000000000000000
2.909626846480622 -4.631695803012777 -1.123619865698830 26.000000000000000
2.901224538044738 -4.580676913540159 -1.212200970799519 54.000000000000000
2.962735203461562 -4.640178818551226 -1.331103544446533 4.000000000000000
2.992463223475946 -4.648238032597509 -1.437355574817166 6.000000000000000
3.239468661066378 -4.990457579919966 -1.656548199415938 40.000000000000000
3.282010059387703 -5.014777440835107 -1.779865497437719 28.000000000000000
3.082429803117924 -4.670264839096485 -1.766543755911379 28.000000000000000
3.289290805818664 -4.941888482139400 -1.986430020125232 0.000000000000000
4.281258929936712 -6.378114711451170 -2.716685241688354 14.000000000000000
3.172530540205481 -4.686378937831628 -2.110569217654709 24.000000000000000
3.128391808298613 -4.582089368375132 -2.176975359069024 34.000000000000000
3.120952961941637 -4.532412282178602 -2.267861440587645 27.000000000000000
3.167144730938226 -4.559983398267659 -2.398760025682761 7.000000000000000
3.318417632320769 -4.737164323244043 -2.616196206725794 10.000000000000000
3.322672626003766 -4.701013116322623 -2.722452258638873 11.000000000000000
3.331377312415922 -4.672364690949810 -2.833890152614591 16.000000000000000
3.345804919085704 -4.650164046098650 -2.950711742578957 16.000000000000000
3.311924195603984 -4.559834484244108 -3.024546841903953 24.000000000000000
2.857940620290835 -4.653993465151526 -0.929580678165440 133.000000000000000
2.875959755791007 -4.646026098198380 -1.028054948886514 87.000000000000000
2.892995686245533 -4.636673366779200 -1.126159868386892 43.000000000000000
2.909544133272176 -4.625311676022560 -1.225171349726573 21.000000000000000
2.935367017049307 -4.628965833658657 -1.328870116316817 7.000000000000000
2.964901597443744 -4.637257264311177 -1.434763946462538 10.000000000000000
3.006043995637883 -4.662997115409797 -1.548469372628770 6.000000000000000
3.250819994118465 -5.001727242632550 -1.775688586477654 22.000000000000000
3.025035610139510 -4.615365247752431 -1.745997476294575 12.000000000000000
3.195262011421482 -4.834333405195058 -1.943210026163382 8.000000000000000
2.990253667071701 -4.486220089707589 -1.910657560440454 3.000000000000000
3.152230592808892 -4.689362016315778 -2.111480563418597 24.000000000000000
3.106202678221694 -4.581936070338483 -2.176251540870108 35.000000000000000
3.102953006507965 -4.538445648976944 -2.269999500150923 27.000000000000000
3.142631621046573 -4.557132026669804 -2.396129834941868 7.000000000000000
3.311835981749859 -4.761814981347092 -2.628361564436170 0.000000000000000
3.322250137515670 -4.734410353449059 -2.740075296215684 5.000000000000000
3.320478850437345 -4.690912130810553 -2.843150995781383 15.000000000000000
3.336852169413957 -4.671563050300019 -2.962012198919671 16.000000000000000
3.286611717481857 -4.558150114992654 -3.020902339981121 22.000000000000000
2.845651184737275 -4.665483684485706 -0.933524142484281 109.000000000000000
2.861498879159329 -4.654217177356593 -1.031351846155679 137.000000000000000
2.876357525942602 -4.641598953545046 -1.128672909838312 80.000000000000000
2.896927536505752 -4.636939700918520 -1.229397030369108 32.000000000000000
2.918453108027300 -4.634084856079473 -1.331309506801735 10.000000000000000
2.941586768675824 -4.632697320806969 -1.434143234178253 16.000000000000000
2.967946365915242 -4.635953352733703 -1.540093140146934 10.000000000000000
3.011887127716896 -4.666497596144306 -1.657091462494660 6.000000000000000
2.999235953864294 -4.608116020911949 -1.743466211563146 11.000000000000000
2.964678931897894 -4.517073240965038 -1.815689446606541 5.000000000000000
2.968738459694711 -4.485450387662191 -1.910128471530273 5.000000000000000
3.125703572747090 -4.682929223595759 -2.108149677349520 23.000000000000000
3.084047238188012 -4.581702437542359 -2.175488774147849 37.000000000000000
3.080791937704229 -4.538306667415555 -2.269050380460545 28.000000000000000
3.122319735898005 -4.560243513611155 -2.396638179490011 8.000000000000000
3.321847461781592 -4.727043292262946 -2.863056959567358 9.000000000000000
3.325725272547066 -4.690064470201857 -2.971469447410140 19.000000000000000
3.267501679446740 -4.564961668849052 -3.022901542682399 21.000000000000000
2.831270943213283 -4.673574037369780 -0.936774553101923 64.000000000000000
2.847010486188818 -4.662368376462600 -1.034626702580401 105.000000000000000
2.859712569160757 -4.646472568214699 -1.131159005008701 116.000000000000000
2.880147481990481 -4.641907758132048 -1.231845301560787 62.000000000000000
2.897410553094610 -4.632561374415118 -1.331827015453992 13.000000000000000
2.922455764418537 -4.634594367297353 -1.435508047916316 23.000000000000000
2.944517448960241 -4.631487302517702 -1.539201857907526 16.000000000000000
2.975791494793109 -4.642909791164143 -1.649117840128212 11.000000000000000
2.979721356471265 -4.610369229058699 -1.744521771012831 12.000000000000000
2.943244961404323 -4.516118064212699 -1.815304582503943 5.000000000000000
2.943118959888388 -4.478303805560828 -1.906879601087834 22.000000000000000
3.103390840617266 -4.682635111651075 -2.107580058148533 24.000000000000000
3.063993301089577 -4.584482089139727 -2.176155560899825 36.000000000000000
3.058664926070813 -4.538087466069675 -2.268062393393432 28.000000000000000
3.099957499601758 -4.560252121911250 -2.395518333318854 8.000000000000000
3.312456338871385 -4.705649729174859 -2.979075969052713 17.000000000000000
3.246341410485603 -4.568844225169840 -3.022971037356886 23.000000000000000
2.820928270821134 -4.688380319283748 -0.941359481088336 37.000000000000000
2.834532485859590 -4.673839672344386 -1.038626161728262 58.000000000000000
2.847145877135992 -4.657977110310982 -1.135246930903784 87.000000000000000
2.863360666325570 -4.646823440909425 -1.234266423246732 98.000000000000000
2.882553861405079 -4.640863746482729 -1.335156516173643 13.000000000000000
2.903338808490080 -4.636426333312256 -1.436840498762498 34.000000000000000
2.923200618304636 -4.630187994108255 -1.539350929567121 23.000000000000000
2.950166399931379 -4.635322500865058 -1.646814964010838 16.000000000000000
2.958161852906187 -4.609348514961696 -1.744330450239014 12.000000000000000
2.919787337971205 -4.511903101030899 -1.813603128562249 6.000000000000000
2.929931688727399 -4.489986913624316 -1.911643746850706 6.000000000000000
3.085228443117492 -4.688516068858394 -2.109786369715059 24.000000000000000
3.041895515882321 -4.584094329872689 -2.175317642387909 35.000000000000000
3.036572311926950 -4.537788222673044 -2.267035650493491 28.000000000000000
3.075577475375073 -4.557139878907874 -2.392763113438734 8.000000000000000
3.288941692352257 -4.706657490126476 -2.977458952688252 12.000000000000000
3.239390730140916 -4.592786828927116 -3.036313692870143 15.000000000000000
2.812538868400145 -4.706553554678922 -0.946612249380721 21.000000000000000
2.824033633674394 -4.688648404799198 -1.043357164181912 36.000000000000000
2.834530766602836 -4.669453016622153 -1.139317277469368 55.000000000000000
2.850639636688486 -4.658341528633998 -1.238429596038625 81.000000000000000
2.863590109691583 -4.642511872855207 -1.336559461481229 43.000000000000000
2.884236168592756 -4.638193311374177 -1.438140650320834 50.000000000000000
2.906009354556173 -4.635335460680181 -1.541632510747252 33.000000000000000
2.928712548924332 -4.634110349203858 -1.646766552118070 23.000000000000000
2.934589825289915 -4.605036137687713 -1.742885173468159 13.000000000000000
2.902532022357121 -4.517162002030545 -1.815703529379968 6.000000000000000
2.906453102063419 -4.485833581913440 -1.909660556455928 5.000000000000000
3.062962444016149 -4.688073174836229 -2.109143658911731 24.000000000000000
3.021878377627855 -4.586732177160174 -2.175914291930801 35.000000000000000
3.012470696016315 -4.534332906536340 -2.264434012804232 30.000000000000000
3.053294291395117 -4.556981211814379 -2.391562711974064 8.000000000000000
3.263435750220421 -4.704664607244479 -2.973957302572522 14.000000000000000
3.236335706295259 -4.622505781604850 -3.053461559474445 13.000000000000000
2.804059939707585 -4.724721418931393 -0.951856800163766 13.000000000000000
2.811448925836132 -4.700068457542363 -1.047323938344865 20.000000000000000
2.823888718241527 -4.684253200335040 -1.144188997560787 34.000000000000000
2.835844380146915 -4.666497344038288 -1.241688040400149 50.000000000000000
2.852757009430089 -4.657345466324390 -1.341747611309647 39.000000000000000
2.869212151743677 -4.646476806787981 -1.441450280886508 66.000000000000000
2.886776836687201 -4.637161466262629 -1.542799089633924 46.000000000000000
2.907294356421846 -4.632820550183665 -1.646680683955942 33.000000000000000
2.915149198775988 -4.607072968250272 -1.743834801262245 12.000000000000000
2.903608426710417 -4.551110955969835 -1.829329705325862 13.000000000000000
2.889144546634759 -4.491092184657629 -1.911679569791390 6.000000000000000
3.038694379301384 -4.684410436254613 -2.107049912534357 26.000000000000000
2.999839523045363 -4.586190887695270 -2.175001604044426 34.000000000000000
2.994524575186308 -4.540032493736180 -2.266404978026853 30.000000000000000
3.033075946429548 -4.559794270741965 -2.391924436870706 8.000000000000000
3.634616860821311 -5.371424651209938 -3.099145284011002 14.000000000000000
3.254083011202231 -4.725957423527016 -2.985179087963554 17.000000000000000
3.241125323093222 -4.663811848960266 -3.078240678943361 12.000000000000000
2.797492521641942 -4.746278623255533 -0.957778064994690 9.000000000000000
2.804835173788664 -4.721591893156439 -1.053533882871027 12.000000000000000
2.813177331093680 -4.699035960422075 -1.149047582339753 22.000000000000000
2.825051793374384 -4.681290356378074 -1.246702436042305 29.000000000000000
2.837817143227525 -4.665524651430519 -1.345009140674551 37.000000000000000
2.856181704984798 -4.658015393576883 -1.445760236453792 60.000000000000000
2.871606395964622 -4.645469740626123 -1.546112413630440 57.000000000000000
2.887937353505618 -4.634703428629227 -1.647712951602749 46.000000000000000
2.895723108801584 -4.609043862375958 -1.744751659075582 12.000000000000000
