# This PCD file was generated using the MATLAB® pcwrite function
# from Computer Vision Toolbox®.
# .PCD v.7 - Point Cloud Data file format
VERSION .7
FIELDS x y z intensity
SIZE 8 8 8 8
TYPE F F F F
COUNT 1 1 1 1
WIDTH 631
HEIGHT 1
VIEWPOINT 0 0 0 1 0 0 0
POINTS 631
DATA ascii
-2.635442133081310 -5.534557267877435 -1.907752764842680 15.000000000000000
-2.675259741604919 -5.554587224803341 -2.033619944089725 5.000000000000000
-2.698053879874967 -5.537941580332776 -2.148088525669494 10.000000000000000
-2.725156143930522 -5.529469709112410 -2.266519959586953 4.000000000000000
-2.763429778555957 -5.541899256185148 -2.395914959526877 11.000000000000000
-2.667377714094008 -5.287100542653324 -2.406102238523865 12.000000000000000
-2.826536937607229 -5.535707219161579 -2.647672661804011 4.000000000000000
-2.827180875681532 -5.472010158007427 -2.746941777112167 0.000000000000000
-2.721945605201427 -5.204195830491997 -2.738203403732883 0.000000000000000
-2.927865033012656 -5.530743428600301 -3.046322943395262 8.000000000000000
-2.866730146949704 -5.350754650744867 -3.082230836926704 1.000000000000000
-2.758394063419371 -5.088189552940293 -3.062334610104199 1.000000000000000
-2.708285703250204 -4.932625298899045 -3.098737196057720 3.000000000000000
-2.391612817719266 -4.139263523213121 -3.067423286003776 23.000000000000000
-2.400559043282656 -5.544505235423316 -0.896349247825485 24.000000000000000
-2.422504616537686 -5.530048742646187 -1.002213693186698 18.000000000000000
-2.459662760696875 -5.549902465803768 -1.114551803958108 9.000000000000000
-2.483222856441162 -5.538884262786955 -1.222795718302615 14.000000000000000
-2.504716640657013 -5.522389969644366 -1.329987809412983 5.000000000000000
-2.541152664791768 -5.539809450909016 -1.445942731176049 16.000000000000000
-2.564121956223139 -5.526699801847405 -1.555574457836812 17.000000000000000
-2.603047574684361 -5.546541648814711 -1.675685848210715 6.000000000000000
-2.627750755860625 -5.536378365398014 -1.788545934614688 15.000000000000000
-2.658573203811462 -5.537825931170836 -1.906592897298087 4.000000000000000
-2.693666100348113 -5.547434049510496 -2.028842627255000 14.000000000000000
-2.714911319805354 -5.527353100484090 -2.141967373271978 8.000000000000000
-2.755521492884313 -5.545758280181975 -2.271317327025369 7.000000000000000
-2.780640970884301 -5.531226893091283 -2.389573361121891 12.000000000000000
-2.688929302496753 -5.286641650026344 -2.404387504205812 11.000000000000000
-2.840711098203055 -5.518415901773846 -2.637988322869442 6.000000000000000
-2.846373326660075 -5.464553302199111 -2.741961358718036 1.000000000000000
-2.750527428211427 -5.216280852197030 -2.743543135738757 0.000000000000000
-2.949342194275854 -5.526229756817005 -3.042936295083149 5.000000000000000
-2.892844676393981 -5.355801960470228 -3.084446634079157 1.000000000000000
-2.780357175357924 -5.087187336226244 -3.061253825407985 1.000000000000000
-2.729868980439305 -4.931696124582640 -3.097872283424842 2.000000000000000
-2.410932008008764 -4.138904269682474 -3.067608563549628 14.000000000000000
-2.417316281405750 -5.537927557026682 -0.891966573799247 36.000000000000000
-2.452127260421873 -5.552308350688959 -1.003019380453630 4.000000000000000
-2.475140900908338 -5.539603999006915 -1.109364257057735 18.000000000000000
-2.498814391646539 -5.528557044119845 -1.217508786831936 14.000000000000000
-2.536655335764324 -5.547579354683125 -1.333146282683168 8.000000000000000
-2.560313976645992 -5.536464946280688 -1.442280222285658 22.000000000000000
-2.593265449040299 -5.544355682173217 -1.557867253769519 4.000000000000000
-2.622571675643238 -5.543018187614102 -1.672065542343686 17.000000000000000
-2.645756880337375 -5.529316613839939 -1.783839766924450 7.000000000000000
-2.686739492810943 -5.551334923805686 -1.908938831263411 14.000000000000000
-2.708703553476616 -5.533401521009510 -2.021546107975967 14.000000000000000
-2.750165252687170 -5.553973231943570 -2.150249385947221 4.000000000000000
-2.770877106323075 -5.531703718804734 -2.263677987041562 10.000000000000000
-2.799489310133669 -5.523839484251698 -2.384649440624187 4.000000000000000
-2.715575632285948 -5.296012431852699 -2.407135498262703 9.000000000000000
-2.858181461370407 -5.507634032669574 -2.631419027076153 3.000000000000000
-2.872336174305071 -5.469988728166949 -2.743448234522576 0.000000000000000
-2.774109801310149 -5.218649372117975 -2.743769221557752 0.000000000000000
-2.977634776009317 -5.534329948687381 -3.046496210363943 6.000000000000000
-2.915607645748376 -5.354488985962322 -3.083002393002929 2.000000000000000
-2.805753896056454 -5.092313500437819 -3.063865579300559 1.000000000000000
-2.426859460881644 -4.132669825871053 -3.063451854928386 15.000000000000000
-2.438830829546659 -5.542169341912414 -0.889304880465001 4.000000000000000
-2.472268948140881 -5.552816021442983 -0.999860230264462 26.000000000000000
-2.492187942537121 -5.532853929214347 -1.104875855944892 26.000000000000000
-2.525742903004129 -5.543175138767346 -1.217692969872078 3.000000000000000
-2.552407420662753 -5.537145720507331 -1.327717450669786 23.000000000000000
-2.576181659079110 -5.526004397526012 -1.436753095680533 7.000000000000000
-2.617579193852418 -5.551378782914286 -1.557143786719781 17.000000000000000
-2.640430218082488 -5.535951208051523 -1.667365732378393 18.000000000000000
-2.673750520466446 -5.542963949235963 -1.785797528214179 6.000000000000000
-2.699931047820060 -5.533823556380552 -1.900606530522548 14.000000000000000
-2.732080281502458 -5.536380248397970 -2.020457146433522 4.000000000000000
-2.768735898172992 -5.546630465289311 -2.145365238763012 12.000000000000000
-2.791240951511783 -5.527676498847679 -2.260139481246819 8.000000000000000
-2.833599097306935 -5.546324822118300 -2.392609688874417 6.000000000000000
-2.740605383442286 -5.301991544779225 -2.408332159677471 8.000000000000000
-2.879016096422603 -5.503335045354302 -2.627947049526438 2.000000000000000
-2.898361601119318 -5.475333892438058 -2.744885206247463 0.000000000000000
-2.794304437506526 -5.214540362198846 -2.740589630267630 0.000000000000000
-2.997427909036634 -5.526503061805545 -3.041290160110048 11.000000000000000
-2.938387424642394 -5.353103217223630 -3.081519963987490 1.000000000000000
-2.827775757509677 -5.091161388885651 -3.062704683373913 1.000000000000000
-2.446199160876493 -4.132193844975239 -3.063576291342502 6.000000000000000
-2.463596047379432 -5.553573364169348 -0.887759767124639 14.000000000000000
-2.484347625217628 -5.535251425784883 -0.993434713718995 18.000000000000000
-2.510836882677332 -5.529639190658229 -1.101077912649130 3.000000000000000
-2.547866541698334 -5.546996688820447 -1.215475141625353 22.000000000000000
-2.571405973880032 -5.533761660854299 -1.323967219516086 19.000000000000000
-2.608563301344823 -5.550745907233505 -1.440353212308527 7.000000000000000
-2.631967686875931 -5.537301501495011 -1.550488367186952 19.000000000000000
-2.663280970016632 -5.539271890716049 -1.665780716502119 4.000000000000000
-2.696811666527541 -5.546139797305888 -1.784359880747362 14.000000000000000
-2.719776739136306 -5.530009590928324 -1.896974542131189 7.000000000000000
-2.762271961318294 -5.552898342160381 -2.024289903484002 13.000000000000000
-2.782180289601695 -5.529102267734086 -2.136540415973828 14.000000000000000
-2.818419849226958 -5.536985920048409 -2.262043428997146 3.000000000000000
-2.854203816470473 -5.542110515370568 -2.389039055659069 11.000000000000000
-2.763984124892064 -5.304592134441005 -2.407986304896952 8.000000000000000
-2.908439679981636 -5.515270835900936 -2.632221539796545 5.000000000000000
-2.921004635091125 -5.474133137607643 -2.743037424739602 0.000000000000000
-2.817945536440159 -5.216759059729546 -2.740735643287524 0.000000000000000
-2.996454938913798 -5.480691362856906 -3.015190870270875 27.000000000000000
-2.961183721520014 -5.351644536865942 -3.079999304941121 2.000000000000000
-2.851545530824173 -5.093028983784838 -3.063365446035499 1.000000000000000
-2.796461335638798 -4.931545854776016 -3.096975860499845 2.000000000000000
-2.463830944605666 -4.128757581073614 -3.061518889886310 4.000000000000000
-2.480366057371969 -5.546818069375873 -0.883285642746646 17.000000000000000
-2.502844425979426 -5.532052982571971 -0.989577474157673 11.000000000000000
-2.542588480249957 -5.555001303877193 -1.102936232981267 11.000000000000000
-2.561788220772162 -5.532940409082365 -1.209325242214218 28.000000000000000
-2.593717509711004 -5.537400499210940 -1.321877903271322 3.000000000000000
-2.626112967430678 -5.543678903242210 -1.435672281559998 18.000000000000000
-2.649636783048482 -5.530187757615504 -1.545776272115759 8.000000000000000
-2.691224603562394 -5.552939705390608 -1.667283647576770 18.000000000000000
-2.713147263331315 -5.535433320811935 -1.778444792036786 15.000000000000000
-2.751506978604610 -5.550117034951041 -1.901528397115436 5.000000000000000
-2.775545223209174 -5.535300294151378 -2.015674420011423 14.000000000000000
-2.807505137267289 -5.535159994027524 -2.136823517451776 4.000000000000000
-2.845683848491555 -5.546196956473449 -2.263891948490241 10.000000000000000
-2.869638560910226 -5.527885297556390 -2.381151542173872 6.000000000000000
-2.787403471781521 -5.307113679300863 -2.407597615981119 8.000000000000000
-2.922398186450228 -5.497802201485520 -2.622459874463934 3.000000000000000
-2.952332233163500 -5.488975311390832 -2.749223238655921 0.000000000000000
-2.852048472764459 -5.238038279419507 -2.750890490793451 0.000000000000000
-3.017792827259724 -5.475962988530821 -3.011703139418020 37.000000000000000
-2.982255289580523 -5.346991409011581 -3.076644318039597 2.000000000000000
-2.875355179233178 -5.094816670105714 -3.063982978293101 2.000000000000000
-2.821614543979286 -4.936432317729994 -3.099790853860215 3.000000000000000
-2.488421878002524 -4.136838816257804 -3.068015835255927 8.000000000000000
-2.493857164933443 -5.532796927887865 -0.877643774925075 29.000000000000000
-2.532805729014832 -5.553944994947849 -0.990174798792307 4.000000000000000
-2.556370495423085 -5.540912070503651 -1.096933597387408 22.000000000000000
-2.580618374088636 -5.529521111067326 -1.205489564275393 6.000000000000000
-2.621077818120195 -5.551571213829524 -1.322273848012462 19.000000000000000
-2.641957626719873 -5.533046823738785 -1.430059000506914 17.000000000000000
-2.680775864848386 -5.550970866861238 -1.548838015321222 7.000000000000000
-2.705713088042171 -5.538739281803734 -1.660403521256675 18.000000000000000
-2.739649434124145 -5.545363592001737 -1.779145753052531 3.000000000000000
-2.773131443606785 -5.549571401987023 -1.898984794759331 14.000000000000000
-2.797303879678461 -5.534654945971938 -2.013227665656369 7.000000000000000
-2.838058648504925 -5.551234092582730 -2.140954730253207 6.000000000000000
-2.864394408332533 -5.538606527533297 -2.258872817729868 11.000000000000000
-2.904059705470533 -5.550051190926881 -2.388929677733002 7.000000000000000
-2.816074827013292 -5.319400627600412 -2.411629227668795 8.000000000000000
-2.885754928397575 -5.386042864312085 -2.567750914131274 1.000000000000000
-2.971574720643229 -5.481169092063991 -2.744061417650218 0.000000000000000
-2.874089214952505 -5.236884430836082 -2.749259653535898 0.000000000000000
-3.088141834925999 -5.559414519815643 -3.056701850727821 41.000000000000000
-3.015585844187217 -5.364092206928081 -3.085808291503394 2.000000000000000
-2.897451522373690 -5.093442900780625 -3.062704375544893 3.000000000000000
-2.509597628076900 -4.139053086272015 -3.070176427206246 43.000000000000000
-2.518742920807888 -5.543978792189258 -0.875977882503822 3.000000000000000
-2.549722530733268 -5.547013618794935 -0.985601810659184 26.000000000000000
-2.571742799673109 -5.530362655178292 -1.091624420090918 18.000000000000000
-2.612809195636308 -5.554455583323283 -1.207802666037441 9.000000000000000
-2.633419643639507 -5.533854808203894 -1.315057391223750 25.000000000000000
-2.669580643660070 -5.546949208272063 -1.430766811135004 3.000000000000000
-2.698480556576478 -5.543720416948096 -1.544053957765574 16.000000000000000
-2.720129670422683 -5.524506419338724 -1.653511233336932 8.000000000000000
-2.762808404977194 -5.548313209159473 -1.777586636553582 16.000000000000000
-2.789610332404738 -5.538705201779848 -1.892901181022819 15.000000000000000
-2.825989124420309 -5.547502768759555 -2.015672220194341 4.000000000000000
-2.856607950112900 -5.543644186047591 -2.135945729144939 13.000000000000000
-2.884815398116595 -5.534298926520584 -2.255187688575499 4.000000000000000
-2.922959111194489 -5.542318758328088 -2.383826506977746 11.000000000000000
-2.839608229078070 -5.321749587039506 -2.411145461849400 8.000000000000000
-2.965800602337219 -5.491997571567710 -2.616832715530467 2.000000000000000
-2.992544128765355 -5.476522188027191 -2.740481775425237 1.000000000000000
-2.896146851735760 -5.235659498381030 -2.747591496236939 0.000000000000000
-3.036722739013375 -5.359278829264913 -3.082367505109023 1.000000000000000
-2.926620930490129 -5.104304932364982 -3.068787559713382 2.000000000000000
-2.536103113963891 -4.149846439184194 -3.078715889219548 17.000000000000000
-2.542063244890136 -5.551468156167987 -0.873693178427902 16.000000000000000
-2.564953196915305 -5.536450767345085 -0.980371357393703 35.000000000000000
-2.605450560729623 -5.558997166995506 -1.094017309245896 4.000000000000000
-2.628355864470429 -5.543790534329133 -1.202346023899359 22.000000000000000
-2.650743263348045 -5.526697258283404 -1.310344064395933 9.000000000000000
-2.692207826769947 -5.550228549922963 -1.428707129225117 18.000000000000000
-2.716158080246270 -5.536419719195320 -1.539245911483321 18.000000000000000
-2.755085892520292 -5.551775863146473 -1.659018532211112 6.000000000000000
-2.779106493945560 -5.537434932955765 -1.771586142018163 17.000000000000000
-2.809503145741767 -5.534621038185750 -1.889128380428079 4.000000000000000
-2.849565146058585 -5.550084228139227 -2.014368272915434 15.000000000000000
-2.875128810242495 -5.536001635107283 -2.130911593802769 7.000000000000000
-2.917481217410563 -5.553247997926710 -2.260965284912524 9.000000000000000
-2.940074272968903 -5.531230460619798 -2.377278456752191 9.000000000000000
-2.863181181418864 -5.324018758660006 -2.410618547137902 7.000000000000000
-2.963693375139525 -5.445236800336994 -2.593128952908018 2.000000000000000
-3.018808967080358 -5.481439280364830 -2.741685582985169 1.000000000000000
-2.916450331384513 -5.231187173455279 -2.744219783625963 0.000000000000000
-2.943469381959282 -5.093553924284946 -3.061881842571600 2.000000000000000
-2.560943900319585 -4.157660422000402 -3.085061126581991 11.000000000000000
-2.555488105646937 -5.537299951937074 -0.867980290199447 26.000000000000000
-2.585149124978753 -5.536585817108945 -0.977018675056752 5.000000000000000
-2.624211437020823 -5.555441514625957 -1.090038490778911 22.000000000000000
-2.647239094367636 -5.540170366312571 -1.198404560022883 19.000000000000000
-2.683363855680509 -5.551191503557496 -1.313105977771214 7.000000000000000
-2.708027248389155 -5.539424339420304 -1.423007522755868 19.000000000000000
-2.738969636330566 -5.539507616291568 -1.537310866515595 3.000000000000000
-2.771220867418503 -5.540879822137307 -1.653097002784736 19.000000000000000
-2.798826877588144 -5.533380031349387 -1.767760599728951 8.000000000000000
-2.843336725698625 -5.557736525262450 -1.894617898167621 8.000000000000000
-2.866180799132061 -5.539059197482152 -2.008117235988739 15.000000000000000
-2.902400236167345 -5.545079289812031 -2.132302168735341 5.000000000000000
-2.932684204775319 -5.538803222695257 -2.253136084510211 10.000000000000000
-2.967736849335724 -5.539883254293897 -2.379208171196657 4.000000000000000
-2.886793347154320 -5.326207929062169 -2.410048395203058 8.000000000000000
-2.975489534786919 -5.424426519879586 -2.581796846926683 8.000000000000000
-3.034461921016050 -5.467036889028279 -2.733226025031151 2.000000000000000
-2.938529655406234 -5.229824401118861 -2.742479935707802 0.000000000000000
-2.969199263621232 -5.098096610728631 -3.064175367140135 1.000000000000000
-2.573378732609332 -4.145260386805014 -3.076420358816254 68.000000000000000
-2.573854232453275 -5.533875720819656 -0.863938595390381 21.000000000000000
-2.615454115949812 -5.558100766200452 -0.977402496478872 11.000000000000000
-2.637888175285243 -5.541158435699567 -1.083943340385378 28.000000000000000
-2.672931833848283 -5.550642950591541 -1.197486637357124 3.000000000000000
-2.699019218801874 -5.540376308979571 -1.307488283479439 19.000000000000000
-2.723797219197286 -5.528579652584675 -1.417290278566762 9.000000000000000
-2.765283315609640 -5.549467329522152 -1.537258775540812 17.000000000000000
-2.787305754583481 -5.529942411056778 -1.647157418360904 21.000000000000000
-2.827278478840678 -5.546404412089337 -1.769372346522993 4.000000000000000
-2.859798293633342 -5.546687365629940 -1.888441947133407 16.000000000000000
-2.889789435315679 -5.541499039111865 -2.006739001230645 4.000000000000000
-2.927987849129631 -5.550707585570937 -2.132349984133584 13.000000000000000
-2.951358336578866 -5.530967920541669 -2.247994179495444 5.000000000000000
-2.995482338247160 -5.548435501169221 -2.381081487604819 9.000000000000000
-2.910444388349504 -5.328316885912004 -2.409434918322111 10.000000000000000
-2.999672486176604 -5.426223028100861 -2.581225411501871 5.000000000000000
-3.035720596306238 -5.426999757931238 -2.711960561766409 0.000000000000000
-2.962418261604671 -5.231557029846979 -2.742362683302448 0.000000000000000
-2.991394320467918 -5.096423497237628 -3.062737918313687 1.000000000000000
-2.592927025740351 -4.144313564372316 -3.076291683073133 80.000000000000000
-2.603983277593312 -5.555500472070484 -0.863771726116932 4.000000000000000
-2.632363901992464 -5.550936290756263 -0.972710945477697 27.000000000000000
-2.654902496327243 -5.533949338181596 -1.079222617180922 7.000000000000000
-2.695278109456436 -5.553954227246124 -1.194994708917097 23.000000000000000
-2.718074605099647 -5.536547202520406 -1.303507389843209 22.000000000000000
-2.755122465765569 -5.549124562425992 -1.419595995103671 5.000000000000000
-2.781224251537024 -5.538508566161509 -1.531394960556527 20.000000000000000
-2.813846390785749 -5.539646985787269 -1.647350527944805 4.000000000000000
-2.848801320435615 -5.545628342129918 -1.766560875727093 18.000000000000000
-2.876208950052527 -5.535595931143712 -1.882247529615305 9.000000000000000
-2.918752806209980 -5.553975023060080 -2.008976729448638 12.000000000000000
-2.942966507720995 -5.536174717464132 -2.124645295606641 11.000000000000000
-2.986057222196739 -5.552934088057111 -2.254950394013139 4.000000000000000
-3.010787702826534 -5.533870110232957 -2.373028236574275 6.000000000000000
-2.937720926858959 -5.336861732637113 -2.411722745799882 11.000000000000000
-2.854900322508879 -5.124592720071898 -2.436390281117705 1.000000000000000
-2.988149481872805 -5.236370717627810 -2.743858666468318 0.000000000000000
-3.106728961421542 -5.314634570083916 -3.054059355469958 21.000000000000000
-3.020840436273425 -5.106910806382135 -3.068612890905718 2.000000000000000
-2.612494490903551 -4.143302767237664 -3.076129177066416 70.000000000000000
-2.620723762177891 -5.548348865752322 -0.859097099437008 34.000000000000000
-2.645839504539598 -5.536593612398557 -0.966751512729688 26.000000000000000
-2.683894498514599 -5.551523025712480 -1.079306451304364 9.000000000000000
-2.709035310647422 -5.539546736147847 -1.188675583874410 22.000000000000000
-2.738860160082656 -5.536167848246634 -1.300320952516048 3.000000000000000
-2.776127059919336 -5.548619570511852 -1.416486995675035 20.000000000000000
-2.797115071966787 -5.527509035749165 -1.525513400100956 11.000000000000000
-2.842231785727872 -5.552696199762745 -1.648510657939012 8.000000000000000
-2.866800838723753 -5.537945209179026 -1.761537910810854 17.000000000000000
-2.908559426585757 -5.555003032525212 -1.886405940049708 4.000000000000000
-2.937121103241119 -5.546137350021454 -2.003852319806196 16.000000000000000
-2.966818141786605 -5.538310062531605 -2.123331289466399 3.000000000000000
-3.004773158752798 -5.544949908711901 -2.249729933639725 11.000000000000000
-3.013417523484248 -5.496286919595014 -2.355113782102008 2.000000000000000
-2.963275764067264 -5.342053461368492 -2.412485349587118 10.000000000000000
-2.863634053540785 -5.100895841080405 -2.423775077405118 1.000000000000000
-3.010309659919544 -5.234779076442631 -2.741997040887083 0.000000000000000
-3.009469805753106 -5.108769993207850 -2.935134859722704 22.000000000000000
-2.633898601493562 -4.145088528241263 -3.078057057640897 67.000000000000000
-2.637437515702668 -5.541149723757237 -0.854399841800799 35.000000000000000
-2.676390145364918 -5.557825936126180 -0.966976035647575 4.000000000000000
-2.702656770109898 -5.547727169239000 -1.075204928684096 23.000000000000000
-2.726194178269365 -5.532156543009073 -1.183853574565762 12.000000000000000
-2.766648430776436 -5.549734914749866 -1.300382573125529 20.000000000000000
-2.791880016639492 -5.537597592390188 -1.410680288883154 23.000000000000000
-2.830602805238938 -5.551076616445548 -1.529147526344306 3.000000000000000
-2.861855830215333 -5.548449157874273 -1.644514867535948 20.000000000000000
-2.886552361093621 -5.533624676438886 -1.757574865253676 4.000000000000000
-2.928543677603285 -5.550561756514963 -1.882445249000182 17.000000000000000
-2.955460102837378 -5.538247519797135 -1.998703076997020 7.000000000000000
-2.996108839714358 -5.550370822701166 -2.125806094424667 9.000000000000000
-3.023459249834139 -5.536912585201481 -2.244484169788201 5.000000000000000
-3.030306643735783 -5.484964911757152 -2.348460253383827 2.000000000000000
-2.981627369632631 -5.334160367877426 -2.407333669939287 14.000000000000000
-2.883148669766554 -5.096501493936942 -2.420335156609903 1.000000000000000
-3.028831372452850 -5.226810639201308 -2.736796495755100 0.000000000000000
-3.010794813954596 -5.133294078437184 -2.816640284549281 11.000000000000000
-3.033406969355638 -5.110088836357151 -2.935271408712090 10.000000000000000
-2.655343386440978 -4.146800609174512 -3.079944838440136 57.000000000000000
-2.655837816962515 -5.537475682094048 -0.850228534106477 7.000000000000000
-2.695009348621021 -5.554045167657129 -0.962814045633830 30.000000000000000
-2.719676659162602 -5.540335601766927 -1.070390718102533 27.000000000000000
-2.759051505339802 -5.556387977032829 -1.185767025839056 5.000000000000000
-2.782237255356141 -5.538703707551936 -1.294658678902961 23.000000000000000
-2.809349718470885 -5.530013427563111 -1.405740249939248 4.000000000000000
-2.851830436991456 -5.550316188032082 -1.526050251963594 20.000000000000000
-2.879689067797187 -5.540708925854225 -1.639472924987994 13.000000000000000
-2.920631525298726 -5.556514736286785 -1.762230257049012 12.000000000000000
-2.944922919011840 -5.539291563420858 -1.876161500642546 16.000000000000000
-2.986408596294105 -5.553810248551520 -2.002001852912423 5.000000000000000
-3.014633342481750 -5.542336756836138 -2.120571876692789 11.000000000000000
-3.043932584201189 -5.532124958019955 -2.240550796498703 4.000000000000000
-3.054433221522206 -5.486694207311162 -2.347390118987388 2.000000000000000
-3.007257521829547 -5.339190105026515 -2.408008974191451 18.000000000000000
-2.908151154051055 -5.101685161743784 -2.421439525496107 1.000000000000000
-3.017916091502270 -5.168427339804427 -2.705210767724723 1.000000000000000
-3.016257345758141 -5.103540594311342 -2.799500138663382 24.000000000000000
-2.680508018844813 -4.154141117448470 -3.086028570385023 49.000000000000000
-2.688026159483374 -5.562287678534793 -0.850392348950224 9.000000000000000
-2.708414276306395 -5.539553968596387 -0.956783119054532 20.000000000000000
-2.741911607071205 -5.543495112346829 -1.067594810026265 3.000000000000000
-2.776253029443101 -5.548857477641361 -1.180870784350069 22.000000000000000
-2.801313097055315 -5.534620964639912 -1.290547058434806 16.000000000000000
-2.846347514955992 -5.560584788647263 -1.410467522620965 6.000000000000000
-2.873073425937640 -5.549486298692742 -1.522916580050423 22.000000000000000
-2.904674301069749 -5.546630357571168 -1.638457470053742 4.000000000000000
-2.936852071558943 -5.545226062674145 -1.756025006547269 18.000000000000000
-2.968490770662361 -5.541495276657387 -1.874431285290620 4.000000000000000
-3.008399483213492 -5.552488266448656 -1.999195488277918 18.000000000000000
-3.033127841717032 -5.534250079558332 -2.115312637108182 5.000000000000000
-3.062569557908420 -5.523976720058581 -2.235251417452510 0.000000000000000
-3.073095622858523 -5.478534852181526 -2.342083509655480 1.000000000000000
-3.029270825301587 -5.337651110289983 -2.405714632244803 20.000000000000000
-2.933214139991882 -5.106779649226318 -2.422494669385182 1.000000000000000
-3.012161792193749 -5.119575660040465 -2.678634427981799 16.000000000000000
-2.700204435915208 -4.152849242863835 -3.085714693601646 36.000000000000000
-2.699561297633266 -5.544209613606077 -0.843969525941881 26.000000000000000
-2.728736275482408 -5.539218815283399 -0.953182697743071 15.000000000000000
-2.767700556724573 -5.553634381641630 -1.066111993814189 24.000000000000000
-2.791657334411559 -5.537768759285752 -1.175206575843114 27.000000000000000
-2.827500173114914 -5.544436472398568 -1.289652268858409 3.000000000000000
-2.862092060115943 -5.549379949042292 -1.404567983612275 23.000000000000000
-2.887140604387126 -5.534801528229383 -1.515970703413771 6.000000000000000
-2.933331035673963 -5.559308789760260 -1.639411728409383 21.000000000000000
-2.953021108381289 -5.533895932416533 -1.749801743809364 9.000000000000000
-2.997558731526047 -5.553740454475705 -1.876076921496538 9.000000000000000
-3.021265991214883 -5.534354267518721 -1.990331292002835 9.000000000000000
-3.055259933919275 -5.532752830861092 -2.112564519437489 3.000000000000000
-3.104640509978808 -5.493169897566416 -2.346511406379417 0.000000000000000
-3.043901604501437 -5.323104567530557 -2.397556419617463 5.000000000000000
-2.949069261379374 -5.095770289838846 -2.415908037319102 1.000000000000000
-3.008233179282834 -5.136928238614249 -2.559863553080403 6.000000000000000
-3.028411047162277 -5.108453926663309 -2.671810062220683 17.000000000000000
-2.725503667795945 -4.160017262564918 -3.091702141538335 16.000000000000000
-2.714495863056696 -5.533229308014044 -0.838621269932092 42.000000000000000
-2.756104520180810 -5.552982461696441 -0.951975658265824 5.000000000000000
-2.781185254899221 -5.539012428420279 -1.059855601361263 22.000000000000000
-2.810571584085878 -5.533649974260348 -1.171008681905238 4.000000000000000
-2.855558072403029 -5.557638792782321 -1.289511203555426 20.000000000000000
-2.881385356285636 -5.545062027038868 -1.400400494456604 18.000000000000000
-2.919221721945414 -5.554500593333293 -1.518421448999636 9.000000000000000
-2.943918048543348 -5.537694626105282 -1.630240703535958 22.000000000000000
-2.987387673777214 -5.556467508190750 -1.754276978411460 4.000000000000000
-3.017568565912896 -5.549029320611955 -1.871976909313577 19.000000000000000
-3.046907607885632 -5.539599693000092 -1.989867651458747 5.000000000000000
-4.319069170390208 -7.762889947028223 -2.961026371330218 58.000000000000000
-3.106617259471510 -5.455539229616420 -2.328612659346763 0.000000000000000
-3.045435195123564 -5.285922480139059 -2.379212476064977 1.000000000000000
-2.977925945623523 -5.107106057837647 -2.419910902570641 1.000000000000000
-3.011277406950594 -5.103607150290877 -2.542067354317889 25.000000000000000
-3.042737014431397 -5.094157676980552 -2.663329687265401 0.000000000000000
-2.741675857058314 -5.547086039489616 -0.837010134540175 3.000000000000000
-2.776499986049739 -5.552493964717697 -0.948292465033516 30.000000000000000
-2.798158514398281 -5.531398888156815 -1.054930930629092 23.000000000000000
-2.843805561844925 -5.557470117248894 -1.172689141377815 4.000000000000000
-2.869308210489834 -5.542897096214420 -1.282866389766823 24.000000000000000
-2.904292777124642 -5.547601825968991 -1.397946152484836 3.000000000000000
-2.936891713020428 -5.546578756648563 -1.513296785923647 22.000000000000000
-2.967185104568363 -5.539962964644881 -1.628093027314695 5.000000000000000
-3.005399270151057 -5.548395037335949 -1.749054526491760 19.000000000000000
-3.030197572856123 -5.530799729667216 -1.863312378472782 5.000000000000000
-3.065207853210966 -5.531400774660374 -1.984562996405115 1.000000000000000
-4.352384113186718 -7.764536236184679 -2.958568837842879 81.000000000000000
-3.100896070754644 -5.404928747050937 -2.305195175615461 2.000000000000000
-2.997507454886279 -5.102367175905435 -2.416291013132311 1.000000000000000
-3.032905692222239 -5.101924844026026 -2.540035816282116 6.000000000000000
-2.767189195068440 -5.557288801334997 -0.834806047685995 17.000000000000000
-2.789793380172538 -5.537811085841884 -0.942170511888495 44.000000000000000
-2.827638842126309 -5.548333915202281 -1.054658875615571 3.000000000000000
-2.862792668428717 -5.553195369271452 -1.168407175728089 20.000000000000000
-2.886610012085555 -5.535074983498683 -1.277815152975766 13.000000000000000
-2.929057924641376 -5.553516098130734 -1.396317521876151 20.000000000000000
-2.952701609431819 -5.535175111511844 -1.507213883481235 15.000000000000000
-2.999684038380481 -5.559193350278909 -1.630901886717937 8.000000000000000
-3.025227678347644 -5.543655795552914 -1.744873036811537 13.000000000000000
-3.057563748456193 -5.539422468869549 -1.863684156586007 4.000000000000000
-4.333988641613287 -7.763075452336382 -2.781916241675747 77.000000000000000
-4.383877082327273 -7.762762959176521 -2.954792203638474 81.000000000000000
-3.111757826723158 -5.383636659702671 -2.294298050413814 5.000000000000000
-3.022742098506396 -5.107131908153244 -2.417167325329415 0.000000000000000
-2.780337135368748 -5.542588577027955 -0.828838512310285 25.000000000000000
-2.810175205438768 -5.537207389706637 -0.938429346363050 5.000000000000000
-2.853638198993153 -5.558134281673888 -1.052990188049539 15.000000000000000
-2.876335127862951 -5.538392389203726 -1.161899296596677 24.000000000000000
-2.918465884258977 -5.554961163168718 -1.279132267634474 5.000000000000000
-2.948383368998992 -5.548994882432819 -1.392044289577217 25.000000000000000
-2.983191791052547 -5.551144338469097 -1.508563313646200 4.000000000000000
-3.015677087871175 -5.547662200826234 -1.624664829191745 28.000000000000000
-3.045047749422563 -5.538855470302599 -1.740660875310165 4.000000000000000
-4.323489526757017 -7.775171482929044 -2.612303719529831 65.000000000000000
-4.368983855312996 -7.768046451915061 -2.780347171290702 70.000000000000000
-4.413514531716664 -7.757584906135058 -2.949706070514714 70.000000000000000
-3.128167295334717 -5.372064571801141 -2.287546198177708 1.000000000000000
-3.046137473813292 -5.108623200735281 -2.416488254376499 0.000000000000000
-2.795202489406338 -5.531399412117086 -0.823387871447820 35.000000000000000
-2.841375009048698 -5.557668105528621 -0.938220276237634 3.000000000000000
-2.868842449787741 -5.546813079911304 -1.047297309659841 20.000000000000000
-2.897098193220559 -5.537500022239517 -1.158296836970346 3.000000000000000
-2.937629548589856 -5.550465732451305 -1.274804607826456 25.000000000000000
-2.962170973949736 -5.534082772455106 -1.385155221881390 8.000000000000000
-3.006395135501592 -5.553307005542534 -1.506131996680428 21.000000000000000
-3.031618024028544 -5.536090371698140 -1.618410192990768 8.000000000000000
-3.061121617175901 -5.527245275544478 -1.734300466709744 1.000000000000000
-4.348917201756874 -7.763502064820197 -2.604791519833345 50.000000000000000
-4.400279738676112 -7.766247837917033 -2.776335127726027 81.000000000000000
-4.450708502515363 -7.765497314116487 -2.949579849756075 77.000000000000000
-3.188129331173144 -4.934068551749830 -3.095221945894480 10.000000000000000
-2.819013040743262 -5.537842964527790 -0.820539320416447 2.000000000000000
-2.861849175598379 -5.556899824487184 -0.934389445970571 30.000000000000000
-2.883996151017294 -5.535453444827848 -1.041587903664855 16.000000000000000
-2.927044999057230 -5.553938624343780 -1.158287240073200 13.000000000000000
-2.954940659481605 -5.542451333508293 -1.269654643843975 25.000000000000000
-2.998134948529942 -5.560405676327289 -1.388560241786660 4.000000000000000
-3.022180588933435 -5.541722930205816 -1.499958483660470 23.000000000000000
-3.053122525685313 -5.534658278816966 -1.615108844590902 5.000000000000000
-4.366648205776885 -7.826954989831534 -2.452024272746253 22.000000000000000
-4.378075636313183 -7.758448694659220 -2.599486021324514 36.000000000000000
-4.429703784066131 -7.761027793938249 -2.771084258399265 40.000000000000000
-4.482289885943467 -7.763402353302897 -2.945633595527446 80.000000000000000
-3.080312105502323 -5.151854622385733 -2.310994435843281 1.000000000000000
-3.214039963351079 -4.937533178353465 -3.097264797630472 19.000000000000000
-2.851927854684515 -5.561845122178261 -0.820245297808194 8.000000000000000
-2.878693036430234 -5.549039642671157 -0.929346784613818 34.000000000000000
-2.919270026062598 -5.562489834564126 -1.043069199671456 3.000000000000000
-2.946044390516088 -5.549409002906283 -1.153874415857890 20.000000000000000
-2.974077267512546 -5.537842401601462 -1.265270699056164 3.000000000000000
-3.013770846278566 -5.548807726163838 -1.382466673806602 31.000000000000000
-3.045410333558095 -5.543744956509297 -1.497453758029045 5.000000000000000
-3.076522796077488 -5.536543733684006 -1.612757567094293 0.000000000000000
-4.384429085643204 -7.801680736035562 -2.440232629471520 20.000000000000000
-4.414826239585310 -7.766659033637085 -2.598602072171204 86.000000000000000
-4.462937104296246 -7.762340445817037 -2.768148696571199 74.000000000000000
-4.513892530628960 -7.761203160516926 -2.941632832818222 78.000000000000000
-3.096060367063712 -5.140419357024006 -2.304274948314591 2.000000000000000
-2.936646346305432 -4.310684002024856 -3.077214271287902 7.000000000000000
-2.868622755222601 -5.553993363751768 -0.815216047204922 29.000000000000000
-2.895507661055073 -5.541131576954609 -0.924281467761803 5.000000000000000
-2.936284252459900 -5.554487547900623 -1.037943576969830 24.000000000000000
-2.959469069017635 -5.534410971844249 -1.147274171354817 13.000000000000000
-3.004401948754755 -5.553871873226695 -1.265573445557404 11.000000000000000
-3.031230529166055 -5.540598772540218 -1.377208306966497 15.000000000000000
-3.063019744124271 -5.535467040119737 -1.492151029505031 4.000000000000000
-4.410385415402391 -7.879543480939674 -2.291102577272998 7.000000000000000
-4.417291249402752 -7.803248384444386 -2.436825120646938 29.000000000000000
-4.449754871323118 -7.771401806611162 -2.596530674830736 40.000000000000000
-4.496213468410578 -7.763539198005010 -2.765152358826371 83.000000000000000
-4.543594016384990 -7.755618855395552 -2.936335400478546 78.000000000000000
-3.123381534451660 -5.148105837456692 -2.306121869414260 0.000000000000000
-2.919906250707937 -4.254665447778226 -3.037781001744337 6.000000000000000
-2.881626929367997 -5.539055949330264 -0.809136224705196 30.000000000000000
-2.927038670271338 -5.561191784907900 -0.923847689940864 9.000000000000000
-2.951413658155874 -5.542952945098663 -1.032146339853522 30.000000000000000
-2.991482718235858 -5.554032265233772 -1.147824352084593 3.000000000000000
-3.023585917078833 -5.549113849828254 -1.261110496224184 33.000000000000000
-3.048659690705074 -5.532340179297801 -1.371926466978909 4.000000000000000
-5.124219945904133 -9.193758077064663 -2.473161209142365 30.000000000000000
-4.447073239527342 -7.887845164463672 -2.289331401026697 19.000000000000000
-4.454021093527622 -7.811410988371101 -2.435448720290826 29.000000000000000
-4.478988574735875 -7.766034496446628 -2.591060313344033 37.000000000000000
-4.527605754157192 -7.761321106262856 -2.760920285050148 80.000000000000000
-4.577159898509285 -7.756491433453478 -2.933467556705084 76.000000000000000
-2.918460091550787 -4.221470313599630 -3.014644769358806 6.000000000000000
-2.912972750490960 -5.559231846476171 -0.808155326668252 3.000000000000000
-2.943879163669334 -5.553147661459002 -0.918711336463170 28.000000000000000
-2.970223280407140 -5.538337933921294 -1.027623761021446 6.000000000000000
-3.010499262303526 -5.549305603227137 -1.143309893975308 25.000000000000000
-3.037098156061179 -5.533978195124313 -1.254279126167071 6.000000000000000
-3.071750098528216 -5.534287037898436 -1.369158250291485 1.000000000000000
-5.164847797032647 -9.200199263715428 -2.469732119363786 30.000000000000000
-4.483846512334345 -7.896012993520731 -2.287486668809004 17.000000000000000
-4.488913444270372 -7.816090825668451 -2.432956287061113 28.000000000000000
-4.514013232287164 -7.770544982099586 -2.588864465340615 31.000000000000000
-4.560955866634641 -7.762296495075485 -2.757805414663965 79.000000000000000
-4.610767598138383 -7.757248920755994 -2.930538404011649 61.000000000000000
-3.312315080871454 -4.941624270070069 -3.099384193430367 1.000000000000000
-3.207237568969958 -4.724747294783478 -3.096515166541878 3.000000000000000
-2.926651621798576 -4.202481086889396 -3.001659374239636 6.000000000000000
-2.929642803404640 -5.551207492309929 -0.803039489552985 34.000000000000000
-2.960689773324019 -5.545055648415124 -0.913552364188335 26.000000000000000
-3.004034888778336 -5.561454407260686 -1.028209736854897 7.000000000000000
-3.027619197614400 -5.541065396777129 -1.138056353119586 25.000000000000000
-3.060028276456946 -5.535985173270324 -1.251318947596930 4.000000000000000
-5.138406916443719 -9.191652945852104 -2.268540165844920 30.000000000000000
-5.199801236294443 -9.196322287532174 -2.463499033259351 27.000000000000000
-4.526483128388993 -7.914149702562198 -2.288489670906222 21.000000000000000
-4.521935205969215 -7.817303092074781 -2.429357602259127 24.000000000000000
-4.545218322137408 -7.768294383174015 -2.584393309938227 55.000000000000000
-4.592399185300344 -7.759864993092037 -2.753461278434378 79.000000000000000
-4.646371349528042 -7.761156172140138 -2.928779977044354 19.000000000000000
-3.322582081479203 -4.921107567949004 -3.086423920414750 5.000000000000000
-2.938694235176579 -4.189140934371223 -2.992717565042738 7.000000000000000
-2.948145436583284 -5.546639606622765 -0.798405635624413 26.000000000000000
-2.986845239912519 -5.554349439701751 -0.911230933680795 3.000000000000000
-3.017250686377431 -5.546275595310954 -1.021685527162366 50.000000000000000
-3.046606730157164 -5.536225862834621 -1.133486050837026 4.000000000000000
-3.079173800040017 -5.531053920858451 -1.246769920114968 0.000000000000000
-5.178810349494364 -9.198090753081667 -2.264655793281522 30.000000000000000
-5.248263697992860 -9.216031260967123 -2.463542155760096 26.000000000000000
-4.580890442473565 -7.952295261176870 -2.295221739422631 19.000000000000000
-4.554998315097790 -7.818401514075025 -2.425698273521596 16.000000000000000
-4.578395508682749 -7.769253208572928 -2.580968645131682 65.000000000000000
-4.621902660292982 -7.754042129261801 -2.747897824958156 34.000000000000000
-4.678106502452205 -7.758417621322629 -2.924495779594300 61.000000000000000
-2.956646305650557 -4.184240507852045 -2.989815712670762 6.000000000000000
-2.964766228004191 -5.538515379983153 -0.793241828811292 16.000000000000000
-3.011190442592409 -5.560062375779478 -0.908285470478080 21.000000000000000
-3.034188627242784 -5.537995995225012 -1.016423007995330 16.000000000000000
-3.067493596316408 -5.534771489373303 -1.129589127505336 2.000000000000000
-5.154251161240468 -9.192986192943078 -2.066470378013980 30.000000000000000
-5.219290281457839 -9.204383591520942 -2.260692738525034 23.000000000000000
-5.289133127085458 -9.222030241799994 -2.459872554278688 30.000000000000000
-4.633627480372058 -7.986853638941106 -2.300852303663597 14.000000000000000
-4.595925140353708 -7.832718129488503 -2.426107748688596 29.000000000000000
-4.607687144027174 -7.763481958958333 -2.575288538338020 76.000000000000000
-4.663224049799315 -7.767815613114114 -2.749255546876987 0.000000000000000
-4.705907405498222 -7.749064711318123 -2.917705878028340 27.000000000000000
-4.765245211688001 -7.756496130733648 -3.097847937907624 60.000000000000000
-2.978600089185357 -4.184916668403206 -2.990911230248397 6.000000000000000
-2.996423743667306 -5.558292547317672 -0.792038324085169 4.000000000000000
-3.026109108884603 -5.548304120946443 -0.902463873301507 72.000000000000000
-3.054912100996034 -5.536584620903610 -1.012402484569072 4.000000000000000
-5.130684731546125 -9.192275302635025 -1.870030199233585 31.000000000000000
-5.190578461955726 -9.192572157487705 -2.060594176363504 28.000000000000000
-5.261786264871875 -9.213928518198770 -2.257483236776996 27.000000000000000
-5.279389827598076 -9.140126700847226 -2.432766108920789 32.000000000000000
-4.665076162404864 -7.984320059299301 -2.295752946123066 9.000000000000000
-4.631079083635306 -7.836894675162040 -2.423342396677042 29.000000000000000
-4.640924045528678 -7.764222341650426 -2.571748711101085 88.000000000000000
-4.680901204123036 -7.742114541622192 -2.736627548944448 0.000000000000000
-4.743619549223653 -7.755873755112043 -2.916984721761051 60.000000000000000
-3.303690280329955 -4.728168172090568 -3.099412890868707 11.000000000000000
-3.002604575409839 -4.188326813411503 -2.993974660511697 5.000000000000000
-3.014961591099945 -5.553520698780388 -0.787298197895743 60.000000000000000
-3.040976037027526 -5.536508460915826 -0.896626346050476 5.000000000000000
-3.075646903013218 -5.535104193715963 -1.008346018335552 1.000000000000000
-5.166728917299811 -9.191954312759881 -1.863907778639531 30.000000000000000
-5.234702324092526 -9.205687746642830 -2.057704713862110 26.000000000000000
-5.300477103554924 -9.216532727129305 -2.252529903118814 29.000000000000000
-5.192715110064722 -8.926925313597257 -2.370850107274188 19.000000000000000
-4.712296128774197 -8.008454727755895 -2.298282416985336 5.000000000000000
-4.662339868218099 -7.834300976486169 -2.418458013497841 28.000000000000000
-4.674200912083721 -7.764847882160224 -2.568147815135957 94.000000000000000
-4.736287770464668 -7.778533215748591 -2.745932112569926 9.000000000000000
-4.785410536621185 -7.769032836374418 -2.918625495559683 43.000000000000000
-3.311160526671375 -4.705027444468214 -3.084431343605211 8.000000000000000
-3.227014522087674 -4.525590761396675 -3.099338886697665 6.000000000000000
-3.024639799355140 -4.188843527958535 -2.994983803368023 4.000000000000000
-3.031585433743694 -5.545207879813852 -0.782037932304714 54.000000000000000
-3.067293469898930 -5.545471084172398 -0.894125955401801 4.000000000000000
-5.145220850333648 -9.195009446276735 -1.668750336081902 32.000000000000000
-5.206686845230895 -9.198367203369649 -1.859106475614875 26.000000000000000
-5.275040309694767 -9.211821052101934 -2.053203992580111 30.000000000000000
-5.335298199300434 -9.212227666776622 -2.245852742282301 33.000000000000000
-5.193418767222171 -8.865677751046741 -2.349416847402631 19.000000000000000
-5.197264920286712 -8.770818277058112 -2.512207017580464 20.000000000000000
-4.701570408215842 -7.844871306228813 -2.417608298566368 28.000000000000000
-4.705521699998902 -7.762066535396606 -2.563398648457857 94.000000000000000
-4.757908452600199 -7.759201649286795 -2.735527905611758 80.000000000000000
-4.955894757216496 -7.989294041514070 -2.997951279394286 19.000000000000000
-3.320530648874598 -4.684767831231818 -3.071346704190193 3.000000000000000
-3.046709868403494 -4.189282844873017 -2.995951305249370 4.000000000000000
-3.050093151226846 -5.540325676160903 -0.777243315128112 3.000000000000000
-5.121445473771504 -9.194930642987574 -1.475950788418593 29.000000000000000
-5.177144766030230 -9.187763925167953 -1.661066563069693 30.000000000000000
-5.250621344524298 -9.211481840951510 -1.855606043923764 24.000000000000000
-5.317414529635374 -9.221211500037576 -2.049380684889311 31.000000000000000
-5.372101599735034 -9.211189633529402 -2.239938824451416 34.000000000000000
-5.195753058598527 -8.807859230053856 -2.328928924982288 19.000000000000000
-5.201439969204932 -8.716656090414919 -2.491833230412881 22.000000000000000
-4.730910611208042 -7.838735696529882 -2.411582772518362 5.000000000000000
-4.738866295503132 -7.762467065571100 -2.559678747278345 93.000000000000000
-4.900233239866333 -7.935433447366215 -2.793976771079293 26.000000000000000
-4.956212262176526 -7.933892345058352 -2.973746503869406 20.000000000000000
-3.325681857508313 -4.658757012875824 -3.054499513442485 2.000000000000000
-3.072908929697425 -4.195234488181818 -3.000875588716675 5.000000000000000
-3.074365966231136 -5.545803604245793 -0.773873561257954 2.000000000000000
-5.158904699334677 -9.198110883250878 -1.469817159582891 32.000000000000000
-5.220759678996790 -9.201039708039668 -1.657045764376674 27.000000000000000
-5.288786426581755 -9.214177125663682 -1.849955142942863 30.000000000000000
-5.348047024577231 -9.210061534259241 -2.040954570309919 33.000000000000000
-5.406953177571886 -9.206650126043503 -2.233140119242055 32.000000000000000
-5.197758226564202 -8.750101151605350 -2.308491987176673 19.000000000000000
-5.201304026735716 -8.655883042864756 -2.469603443816270 21.000000000000000
-5.604190374929079 -9.221131266056600 -2.831982417972554 33.000000000000000
-4.770232398538487 -7.759471095951857 -2.554817248849998 56.000000000000000
-4.958748641502811 -7.974259415262601 -2.803925585405183 20.000000000000000
-4.962291881259258 -7.888239535866316 -2.953220667336594 19.000000000000000
-4.956183686213642 -7.787633286263178 -3.094948637246754 21.000000000000000
-3.345099550456009 -4.652829245921480 -3.050828249154113 19.000000000000000
-3.090953200400701 -4.189928505508989 -2.997761069807910 5.000000000000000
-5.132871780903887 -9.195353443932076 -1.276231296422034 30.000000000000000
-5.190570797370865 -9.190808725645843 -1.461966403879726 30.000000000000000
-5.264489539987113 -9.214150032397216 -1.652933472297269 28.000000000000000
-5.328975612457183 -9.220150258686957 -1.844915209182097 31.000000000000000
-5.378646753585924 -9.198819201446074 -2.032483308479228 35.000000000000000
-5.439820636613454 -9.198625171079026 -2.225466783276203 29.000000000000000
-5.201437638260726 -8.695753221430131 -2.288988074951940 20.000000000000000
-5.208865165891814 -8.608483168388533 -2.451219537930083 17.000000000000000
-5.642045151967912 -9.219118086737964 -2.826441615518770 34.000000000000000
-4.961804153088879 -8.015134321724686 -2.634969705917112 17.000000000000000
-4.958551720717813 -7.918605391732260 -2.780639761456912 20.000000000000000
-4.966066204804541 -7.839399156136247 -2.931523719888432 17.000000000000000
-4.976190634272322 -7.764695438798168 -3.082727285065508 34.000000000000000
-3.117262834456567 -4.195702746791832 -3.002588030596154 7.000000000000000
-5.168140674451277 -9.195039283938733 -1.269232262395563 29.000000000000000
-5.235937734639276 -9.207518532582485 -1.457882886630672 25.000000000000000
-5.304391277175613 -9.220241672887637 -1.647504983958904 31.000000000000000
-5.359323428134957 -9.208943102824463 -1.836399553905820 34.000000000000000
-5.415194811945915 -9.197643956379631 -2.026205024262675 31.000000000000000
-5.482695254314736 -9.207322474593845 -2.221801430630963 25.000000000000000
-5.228971737952044 -8.681572537419738 -2.280065095829103 16.000000000000000
-5.238409384546460 -8.597629020859777 -2.443244224297951 5.000000000000000
-5.675867392778732 -9.210385649599750 -2.818816334073246 30.000000000000000
-4.961432413370210 -7.959174322525628 -2.612552106888617 19.000000000000000
-4.958027051877925 -7.863019770107395 -2.757408901078498 19.000000000000000
-4.959296091410511 -7.774522391255955 -2.903860855065230 28.000000000000000
-5.008429969286446 -7.760847363951084 -3.078079504529876 33.000000000000000
-3.318187587080560 -4.491004829954536 -3.077967308837039 5.000000000000000
-3.137411011426224 -4.193040934067764 -3.001392322008838 10.000000000000000
-5.203439909989189 -9.194603920458274 -1.262169500909070 26.000000000000000
-5.279469620560105 -9.220613031419873 -1.453159265322611 29.000000000000000
